982.99 979.47 908.53 811.25 767.77 765.51 762.06 737.62 755.22 728.05 695.47 568.65 513.27 58.02 57.91 28.35 3.46 -55.62 -65.62 -24.39 -6.57 23.90 29.67 27.49 14.62 -3.25 -38.53 -47.38 -62.01 -80.84 -86.13 -106.65 -127.77 -150.33 -150.04 -156.69 -160.55 -163.06 -159.33 -208.52 -223.76 -217.05 -218.38 -209.38 -201.56 -185.21 -170.92 -173.36 -171.74 -176.16 -196.42 -193.60 -154.47 -159.25 -162.32 -146.70 -144.08 -148.34 -149.61 -148.72 -154.99 -159.69 -162.51 -160.74 -172.92 -216.85 -215.28 -219.16 -218.40 -224.08 -224.59 -222.49 -230.63 -227.48 -227.19 -230.36 -222.51 -227.64 -185.64 -189.25 -190.76 -186.77 -178.48 -182.27 -189.64 -180.62 -182.50 -178.06 -178.01 -182.45 -182.89 -186.59 -191.90 -203.18 -211.29 -218.77 -237.89 -267.06 -356.25 -537.21 -804.85 -955.11 -1649.48 -1673.40 -1768.42 -1850.85 -1891.86 -1943.25 -1973.50 -2002.34 -2003.60 -2014.25 -2020.40 -2020.66 -2025.57 -2026.37 -2033.87 -2009.47 -2035.16 -2041.93 -2143.94 -2142.33 -2145.44 -2138.52 -2133.47 -2131.33 -2124.96 -2131.51 -2131.59 -2136.66 -2149.86 -2151.91 -2164.03 -2173.83 -2185.88 -2178.03
964.74 967.84 910.31 805.38 772.36 772.47 777.46 772.43 769.33 736.29 678.97 634.40 535.76 83.11 56.88 8.95 -14.14 -49.77 -41.87 1.27 26.09 31.46 39.53 23.45 11.00 -11.28 -36.11 -45.39 -64.14 -73.76 -89.78 -88.21 -127.54 -152.62 -153.86 -168.66 -167.75 -171.36 -176.30 -218.80 -217.10 -226.14 -214.58 -207.06 -201.99 -186.35 -170.14 -165.84 -163.90 -177.46 -187.46 -188.40 -146.47 -146.60 -145.86 -144.04 -140.20 -141.81 -141.22 -145.82 -142.41 -154.96 -155.40 -165.08 -160.12 -214.25 -214.00 -217.62 -216.91 -224.85 -224.15 -218.19 -223.09 -225.13 -223.64 -225.73 -227.35 -224.84 -181.95 -187.10 -186.79 -179.06 -180.47 -180.95 -182.05 -183.26 -184.08 -177.68 -179.74 -175.39 -183.20 -181.83 -185.03 -191.86 -200.88 -213.91 -226.24 -240.07 -344.23 -496.23 -589.54 -940.45 -1278.11 -1678.77 -1756.06 -1834.49 -1881.96 -1909.33 -1967.06 -1994.49 -2005.72 -2016.31 -2018.45 -2019.91 -2022.89 -2039.59 -2039.52 -2034.73 -2042.41 -2042.02 -2144.01 -2148.45 -2143.18 -2138.22 -2132.64 -2135.54 -2136.03 -2129.25 -2132.05 -2136.77 -2142.02 -2149.50 -2164.22 -2176.04 -2180.87 -2184.96
940.16 940.86 941.71 746.95 747.29 770.49 769.17 776.43 779.50 755.48 733.50 670.15 600.74 96.55 43.65 -6.00 -26.53 -37.61 -15.95 17.31 35.28 20.02 28.06 12.25 -6.92 -17.68 -38.86 -43.50 -51.97 -63.64 -86.14 -97.06 -128.47 -129.79 -142.97 -157.32 -171.35 -164.09 -158.64 -208.96 -210.53 -215.65 -211.17 -213.60 -192.85 -181.55 -167.26 -161.90 -160.03 -169.46 -180.90 -188.48 -142.99 -151.88 -144.88 -148.62 -139.45 -144.30 -137.38 -145.83 -150.78 -152.38 -154.74 -157.93 -157.65 -204.88 -213.81 -211.32 -220.15 -219.94 -221.65 -224.47 -219.72 -231.88 -224.37 -224.81 -224.55 -230.75 -181.62 -182.53 -181.29 -182.77 -179.33 -179.66 -178.29 -178.16 -178.17 -176.51 -177.26 -182.76 -183.28 -183.21 -186.14 -190.69 -190.26 -192.41 -217.64 -240.31 -274.25 -380.17 -572.37 -887.12 -1027.03 -1430.19 -1762.46 -1818.60 -1855.62 -1919.10 -1938.21 -1975.33 -2002.96 -2010.22 -2020.31 -2023.74 -2021.30 -2038.72 -2045.58 -2027.52 -2044.60 -2040.03 -2149.66 -2150.62 -2150.00 -2142.58 -2141.06 -2139.76 -2140.87 -2134.19 -2130.98 -2140.76 -2144.96 -2151.22 -2163.79 -2181.78 -2186.13 -2182.43
919.36 917.62 844.15 762.50 737.34 756.02 766.55 770.41 770.58 783.25 780.16 730.91 606.56 94.98 54.86 1.35 -26.00 -13.46 32.03 42.58 38.25 26.98 8.48 -16.57 -26.76 -40.13 -50.49 -52.50 -48.79 -64.76 -98.52 -96.10 -110.76 -118.78 -132.21 -154.84 -167.50 -156.37 -157.70 -200.30 -195.46 -196.09 -208.92 -202.28 -203.54 -182.05 -163.40 -175.50 -170.23 -180.34 -178.47 -184.62 -146.32 -149.52 -158.11 -156.65 -159.58 -142.29 -142.42 -146.67 -148.06 -153.22 -158.43 -150.30 -159.71 -200.52 -208.31 -208.79 -212.29 -217.91 -216.75 -218.58 -224.71 -226.94 -227.09 -220.64 -227.51 -230.76 -171.80 -176.79 -174.33 -178.12 -178.13 -179.79 -174.45 -184.08 -180.07 -183.66 -177.34 -179.87 -180.98 -181.95 -181.87 -181.88 -188.41 -188.35 -200.91 -211.00 -234.73 -346.15 -522.98 -645.09 -977.87 -1198.52 -1591.20 -1805.76 -1826.15 -1881.34 -1932.30 -1967.07 -1986.82 -2004.39 -2007.86 -2020.86 -2021.28 -2032.14 -2045.13 -2024.88 -2029.85 -2039.98 -2150.66 -2151.76 -2147.86 -2147.41 -2143.72 -2142.75 -2136.60 -2135.13 -2133.42 -2138.26 -2138.61 -2156.93 -2163.65 -2173.04 -2183.08 -2181.93
916.10 921.03 827.95 777.26 683.96 659.55 707.60 724.56 761.91 769.23 786.60 716.34 642.39 104.39 74.85 27.26 28.95 38.37 58.93 33.28 30.24 15.89 0.51 -29.62 -51.51 -51.12 -71.28 -67.73 -68.38 -82.01 -104.58 -99.47 -104.44 -120.44 -130.66 -140.08 -166.60 -164.77 -139.60 -188.29 -174.07 -184.46 -198.44 -199.45 -188.08 -189.62 -189.10 -188.52 -186.14 -191.08 -182.17 -188.66 -147.08 -152.91 -160.00 -168.28 -159.62 -149.45 -144.49 -144.58 -154.42 -155.06 -157.50 -157.39 -151.13 -204.94 -210.16 -212.94 -211.23 -218.29 -215.21 -218.74 -222.53 -224.30 -219.25 -221.82 -223.02 -228.29 -181.98 -180.00 -178.81 -180.29 -174.75 -175.48 -182.06 -182.81 -183.17 -175.51 -183.41 -179.35 -175.96 -182.37 -179.83 -182.91 -182.79 -181.71 -189.40 -200.80 -228.86 -253.93 -396.15 -489.89 -799.89 -1106.75 -1465.72 -1668.76 -1800.64 -1826.62 -1902.32 -1930.97 -1981.28 -2007.59 -2011.91 -2018.85 -2028.58 -2032.50 -2036.04 -2026.67 -2027.26 -2037.87 -2143.07 -2147.82 -2141.50 -2146.96 -2141.86 -2137.68 -2141.82 -2139.45 -2134.12 -2142.00 -2148.73 -2161.72 -2162.99 -2173.12 -2188.43 -2183.29
465.31 467.61 485.33 282.64 263.25 252.82 310.08 355.77 380.49 395.54 412.25 353.74 286.50 406.82 312.68 350.22 307.79 289.85 274.99 235.79 226.12 207.56 199.89 154.47 158.04 152.31 -87.84 -67.79 -68.60 -98.21 -108.97 -108.66 -115.83 -120.09 -142.37 -147.75 -163.84 -156.85 -141.65 -237.73 -236.82 -235.67 -236.94 -246.33 -249.18 -250.87 -258.37 -252.31 -263.45 -261.64 -260.67 -256.67 -205.73 -215.89 -233.72 -225.63 -218.38 -217.76 -211.47 -212.42 -207.81 -212.06 -217.82 -218.34 -214.08 -193.08 -195.54 -194.47 -193.86 -203.63 -205.89 -204.70 -204.62 -203.34 -206.31 -209.06 -210.79 -208.79 -240.47 -235.62 -241.62 -239.38 -235.27 -239.42 -244.47 -239.02 -237.73 -241.67 -244.96 -236.12 -239.46 -224.03 -220.79 -221.15 -224.48 -227.89 -227.88 -240.51 -257.64 -270.47 -327.36 -464.71 -724.59 -943.05 -1524.70 -1704.00 -1743.38 -1851.23 -1883.73 -1938.78 -1955.37 -2002.10 -2029.04 -2033.58 -2036.09 -2039.64 -2048.38 -2012.36 -2016.53 -2022.10 -2103.56 -2104.19 -2107.18 -2114.29 -2113.66 -2115.14 -2107.91 -2110.25 -2112.65 -2117.44 -2117.20 -2124.12 -2139.22 -2159.99 -2163.20 -2158.25
434.25 432.84 346.99 260.68 206.52 246.54 300.96 345.35 370.27 378.32 386.17 397.66 360.16 493.88 424.82 379.55 364.22 337.35 259.58 214.77 221.27 196.58 167.08 157.27 151.07 145.35 -100.22 -87.03 -92.02 -96.62 -128.27 -124.40 -135.67 -160.30 -152.07 -154.04 -152.49 -144.68 -139.16 -241.12 -227.12 -230.19 -246.10 -240.03 -237.19 -248.84 -263.46 -269.58 -273.39 -270.51 -263.32 -265.95 -211.02 -218.82 -231.35 -229.54 -228.18 -221.24 -212.00 -217.58 -215.91 -222.81 -227.65 -223.24 -218.53 -200.10 -204.39 -200.94 -203.85 -204.55 -211.48 -202.16 -198.14 -210.09 -207.88 -201.97 -206.91 -209.55 -233.97 -237.67 -238.76 -239.12 -245.39 -243.72 -238.51 -243.13 -242.62 -237.09 -240.01 -242.33 -244.02 -220.08 -219.53 -222.95 -223.12 -222.94 -222.91 -233.17 -235.94 -294.93 -348.95 -392.66 -608.37 -985.30 -1374.67 -1588.16 -1654.09 -1761.26 -1879.10 -1897.80 -1941.95 -1962.62 -2002.57 -2013.14 -2036.80 -2030.50 -2039.00 -2002.88 -2004.81 -2012.13 -2099.50 -2095.68 -2106.47 -2107.27 -2108.57 -2110.09 -2111.59 -2113.93 -2115.71 -2109.56 -2123.00 -2131.08 -2144.00 -2169.77 -2163.51 -2162.95
422.31 419.04 330.41 239.71 205.49 255.23 295.34 343.69 344.95 361.11 374.37 364.89 389.11 573.03 472.26 449.89 381.09 323.43 244.85 240.03 239.47 207.81 202.58 179.87 166.94 138.74 -107.43 -112.86 -116.01 -128.44 -139.17 -144.89 -155.88 -156.06 -166.92 -153.24 -150.75 -138.83 -129.58 -230.26 -218.65 -219.62 -228.89 -232.47 -243.28 -262.14 -262.25 -278.63 -276.10 -278.91 -268.93 -277.07 -220.40 -221.95 -227.70 -234.20 -230.84 -229.21 -225.16 -219.98 -223.43 -221.37 -233.33 -237.33 -234.52 -201.74 -206.14 -205.94 -205.01 -198.70 -210.42 -209.39 -208.41 -206.15 -209.65 -207.63 -207.98 -209.74 -231.28 -242.47 -238.09 -238.28 -239.89 -242.00 -243.27 -241.64 -242.00 -238.77 -239.15 -239.39 -241.35 -221.99 -214.41 -219.22 -217.19 -223.47 -224.95 -227.71 -234.01 -269.93 -342.10 -411.83 -631.04 -952.12 -1298.74 -1378.72 -1544.71 -1630.20 -1806.85 -1865.70 -1909.97 -1960.09 -1979.67 -1991.86 -2000.99 -2020.14 -2017.99 -1994.20 -2005.81 -2009.81 -2090.12 -2092.27 -2104.79 -2103.14 -2107.90 -2110.72 -2110.66 -2113.75 -2115.14 -2116.61 -2127.74 -2141.44 -2144.60 -2157.98 -2170.70 -2167.37
348.12 349.96 358.73 163.71 140.42 196.99 255.74 277.54 303.19 307.72 333.95 360.68 369.56 548.59 504.33 475.25 402.37 342.12 277.52 277.96 245.03 218.12 202.10 185.36 168.99 142.94 -132.31 -127.44 -121.38 -128.20 -148.23 -150.40 -162.34 -163.23 -153.81 -142.01 -130.54 -122.27 -123.55 -209.61 -213.38 -212.58 -223.53 -230.30 -244.20 -246.05 -280.16 -283.59 -285.96 -278.12 -280.91 -282.63 -234.23 -227.16 -226.69 -230.62 -227.93 -230.25 -233.29 -227.23 -227.18 -233.07 -228.77 -238.37 -236.89 -209.14 -206.16 -200.99 -204.35 -203.19 -213.21 -209.92 -210.68 -211.71 -210.18 -203.52 -203.73 -213.80 -238.38 -239.16 -245.26 -236.51 -235.21 -238.63 -244.02 -237.51 -240.32 -239.95 -240.70 -236.35 -243.71 -221.55 -220.00 -226.40 -220.70 -217.32 -228.41 -215.65 -226.89 -281.64 -315.16 -392.92 -547.15 -571.35 -976.31 -1388.64 -1455.93 -1530.89 -1694.79 -1821.89 -1837.82 -1906.91 -1952.12 -1963.26 -1994.98 -1997.86 -2012.48 -1990.59 -1990.81 -2001.70 -2092.24 -2092.13 -2103.39 -2107.27 -2113.78 -2121.05 -2111.37 -2114.68 -2121.49 -2133.21 -2132.95 -2154.16 -2152.30 -2171.01 -2173.09 -2174.79
317.12 322.46 256.42 151.52 132.65 136.28 178.66 210.68 261.40 287.86 306.86 310.35 332.03 493.88 426.51 415.84 434.75 369.60 352.95 299.14 250.23 193.16 182.12 170.49 167.63 139.68 -131.08 -134.21 -136.28 -137.77 -130.16 -140.68 -159.60 -164.65 -145.33 -126.62 -121.82 -110.35 -108.16 -210.96 -209.02 -204.24 -220.05 -233.52 -254.98 -261.72 -282.05 -280.64 -282.33 -272.37 -280.47 -279.87 -232.62 -229.08 -229.45 -223.07 -229.67 -228.05 -234.66 -232.47 -231.81 -225.47 -231.41 -229.85 -233.77 -207.50 -207.02 -204.43 -213.28 -209.29 -208.79 -211.49 -211.73 -213.72 -215.95 -213.89 -212.42 -207.78 -243.54 -240.76 -240.02 -239.49 -235.47 -238.00 -238.67 -237.38 -239.70 -235.67 -244.19 -240.17 -241.88 -224.21 -221.20 -219.69 -225.51 -221.80 -223.59 -223.71 -218.37 -233.03 -284.77 -350.66 -388.44 -655.46 -1013.76 -1306.43 -1363.44 -1540.50 -1653.35 -1695.66 -1789.84 -1870.05 -1894.87 -1943.79 -1958.53 -1966.61 -1996.34 -1984.68 -1987.13 -2001.26 -2079.40 -2092.05 -2103.25 -2105.77 -2115.40 -2123.44 -2122.61 -2128.20 -2130.62 -2137.94 -2148.82 -2147.53 -2157.34 -2179.54 -2184.71 -2194.59
321.03 326.80 270.30 166.93 141.32 108.63 125.96 149.05 189.46 212.03 216.31 211.93 199.54 373.04 329.85 389.99 418.54 409.09 363.40 310.16 238.81 218.73 181.51 157.65 148.16 140.50 -130.87 -122.72 -121.37 -112.82 -116.28 -138.31 -162.05 -146.52 -126.97 -109.77 -110.16 -99.65 -98.31 -216.39 -215.25 -214.03 -219.54 -255.08 -258.63 -272.02 -285.58 -286.34 -280.64 -268.70 -269.21 -283.78 -235.97 -227.77 -224.98 -213.23 -216.87 -222.57 -236.35 -229.83 -233.05 -229.33 -227.76 -226.00 -229.46 -204.68 -204.53 -209.76 -208.85 -215.14 -212.78 -204.72 -210.79 -212.97 -209.29 -212.42 -211.39 -210.36 -235.55 -238.76 -238.45 -239.76 -237.93 -241.49 -237.45 -243.46 -237.26 -239.44 -232.34 -236.86 -238.23 -225.86 -222.96 -228.07 -223.83 -219.54 -226.92 -222.92 -227.13 -236.60 -257.91 -304.37 -384.29 -723.87 -976.98 -1249.70 -1396.35 -1548.33 -1596.37 -1666.95 -1729.51 -1792.22 -1825.24 -1910.04 -1943.48 -1951.27 -1996.39 -1965.69 -1982.33 -1998.91 -2090.86 -2098.37 -2100.01 -2110.90 -2115.86 -2124.35 -2122.18 -2127.27 -2132.47 -2146.12 -2152.90 -2165.39 -2163.79 -2185.44 -2197.70 -2200.34
393.09 393.45 306.21 198.67 188.68 122.36 97.39 129.22 143.06 151.47 134.67 130.79 129.50 292.87 277.01 329.71 407.05 394.44 353.66 309.95 248.93 209.07 181.96 166.75 148.43 139.80 -105.44 -109.28 -98.28 -110.78 -118.08 -139.47 -142.57 -135.70 -128.00 -106.90 -108.94 -95.52 -109.28 -226.14 -235.11 -234.27 -254.89 -250.72 -260.98 -275.54 -281.94 -279.54 -275.55 -262.80 -265.57 -257.92 -214.75 -211.78 -212.61 -208.39 -215.99 -225.35 -227.03 -229.78 -230.10 -228.14 -226.47 -227.49 -229.63 -208.80 -212.05 -206.16 -215.35 -209.16 -211.64 -205.37 -199.74 -211.97 -212.32 -207.76 -212.20 -212.88 -240.46 -239.97 -239.26 -241.59 -240.04 -242.13 -243.28 -242.61 -233.54 -243.82 -236.49 -243.33 -237.31 -219.40 -215.69 -223.03 -224.35 -221.13 -229.18 -228.43 -233.79 -245.86 -288.46 -348.93 -378.72 -553.64 -883.16 -1235.01 -1341.44 -1472.83 -1512.17 -1590.88 -1652.87 -1702.98 -1815.35 -1868.10 -1902.39 -1961.79 -1996.80 -1966.38 -1985.22 -1996.91 -2098.32 -2108.76 -2112.65 -2118.25 -2118.84 -2124.05 -2135.90 -2140.96 -2149.27 -2151.16 -2166.46 -2175.41 -2181.93 -2194.95 -2209.62 -2202.50
398.10 396.33 325.94 250.06 186.17 125.00 94.46 114.88 117.64 133.29 130.83 102.52 89.19 251.31 267.01 318.31 372.02 385.54 355.20 304.18 281.84 222.74 184.07 181.04 168.33 158.10 -101.00 -93.42 -92.28 -103.30 -134.78 -134.27 -127.28 -121.84 -101.49 -106.90 -98.56 -115.20 -119.90 -256.92 -255.40 -247.12 -256.18 -259.93 -265.19 -278.71 -284.99 -276.94 -268.76 -261.80 -260.80 -259.17 -203.14 -210.01 -204.07 -200.99 -197.68 -213.47 -223.01 -222.60 -226.43 -224.86 -230.95 -232.62 -237.30 -207.92 -212.00 -212.00 -206.15 -212.43 -208.52 -201.42 -203.96 -208.38 -212.19 -207.36 -211.21 -207.61 -242.12 -243.78 -236.71 -234.60 -236.22 -236.73 -244.80 -237.79 -239.59 -245.63 -240.05 -238.53 -239.54 -221.02 -222.02 -219.65 -226.11 -217.15 -224.62 -223.28 -246.63 -274.11 -314.60 -368.72 -383.24 -519.19 -808.57 -1007.98 -1214.03 -1317.57 -1465.88 -1509.93 -1592.41 -1677.01 -1758.74 -1833.59 -1886.06 -1966.83 -2001.21 -1970.17 -1991.07 -2004.67 -2106.35 -2101.38 -2111.25 -2121.06 -2130.39 -2132.23 -2146.62 -2144.25 -2155.79 -2170.63 -2165.05 -2178.29 -2180.29 -2201.73 -2220.04 -2217.08
390.23 390.03 392.64 206.97 192.38 139.61 95.67 93.97 91.54 127.48 127.60 106.22 91.99 228.13 235.97 282.63 352.94 373.54 342.84 320.08 295.92 206.59 191.35 174.60 178.77 174.42 -81.43 -96.45 -105.33 -122.34 -130.97 -121.38 -114.63 -97.58 -99.63 -96.41 -107.74 -111.20 -129.02 -258.18 -261.78 -266.14 -270.95 -271.34 -281.60 -289.13 -273.91 -260.78 -263.42 -259.06 -255.21 -244.46 -196.54 -197.82 -201.56 -199.73 -194.16 -201.71 -212.41 -218.85 -223.97 -235.64 -230.88 -226.83 -226.43 -208.38 -210.48 -212.26 -210.73 -204.24 -208.06 -204.67 -203.95 -212.53 -214.58 -209.37 -208.80 -213.24 -240.39 -232.03 -236.21 -243.66 -237.72 -233.01 -241.34 -241.73 -241.52 -238.82 -246.02 -244.58 -238.93 -219.41 -222.83 -220.82 -224.40 -218.55 -223.13 -229.55 -242.22 -264.43 -297.29 -305.55 -344.54 -533.81 -854.67 -1062.76 -1238.18 -1274.98 -1318.84 -1431.61 -1501.27 -1596.09 -1646.74 -1811.18 -1835.54 -1939.85 -1985.47 -1967.35 -2004.56 -2007.16 -2098.46 -2107.82 -2109.06 -2119.60 -2126.33 -2136.59 -2146.54 -2150.87 -2158.96 -2168.06 -2169.13 -2180.07 -2195.32 -2221.70 -2229.15 -2229.11
386.50 393.85 317.96 213.90 171.66 132.71 93.69 61.95 79.06 85.11 117.19 103.50 72.13 214.51 225.08 283.97 298.46 333.82 342.98 289.12 256.02 200.98 195.50 168.61 169.55 164.12 -88.18 -109.43 -126.59 -123.40 -112.26 -101.63 -93.90 -100.90 -82.63 -90.56 -115.12 -118.35 -143.78 -267.13 -282.69 -276.81 -278.75 -282.12 -280.37 -279.17 -265.99 -256.41 -253.15 -255.76 -246.93 -236.85 -188.19 -187.92 -193.98 -196.45 -198.88 -208.51 -207.45 -215.24 -225.54 -231.05 -235.53 -231.09 -231.70 -207.24 -206.85 -202.62 -205.64 -207.47 -207.35 -207.52 -202.19 -207.14 -204.15 -212.67 -206.71 -209.07 -236.21 -232.23 -238.81 -241.52 -242.83 -241.17 -243.02 -234.52 -238.34 -237.75 -242.50 -242.74 -238.20 -223.05 -224.50 -220.19 -224.11 -216.56 -227.04 -236.89 -234.49 -249.78 -286.35 -299.26 -303.06 -527.03 -850.96 -1001.18 -1137.21 -1260.37 -1280.91 -1353.69 -1451.56 -1481.12 -1645.51 -1740.14 -1843.75 -1889.01 -1945.78 -1969.92 -2006.43 -2014.20 -2104.88 -2108.19 -2108.54 -2118.96 -2125.69 -2132.36 -2130.64 -2147.80 -2157.71 -2171.42 -2175.85 -2190.42 -2200.13 -2222.09 -2231.89 -2227.92
399.91 397.29 320.22 205.44 140.81 98.49 64.97 56.49 56.84 75.88 93.58 74.72 58.58 195.76 221.35 255.28 295.97 319.31 320.62 286.46 230.24 217.38 187.92 179.51 163.65 150.41 -95.82 -116.03 -114.65 -108.25 -102.98 -87.91 -84.17 -87.26 -86.17 -91.89 -112.35 -141.32 -145.72 -261.04 -270.16 -269.32 -273.79 -278.24 -276.91 -267.59 -258.42 -243.89 -237.92 -241.48 -236.68 -246.55 -191.37 -190.95 -196.30 -197.03 -209.09 -212.87 -218.56 -224.64 -234.80 -234.08 -230.59 -227.56 -224.17 -196.19 -197.06 -202.63 -207.19 -204.76 -205.73 -203.77 -206.80 -207.56 -209.09 -201.37 -208.60 -209.28 -232.85 -241.47 -243.46 -236.28 -237.44 -239.39 -242.22 -242.30 -243.43 -238.79 -238.52 -236.62 -237.60 -218.00 -221.23 -217.85 -227.26 -216.45 -221.15 -220.78 -222.68 -229.72 -234.76 -283.36 -308.02 -484.10 -769.03 -1036.45 -1074.98 -1190.64 -1259.78 -1318.89 -1356.01 -1508.24 -1552.71 -1737.19 -1822.41 -1856.20 -1918.99 -1995.32 -2007.57 -2020.26 -2096.34 -2098.48 -2106.03 -2111.20 -2115.01 -2126.34 -2136.46 -2146.99 -2156.60 -2160.89 -2174.35 -2180.78 -2194.35 -2211.43 -2228.27 -2225.91
387.76 382.03 298.75 205.90 137.62 54.14 50.49 46.13 72.08 76.43 62.67 67.43 35.10 195.48 204.20 276.67 294.09 320.45 315.96 292.46 271.42 226.12 215.05 193.68 184.24 159.94 -100.97 -98.35 -103.04 -97.19 -81.78 -73.64 -70.85 -67.23 -77.49 -89.00 -110.71 -112.67 -130.02 -249.46 -255.70 -258.06 -261.22 -270.26 -268.77 -265.64 -250.19 -239.48 -231.70 -226.52 -232.72 -239.07 -205.84 -204.16 -209.00 -197.48 -210.07 -216.64 -222.38 -228.49 -222.69 -230.36 -223.08 -225.44 -217.54 -193.25 -196.24 -204.22 -211.19 -217.87 -207.79 -204.52 -199.31 -200.94 -195.11 -200.84 -203.26 -211.28 -240.86 -236.77 -239.88 -241.54 -240.74 -238.27 -236.74 -239.17 -241.87 -235.32 -241.03 -243.38 -245.47 -223.80 -222.69 -217.29 -223.50 -223.36 -224.42 -221.76 -219.74 -225.24 -251.22 -273.48 -337.43 -372.47 -572.51 -832.27 -1112.55 -1134.83 -1225.92 -1241.45 -1299.98 -1467.22 -1540.11 -1730.13 -1801.79 -1843.47 -1875.03 -1948.02 -1981.79 -1993.10 -2070.94 -2091.60 -2090.29 -2107.63 -2105.31 -2112.13 -2129.53 -2146.78 -2159.01 -2157.92 -2173.56 -2188.20 -2195.07 -2213.47 -2224.17 -2224.45
279.66 278.20 206.91 88.90 54.73 8.64 -15.22 -40.09 -7.56 -18.05 -9.18 -24.25 -39.43 510.11 537.94 601.02 628.30 658.25 647.83 621.99 619.81 588.05 565.75 555.11 528.37 510.97 -56.70 -69.24 -72.19 -80.17 -61.92 -37.16 -44.23 -46.76 -53.17 -68.69 -87.30 -76.72 -95.15 -132.46 -144.59 -153.30 -156.28 -164.39 -171.95 -163.99 -149.45 -139.97 -117.73 -115.88 -123.71 -131.00 -147.15 -146.37 -159.91 -153.10 -163.44 -160.32 -172.06 -170.99 -161.80 -158.42 -159.92 -152.05 -169.66 -171.45 -178.60 -181.14 -187.65 -178.39 -186.08 -172.29 -167.83 -166.81 -163.11 -172.08 -177.61 -181.41 -206.90 -213.08 -216.86 -213.59 -222.09 -216.06 -216.99 -214.67 -216.02 -215.02 -216.05 -215.06 -215.06 -296.96 -288.16 -292.54 -288.76 -291.37 -293.98 -286.03 -293.37 -297.93 -292.04 -336.94 -416.50 -432.60 -469.76 -680.37 -819.62 -922.29 -1106.77 -1147.11 -1174.69 -1267.28 -1508.72 -1621.69 -1673.77 -1749.56 -1795.82 -1899.44 -1944.26 -1959.08 -1987.61 -2009.44 -2030.15 -2042.54 -2045.63 -2056.55 -2064.63 -2086.67 -2097.82 -2107.93 -2114.37 -2126.63 -2139.22 -2148.44 -2167.51 -2168.67
243.79 242.23 152.50 45.00 22.45 21.19 -16.25 -24.65 -49.44 -37.31 -51.27 -37.57 -37.76 516.84 532.32 561.65 601.82 606.74 637.63 620.77 617.11 614.60 603.02 574.26 551.15 520.09 -53.19 -53.39 -56.30 -58.33 -56.60 -45.83 -49.35 -46.49 -55.51 -78.45 -85.31 -88.35 -109.39 -134.02 -153.47 -157.82 -164.51 -163.59 -165.95 -160.87 -161.63 -145.72 -128.92 -128.84 -126.36 -128.08 -131.23 -145.10 -142.00 -145.78 -152.83 -155.92 -169.11 -156.14 -149.97 -148.34 -150.39 -161.27 -161.79 -179.69 -185.57 -177.32 -178.93 -171.62 -167.62 -176.27 -168.86 -167.90 -165.62 -170.39 -182.63 -181.54 -214.44 -213.07 -216.31 -218.37 -217.08 -219.86 -218.74 -217.67 -214.06 -209.14 -219.04 -210.15 -211.70 -290.64 -291.92 -296.41 -294.01 -286.76 -288.99 -292.83 -286.99 -295.47 -296.25 -297.26 -363.12 -422.22 -359.06 -617.24 -676.75 -821.31 -879.65 -1006.95 -1150.84 -1257.13 -1412.56 -1554.11 -1644.42 -1706.14 -1747.79 -1851.20 -1900.69 -1907.74 -1974.85 -1957.58 -1982.41 -1988.28 -2020.06 -2024.79 -2038.03 -2073.24 -2088.87 -2094.62 -2117.08 -2119.81 -2130.53 -2151.73 -2159.18 -2152.56
245.88 242.57 151.39 20.68 8.52 -6.39 -8.65 -29.27 -39.65 -48.34 -55.97 -63.45 -64.71 491.83 506.60 517.41 535.82 593.61 591.13 605.73 615.78 617.28 609.18 591.18 566.70 529.08 -53.66 -52.71 -50.62 -38.98 -37.42 -42.87 -54.74 -57.34 -74.21 -93.90 -110.64 -108.63 -109.19 -152.57 -167.00 -167.97 -168.19 -159.13 -147.01 -146.63 -154.54 -149.07 -130.43 -116.46 -123.72 -122.52 -127.75 -125.87 -134.94 -139.88 -140.10 -145.89 -159.55 -141.03 -139.89 -141.19 -146.23 -156.48 -162.14 -175.47 -174.76 -173.98 -167.79 -168.11 -163.73 -167.15 -168.18 -157.50 -161.39 -177.44 -176.34 -179.25 -212.49 -208.49 -210.36 -222.41 -212.45 -215.57 -211.40 -215.19 -222.33 -224.48 -220.12 -215.65 -216.23 -290.56 -288.77 -285.70 -296.99 -289.66 -296.42 -292.23 -289.27 -292.82 -293.38 -296.48 -296.06 -344.08 -240.83 -386.34 -524.29 -540.32 -757.80 -917.18 -1054.91 -1140.64 -1327.69 -1471.62 -1604.82 -1646.66 -1725.68 -1777.31 -1824.21 -1853.43 -1877.25 -1868.38 -1880.98 -1908.57 -1915.01 -1968.57 -2013.52 -2033.95 -2069.57 -2072.79 -2089.24 -2105.60 -2110.61 -2130.64 -2139.05 -2142.26
327.47 323.21 192.08 31.39 8.10 -5.57 -8.44 -17.19 -35.38 -44.68 -48.29 -61.12 -55.10 508.90 498.06 509.15 497.93 531.55 545.62 591.00 597.60 604.57 599.85 589.44 596.19 558.45 -16.50 -28.58 -29.57 -26.83 -32.96 -46.32 -64.86 -67.01 -88.99 -107.05 -123.19 -116.44 -126.91 -151.94 -162.91 -171.88 -164.46 -157.35 -144.75 -139.56 -137.47 -127.39 -125.04 -120.46 -115.32 -120.80 -122.86 -127.27 -121.64 -129.84 -133.62 -133.78 -138.21 -132.79 -126.64 -128.34 -142.50 -148.97 -151.79 -174.51 -175.19 -158.69 -153.57 -164.21 -166.93 -154.52 -160.99 -162.87 -171.08 -170.61 -175.47 -170.18 -203.90 -205.19 -209.25 -213.20 -215.89 -211.65 -214.41 -212.09 -211.19 -216.79 -216.62 -216.63 -219.03 -293.87 -289.75 -291.15 -285.19 -288.50 -289.68 -293.24 -290.68 -292.57 -290.57 -298.17 -289.67 -307.03 -198.90 -202.99 -390.55 -465.96 -576.74 -750.21 -842.68 -988.18 -1280.53 -1375.04 -1473.41 -1537.43 -1651.89 -1726.67 -1763.00 -1764.93 -1794.90 -1846.14 -1859.49 -1894.20 -1899.82 -1921.27 -1956.11 -1980.09 -2037.41 -2064.87 -2076.61 -2089.75 -2110.23 -2124.64 -2122.23 -2127.05
277.64 273.41 198.51 38.70 23.98 15.98 32.17 -7.91 1.17 -26.85 -25.84 -41.22 -50.80 524.27 515.21 495.27 485.26 511.49 539.16 518.13 565.88 579.21 605.81 599.82 605.30 582.42 -10.58 -23.87 -24.76 -35.76 -54.64 -61.23 -68.28 -85.78 -96.88 -111.22 -128.06 -124.60 -141.25 -160.78 -158.77 -156.32 -166.93 -164.22 -152.52 -135.21 -124.35 -112.33 -110.36 -110.83 -98.15 -114.70 -115.75 -117.66 -113.78 -114.07 -123.32 -122.77 -131.46 -129.45 -124.32 -125.15 -127.13 -142.38 -154.02 -164.57 -166.18 -162.58 -152.90 -150.53 -154.28 -153.03 -155.28 -153.57 -162.97 -169.94 -164.54 -173.12 -201.95 -204.52 -204.55 -208.06 -209.51 -216.46 -208.57 -212.78 -217.30 -217.29 -218.00 -215.65 -218.30 -289.49 -290.99 -295.61 -298.73 -292.29 -294.61 -291.49 -288.92 -293.68 -284.04 -291.42 -298.56 -309.68 -201.17 -202.52 -203.88 -313.39 -494.55 -556.22 -754.49 -995.84 -1091.65 -1302.50 -1433.59 -1477.68 -1528.27 -1543.99 -1652.48 -1739.54 -1745.07 -1775.22 -1752.40 -1812.44 -1840.61 -1891.71 -1889.55 -1935.33 -2022.02 -2038.90 -2036.64 -2067.90 -2077.01 -2096.68 -2100.91 -2097.16
365.26 364.97 324.20 44.85 47.74 62.06 73.74 54.81 6.91 2.30 4.02 -25.93 -21.95 556.83 540.97 496.99 481.36 509.68 520.47 512.86 515.26 543.61 571.77 590.09 596.93 593.27 21.74 -8.56 -22.63 -36.90 -60.99 -87.05 -94.07 -92.34 -119.04 -123.98 -144.13 -145.74 -138.70 -156.33 -137.29 -149.58 -159.55 -164.07 -155.82 -136.87 -104.04 -101.32 -98.44 -99.01 -97.63 -98.32 -102.46 -108.81 -102.39 -112.58 -106.65 -121.88 -118.67 -124.33 -118.91 -119.64 -128.00 -134.11 -138.14 -156.40 -153.00 -157.56 -147.21 -153.83 -148.53 -153.39 -142.66 -152.29 -154.78 -157.14 -160.65 -166.48 -195.22 -196.94 -204.11 -208.58 -209.31 -209.33 -208.03 -213.46 -213.17 -213.13 -211.49 -210.76 -217.71 -285.39 -294.01 -287.00 -292.19 -297.15 -287.23 -289.99 -297.13 -290.71 -288.24 -297.28 -297.57 -299.16 -198.65 -191.18 -205.41 -205.05 -310.22 -540.05 -695.21 -1003.72 -1141.60 -1197.89 -1365.47 -1426.21 -1445.73 -1505.75 -1535.06 -1605.96 -1651.81 -1661.53 -1684.54 -1733.45 -1740.10 -1798.29 -1845.77 -1849.59 -1950.45 -2000.85 -2029.59 -2048.10 -2040.48 -2062.61 -2069.12 -2068.78
295.80 298.08 203.90 83.73 58.93 92.91 139.59 129.72 67.57 31.70 8.23 5.13 -4.57 552.89 535.82 499.91 483.41 488.02 498.75 492.83 502.74 543.69 556.03 570.43 576.66 596.89 34.76 8.29 -18.72 -33.76 -54.13 -80.24 -98.34 -107.90 -117.65 -134.91 -145.99 -134.23 -129.97 -137.75 -137.79 -133.22 -149.24 -154.34 -148.62 -142.93 -100.49 -79.78 -89.98 -85.60 -92.33 -97.43 -106.56 -105.38 -102.97 -116.43 -115.71 -117.16 -121.87 -127.89 -121.19 -117.76 -124.81 -127.32 -128.28 -140.77 -148.56 -143.86 -154.91 -149.59 -153.59 -149.66 -157.05 -147.52 -161.03 -154.94 -164.41 -161.51 -182.22 -191.87 -208.63 -208.29 -204.76 -207.83 -200.72 -208.22 -207.26 -206.73 -216.74 -217.89 -218.07 -287.65 -293.32 -292.90 -291.81 -292.39 -293.94 -294.79 -291.62 -289.69 -293.34 -288.17 -293.93 -298.54 -188.75 -192.70 -190.24 -201.36 -296.29 -385.71 -786.41 -984.49 -1138.46 -1153.62 -1254.70 -1369.55 -1377.09 -1392.58 -1394.38 -1392.10 -1495.80 -1530.70 -1567.20 -1626.52 -1670.46 -1737.57 -1765.30 -1824.03 -1869.60 -1924.86 -1951.67 -1961.95 -1999.52 -2033.50 -2024.31 -2019.20
298.86 303.15 188.36 61.60 102.80 155.89 186.26 191.23 115.10 86.57 35.23 25.92 19.96 555.47 555.88 530.53 494.23 480.66 475.22 470.39 480.95 504.30 528.28 544.05 573.61 587.63 43.34 14.79 15.81 -9.83 -40.07 -86.93 -94.44 -104.66 -125.07 -136.37 -146.22 -132.20 -120.68 -121.87 -115.10 -126.42 -142.95 -152.16 -148.23 -125.44 -95.90 -78.60 -87.42 -86.51 -94.06 -95.37 -113.88 -119.76 -111.11 -123.24 -130.25 -133.32 -137.07 -125.52 -123.81 -127.06 -123.03 -128.18 -123.82 -143.72 -136.37 -147.08 -141.39 -151.12 -150.19 -150.50 -147.52 -153.96 -157.05 -169.70 -174.08 -166.17 -201.67 -195.05 -206.54 -202.88 -200.75 -201.91 -210.17 -206.31 -203.37 -209.25 -205.87 -212.27 -207.45 -284.38 -290.17 -293.84 -291.17 -290.25 -293.76 -290.80 -296.04 -293.54 -290.98 -290.27 -294.13 -296.12 -181.30 -189.62 -185.95 -185.41 -196.73 -337.93 -519.03 -873.38 -985.51 -1085.33 -1226.16 -1296.64 -1290.64 -1332.41 -1322.03 -1369.47 -1415.84 -1451.43 -1513.89 -1521.61 -1542.01 -1629.25 -1720.29 -1748.51 -1778.04 -1794.14 -1849.88 -1916.66 -1925.59 -1975.63 -1979.09 -1976.80
424.22 414.02 270.31 106.47 178.05 231.46 216.26 222.42 174.65 97.39 64.42 55.36 31.89 571.29 545.54 542.82 531.95 516.38 483.14 482.78 465.03 482.81 501.07 535.15 547.03 578.25 20.93 22.91 -3.61 -18.29 -21.52 -57.33 -87.90 -100.99 -118.36 -132.95 -144.16 -140.44 -124.62 -117.02 -106.27 -111.68 -128.09 -135.98 -136.08 -106.58 -92.14 -81.33 -86.77 -97.22 -101.00 -110.77 -111.94 -121.69 -130.64 -131.82 -139.92 -146.92 -139.66 -132.81 -130.64 -128.23 -133.71 -123.14 -130.67 -141.01 -143.51 -147.07 -139.62 -154.30 -161.48 -161.08 -167.63 -166.72 -166.72 -179.55 -184.61 -179.83 -200.11 -202.05 -207.40 -206.31 -205.13 -209.93 -200.56 -205.32 -210.17 -205.35 -205.76 -209.07 -216.55 -288.62 -293.48 -292.14 -286.44 -292.35 -290.81 -296.57 -289.09 -291.68 -293.09 -287.23 -290.25 -296.54 -187.44 -184.65 -184.64 -187.67 -193.07 -287.64 -440.38 -705.97 -812.39 -942.71 -1064.83 -1153.47 -1270.06 -1264.92 -1285.48 -1310.54 -1378.03 -1384.77 -1411.63 -1432.01 -1491.97 -1494.41 -1547.07 -1583.97 -1637.21 -1750.34 -1809.13 -1855.27 -1875.04 -1876.90 -1926.93 -1918.80
393.53 394.28 268.72 177.08 167.74 252.79 254.80 261.52 200.80 133.20 80.24 84.99 55.54 558.80 538.74 547.90 538.56 520.03 509.13 489.73 463.92 481.56 473.06 513.73 526.54 546.42 -5.49 -2.74 -2.09 -23.64 -30.55 -53.20 -100.28 -103.74 -119.43 -137.48 -149.22 -141.27 -126.23 -121.80 -98.49 -105.64 -117.52 -120.53 -108.71 -99.61 -89.45 -78.20 -83.38 -94.71 -101.95 -120.46 -125.90 -141.79 -143.20 -141.26 -146.00 -158.59 -150.64 -140.15 -142.08 -138.03 -144.25 -152.23 -156.23 -164.14 -157.59 -150.63 -157.27 -169.24 -178.23 -181.10 -173.17 -167.01 -185.76 -182.71 -182.91 -182.60 -207.86 -212.39 -208.51 -209.92 -203.44 -206.46 -200.96 -203.06 -201.45 -210.02 -210.73 -213.33 -213.05 -291.73 -289.75 -293.56 -289.13 -293.79 -291.04 -290.53 -287.00 -296.73 -293.67 -287.29 -295.52 -293.66 -180.66 -182.69 -185.37 -188.89 -199.85 -205.83 -356.09 -539.10 -607.74 -765.32 -994.17 -1133.74 -1226.47 -1227.60 -1205.68 -1244.89 -1271.41 -1294.36 -1299.89 -1343.53 -1353.09 -1397.47 -1472.26 -1493.73 -1600.82 -1631.23 -1707.90 -1815.29 -1819.67 -1870.55 -1852.38 -1855.05
432.38 425.00 486.80 184.11 234.44 270.91 322.62 310.28 262.63 147.04 83.40 63.16 38.50 555.08 529.92 520.99 530.18 537.35 525.60 505.18 497.46 472.04 472.29 481.49 517.84 524.21 -26.86 -5.28 -33.55 -39.38 -57.37 -55.62 -108.76 -138.09 -135.00 -149.85 -138.13 -140.09 -115.80 -125.50 -104.05 -93.43 -100.86 -102.85 -97.78 -90.63 -77.74 -78.53 -81.57 -106.92 -119.93 -133.57 -133.09 -144.89 -136.47 -130.60 -133.85 -150.21 -161.56 -150.37 -143.53 -150.65 -158.85 -162.69 -168.88 -173.17 -171.91 -166.85 -169.74 -176.99 -176.89 -179.92 -186.88 -181.84 -179.16 -184.42 -185.32 -190.44 -209.88 -217.78 -211.50 -212.77 -207.94 -208.37 -209.96 -203.88 -216.77 -213.07 -212.24 -211.85 -217.79 -288.00 -293.71 -289.76 -285.41 -289.01 -284.97 -292.77 -290.97 -290.58 -287.52 -290.76 -288.46 -294.00 -184.38 -183.67 -177.06 -185.14 -192.86 -198.03 -232.64 -440.05 -555.65 -801.97 -1000.38 -1163.14 -1185.17 -1154.13 -1155.09 -1169.24 -1203.62 -1185.75 -1189.18 -1250.27 -1229.11 -1275.81 -1344.15 -1391.40 -1513.34 -1547.12 -1595.73 -1660.29 -1727.91 -1766.86 -1787.78 -1786.69
680.91 679.81 474.39 323.90 279.40 331.85 364.26 352.71 297.98 198.27 102.25 83.58 10.07 538.81 521.12 509.30 509.48 517.16 522.95 516.26 489.67 467.41 459.42 468.32 482.79 510.52 -35.39 -32.11 -64.95 -65.21 -81.74 -116.47 -126.49 -146.63 -139.80 -142.75 -131.50 -124.22 -108.27 -117.55 -105.13 -87.70 -92.28 -78.06 -72.49 -72.90 -76.84 -79.13 -92.20 -101.96 -116.67 -124.52 -134.95 -132.83 -121.18 -128.86 -142.11 -146.16 -156.96 -156.59 -157.30 -157.22 -156.58 -158.61 -177.31 -183.41 -175.94 -161.44 -170.29 -172.44 -183.21 -178.83 -183.64 -180.89 -186.92 -188.76 -183.59 -191.12 -212.79 -221.23 -222.22 -217.25 -216.19 -218.13 -219.53 -214.89 -211.69 -217.00 -218.15 -223.92 -217.85 -294.06 -289.63 -290.57 -284.33 -290.05 -287.63 -287.84 -294.24 -295.75 -291.88 -290.44 -287.80 -293.88 -183.27 -177.54 -183.01 -183.91 -187.50 -198.15 -310.96 -408.50 -641.64 -842.20 -1032.42 -1147.81 -1140.81 -1141.29 -1110.12 -1085.80 -1111.09 -1141.76 -1098.28 -1129.66 -1193.21 -1194.01 -1206.09 -1314.20 -1366.13 -1426.18 -1517.79 -1546.63 -1629.46 -1716.99 -1707.25 -1700.74
767.52 766.77 666.56 435.11 390.97 421.16 444.41 432.02 366.29 245.73 176.38 98.36 29.32 -37.15 -57.85 -81.55 -78.00 -76.66 -81.99 -91.04 -90.14 -106.27 -116.86 -116.21 -98.59 -79.32 -21.14 -22.94 -35.10 -59.33 -75.45 -90.45 -97.14 -94.71 -98.89 -95.41 -74.26 -61.87 -49.43 -116.15 -84.77 -64.83 -72.35 -69.05 -58.59 -65.62 -70.03 -74.64 -85.18 -99.15 -116.40 -126.24 -123.58 -114.83 -109.88 -123.93 -130.91 -147.73 -146.10 -142.69 -152.21 -148.91 -143.03 -153.28 -165.16 -174.06 -171.50 -173.25 -164.26 -168.19 -163.81 -175.96 -178.17 -172.00 -171.56 -165.29 -166.51 -175.34 -187.91 -180.71 -182.60 -186.88 -187.54 -179.75 -185.95 -186.37 -186.79 -183.49 -186.89 -186.89 -185.69 -179.94 -178.31 -178.85 -171.74 -168.31 -170.66 -171.62 -174.77 -174.76 -174.99 -169.91 -171.61 -171.20 -483.56 -486.33 -484.97 -487.24 -489.42 -505.25 -640.78 -784.15 -1021.26 -1166.99 -1329.07 -1404.53 -1416.13 -1099.31 -1056.35 -1049.39 -1126.56 -1117.47 -1131.73 -1137.21 -1132.51 -1119.72 -1120.24 -1206.59 -1291.68 -1340.62 -1434.22 -1555.27 -1558.69 -1691.72 -1690.68 -1690.01
942.16 939.78 740.19 476.46 474.70 511.36 478.18 416.34 319.91 282.42 164.04 86.35 26.78 -45.76 -54.13 -69.25 -83.05 -91.48 -101.42 -104.62 -107.71 -127.12 -133.61 -121.95 -104.62 -100.20 -29.14 -35.80 -49.63 -67.00 -79.32 -100.50 -94.27 -87.60 -82.77 -75.20 -65.61 -46.95 -26.31 -69.31 -76.90 -60.41 -63.07 -59.11 -56.96 -59.46 -75.15 -74.82 -80.31 -96.64 -119.58 -116.02 -120.17 -106.50 -104.57 -115.54 -128.03 -126.97 -139.30 -131.79 -149.51 -148.26 -136.17 -141.87 -157.42 -170.31 -173.18 -175.55 -179.06 -174.16 -168.57 -175.20 -171.55 -169.91 -164.61 -164.90 -162.03 -176.66 -173.36 -181.77 -179.98 -185.47 -185.70 -182.36 -178.36 -177.76 -184.05 -172.11 -185.06 -187.68 -187.58 -170.41 -174.91 -174.19 -171.39 -166.27 -172.69 -174.09 -172.36 -177.09 -175.15 -174.44 -173.69 -173.31 -484.50 -487.79 -484.39 -487.39 -496.39 -499.39 -621.86 -862.13 -1093.12 -1131.42 -1282.48 -1320.78 -1383.54 -1055.65 -1040.97 -1029.10 -1127.33 -1087.36 -1067.12 -1059.12 -1063.09 -1091.67 -1100.39 -1094.04 -1136.81 -1254.98 -1370.49 -1435.53 -1498.45 -1525.10 -1605.94 -1603.17
926.61 931.07 714.90 603.94 550.18 542.03 491.46 400.41 346.95 209.92 144.88 57.89 58.40 -32.92 -58.61 -60.28 -79.23 -82.91 -107.02 -113.95 -121.37 -117.66 -125.26 -134.82 -132.44 -123.07 -49.82 -57.62 -60.83 -83.18 -86.88 -89.47 -81.01 -73.37 -80.60 -38.49 -40.35 -14.26 0.37 -53.61 -53.82 -44.09 -57.85 -59.60 -56.95 -61.48 -76.86 -86.24 -92.70 -97.51 -106.28 -122.90 -111.37 -111.45 -105.24 -114.99 -122.23 -118.03 -111.09 -125.26 -135.11 -139.49 -133.46 -135.80 -151.08 -166.66 -157.89 -164.70 -171.16 -173.41 -184.37 -175.56 -167.72 -162.60 -157.16 -161.54 -155.51 -154.45 -170.40 -170.76 -171.96 -181.41 -176.28 -177.19 -183.56 -184.10 -180.81 -180.95 -180.53 -182.04 -186.64 -171.91 -172.85 -170.46 -176.30 -162.47 -170.45 -166.02 -172.82 -176.24 -167.01 -181.64 -173.73 -179.06 -482.65 -491.35 -485.47 -489.56 -494.43 -509.18 -510.10 -825.03 -1052.96 -1108.28 -1218.12 -1345.70 -1358.71 -1047.17 -1021.60 -994.44 -1078.10 -1072.39 -1022.89 -1029.23 -986.93 -1004.83 -1010.00 -1033.09 -1098.65 -1125.21 -1217.22 -1418.79 -1419.81 -1518.03 -1527.47 -1525.31
831.89 831.40 843.49 504.27 529.46 471.52 360.88 338.24 301.27 270.93 150.21 142.71 82.40 30.73 -7.62 -35.08 -49.02 -76.81 -90.49 -104.09 -101.77 -120.00 -128.07 -128.53 -135.58 -127.99 -69.78 -72.75 -78.52 -87.34 -93.59 -90.88 -67.28 -45.27 -29.79 -10.09 -26.88 1.38 26.29 -20.43 -37.88 -55.89 -57.27 -63.27 -67.83 -75.90 -98.70 -98.62 -98.35 -96.77 -101.66 -110.95 -113.08 -97.95 -101.27 -99.25 -109.69 -114.50 -106.52 -115.79 -123.53 -132.74 -130.22 -125.83 -131.53 -141.89 -152.33 -159.47 -162.76 -173.73 -180.48 -173.46 -169.15 -157.59 -159.86 -153.13 -142.46 -150.69 -161.04 -163.90 -172.53 -171.88 -174.61 -181.30 -172.97 -182.02 -181.28 -182.18 -178.03 -183.82 -183.88 -174.28 -168.33 -175.24 -167.70 -170.70 -172.41 -171.76 -182.58 -170.94 -175.46 -172.64 -168.90 -176.09 -490.25 -486.06 -484.67 -492.61 -499.14 -506.82 -527.48 -889.83 -1118.13 -1136.87 -1200.58 -1326.73 -1340.04 -1013.45 -999.58 -979.53 -1027.42 -989.74 -964.16 -971.54 -945.95 -936.09 -942.28 -943.01 -1016.04 -1047.23 -1116.24 -1229.61 -1328.29 -1403.25 -1455.98 -1452.08
773.85 776.41 639.84 478.52 414.64 379.17 262.35 299.81 354.85 358.97 292.66 175.77 160.11 57.67 36.17 3.43 -8.95 -49.96 -67.52 -82.72 -103.69 -101.46 -102.46 -132.36 -136.68 -136.84 -87.04 -81.53 -91.92 -90.06 -88.06 -77.48 -60.83 -32.62 -28.43 9.46 6.99 20.26 31.48 -23.28 -47.64 -58.47 -64.35 -65.06 -74.82 -93.18 -97.50 -97.99 -101.89 -95.35 -94.26 -97.33 -105.41 -97.69 -84.08 -93.50 -98.96 -102.87 -94.42 -105.94 -118.56 -123.30 -134.00 -127.94 -130.51 -140.69 -138.82 -149.41 -157.93 -170.50 -176.23 -173.64 -161.81 -164.11 -146.63 -148.54 -146.86 -152.29 -158.44 -159.65 -164.20 -170.06 -178.66 -175.97 -180.10 -189.75 -182.94 -186.69 -180.78 -180.37 -183.79 -172.08 -179.42 -170.43 -169.10 -176.13 -177.26 -174.99 -177.72 -174.91 -176.38 -174.84 -176.29 -173.65 -484.96 -494.99 -489.64 -496.43 -506.11 -514.54 -541.68 -776.94 -1025.59 -1136.07 -1249.43 -1304.26 -1314.40 -1001.91 -999.30 -934.70 -999.26 -979.40 -954.43 -908.08 -896.25 -900.32 -902.07 -927.06 -963.68 -978.32 -1009.73 -1123.55 -1243.05 -1359.35 -1388.49 -1393.34
762.49 769.16 587.37 417.09 296.00 233.73 256.14 276.18 357.35 357.46 293.59 218.51 180.39 70.56 30.35 9.58 11.74 -5.63 -23.25 -62.52 -76.97 -76.83 -84.95 -104.47 -126.97 -136.65 -78.61 -87.07 -81.19 -90.92 -86.77 -76.31 -53.23 -41.70 -2.73 16.78 41.69 46.04 44.06 -29.78 -55.28 -61.91 -62.78 -79.41 -86.67 -92.95 -94.89 -95.72 -94.50 -83.52 -82.98 -88.95 -110.70 -96.61 -88.95 -88.39 -92.76 -97.95 -104.50 -108.55 -112.54 -125.79 -131.13 -132.68 -137.02 -142.93 -141.88 -154.92 -166.78 -174.79 -178.00 -160.41 -145.36 -149.09 -142.61 -141.44 -144.22 -148.73 -155.25 -159.27 -156.42 -173.16 -175.47 -188.63 -184.80 -184.28 -186.03 -183.43 -185.78 -186.31 -181.21 -173.55 -177.75 -172.05 -170.22 -171.19 -177.19 -167.43 -176.06 -173.31 -173.94 -176.52 -173.04 -180.04 -485.71 -496.35 -497.82 -502.40 -501.27 -535.34 -564.66 -694.54 -936.51 -1177.92 -1258.29 -1271.53 -1305.11 -975.12 -956.66 -910.44 -978.74 -960.47 -911.96 -871.34 -846.68 -839.83 -855.58 -860.06 -905.12 -928.16 -994.93 -1081.31 -1145.28 -1345.77 -1341.83 -1340.35
579.36 583.92 622.34 300.82 283.03 223.57 189.65 240.88 322.02 326.10 269.97 257.90 238.34 121.26 91.99 42.29 55.35 37.23 -0.85 -25.26 -39.36 -41.89 -77.74 -101.48 -115.96 -109.46 -70.51 -80.75 -75.02 -74.11 -72.16 -62.53 -38.38 -36.40 -2.90 31.72 53.35 45.66 41.61 -35.21 -57.06 -69.69 -72.30 -79.08 -87.87 -90.44 -82.44 -81.67 -70.38 -70.87 -78.49 -85.36 -98.65 -97.44 -85.27 -82.78 -97.57 -102.40 -100.30 -115.60 -125.85 -128.12 -148.58 -150.42 -149.26 -156.92 -159.72 -156.33 -164.69 -163.21 -163.83 -161.18 -147.95 -142.65 -144.82 -136.38 -141.77 -146.15 -148.71 -164.39 -165.03 -174.08 -171.17 -179.92 -184.19 -187.56 -184.94 -186.29 -181.31 -187.99 -184.88 -167.87 -176.71 -176.42 -178.67 -173.11 -181.28 -176.19 -179.43 -175.70 -172.34 -167.33 -176.20 -181.20 -479.70 -486.93 -493.03 -505.92 -500.65 -534.92 -564.08 -731.11 -842.50 -1067.00 -1213.24 -1242.81 -1266.17 -962.12 -941.12 -898.24 -955.26 -940.58 -906.74 -855.86 -833.18 -827.37 -823.23 -811.68 -843.88 -887.81 -958.98 -1054.14 -1139.48 -1236.92 -1295.90 -1295.77
527.09 530.23 390.58 305.82 244.38 190.68 166.17 225.48 262.40 249.46 241.86 251.18 262.61 153.32 110.30 59.05 65.23 58.85 -1.66 -27.40 -38.92 -73.70 -86.11 -116.03 -102.98 -97.71 -53.49 -49.15 -55.12 -59.78 -56.07 -52.97 -33.82 -27.31 5.72 38.26 45.93 48.35 32.83 -49.83 -65.26 -72.20 -78.89 -88.04 -89.16 -80.56 -67.31 -59.14 -57.15 -59.83 -64.85 -80.39 -94.65 -82.49 -86.40 -88.03 -100.22 -109.10 -116.39 -126.57 -130.34 -144.58 -145.13 -146.16 -150.87 -150.69 -158.15 -160.03 -150.91 -155.55 -155.80 -145.80 -152.13 -143.55 -135.31 -140.58 -149.90 -151.00 -163.29 -168.00 -173.22 -172.21 -183.35 -184.67 -183.08 -181.54 -182.93 -182.01 -180.00 -185.15 -184.74 -174.76 -173.73 -177.10 -172.82 -175.92 -169.84 -173.51 -172.21 -173.18 -174.54 -170.33 -182.33 -181.45 -489.94 -488.50 -481.09 -498.19 -499.04 -525.09 -621.46 -666.75 -848.19 -1029.49 -1201.20 -1225.08 -1255.73 -955.48 -910.41 -875.68 -923.88 -906.42 -849.33 -802.57 -804.71 -780.43 -784.06 -808.94 -845.60 -880.80 -901.73 -1026.14 -1078.25 -1211.84 -1256.63 -1252.95
517.26 514.86 395.39 267.09 198.70 144.80 164.02 206.16 233.29 221.12 195.04 219.69 236.91 189.61 154.88 101.43 72.58 49.19 -17.53 -67.15 -69.05 -90.96 -96.83 -101.01 -82.00 -66.38 -35.99 -49.04 -42.79 -34.49 -41.72 -40.09 -27.25 -11.79 6.43 31.94 49.21 42.04 21.97 -57.12 -66.37 -69.84 -79.30 -85.60 -78.52 -70.27 -61.41 -50.75 -33.77 -50.19 -56.43 -68.64 -79.51 -80.33 -90.67 -94.85 -104.33 -108.56 -117.17 -133.77 -137.82 -135.52 -130.24 -133.51 -135.38 -149.31 -156.23 -157.34 -143.41 -151.10 -142.19 -152.43 -147.01 -144.87 -143.64 -146.51 -151.14 -157.01 -169.09 -171.32 -178.51 -174.64 -184.52 -188.44 -187.89 -178.50 -178.40 -176.96 -171.32 -173.96 -182.11 -174.30 -181.04 -169.58 -174.15 -175.42 -165.07 -170.43 -171.31 -170.68 -176.52 -178.37 -177.65 -175.89 -483.64 -485.63 -489.87 -497.77 -500.69 -510.49 -600.61 -751.14 -871.89 -958.36 -1159.38 -1188.17 -1224.15 -912.32 -875.35 -832.62 -896.54 -882.60 -813.93 -801.65 -764.65 -766.90 -766.13 -768.63 -813.48 -836.44 -879.12 -968.65 -1001.53 -1214.23 -1210.55 -1213.31
569.44 574.25 443.73 282.96 209.10 139.77 132.55 147.96 174.52 167.74 168.28 181.14 225.76 175.82 149.21 91.55 85.28 55.25 -13.34 -82.88 -78.95 -83.89 -77.87 -85.63 -73.81 -78.14 -22.06 -35.55 -21.39 -9.54 -5.08 -10.62 -22.99 -0.94 21.54 43.81 51.78 42.24 28.15 -51.12 -64.39 -76.08 -75.35 -71.41 -61.25 -61.46 -47.93 -27.61 -31.46 -38.58 -55.62 -58.29 -70.88 -77.45 -85.51 -98.85 -104.41 -126.34 -127.45 -125.10 -131.20 -123.07 -123.72 -115.52 -130.44 -142.01 -140.20 -140.46 -129.66 -142.77 -146.89 -148.13 -151.77 -142.57 -150.19 -140.74 -153.74 -162.96 -176.18 -175.86 -173.89 -185.88 -187.08 -183.47 -184.77 -182.31 -172.45 -166.00 -162.94 -177.67 -183.35 -176.57 -175.40 -174.34 -165.50 -159.63 -161.94 -169.95 -171.23 -167.72 -175.11 -172.30 -176.59 -179.19 -482.72 -483.74 -490.01 -487.08 -502.14 -512.18 -574.64 -725.72 -795.14 -928.75 -1055.68 -1084.42 -1148.01 -882.60 -858.58 -795.26 -865.84 -819.33 -773.70 -720.48 -729.75 -736.23 -729.31 -733.38 -770.99 -791.42 -848.87 -888.92 -978.73 -1064.58 -1158.09 -1159.52
531.35 534.31 417.95 284.56 249.58 158.34 102.62 105.07 85.73 109.18 148.86 188.24 227.68 180.16 146.85 90.01 55.87 0.73 -36.18 -60.31 -56.44 -69.73 -46.05 -56.41 -38.82 -63.25 -13.51 -29.09 -15.24 7.63 21.68 20.45 5.97 17.22 41.76 60.71 51.60 35.19 30.71 -59.66 -59.63 -63.46 -61.60 -61.25 -55.40 -43.31 -36.28 -13.74 -14.28 -20.23 -34.12 -51.01 -74.66 -78.23 -83.67 -96.82 -90.60 -100.43 -116.94 -124.15 -118.07 -122.01 -108.27 -118.41 -118.31 -128.08 -130.42 -134.38 -138.26 -138.27 -149.35 -162.14 -157.63 -165.48 -154.71 -155.13 -156.52 -158.84 -175.88 -182.11 -179.45 -178.82 -185.52 -184.26 -189.11 -181.84 -165.83 -156.82 -163.63 -171.36 -182.64 -165.39 -167.66 -163.46 -161.59 -162.10 -158.83 -167.15 -167.02 -174.03 -174.61 -174.93 -175.76 -171.57 -482.14 -486.79 -483.11 -486.62 -495.75 -510.96 -519.07 -604.30 -666.40 -857.03 -905.73 -982.04 -1077.08 -773.83 -773.37 -780.69 -816.15 -789.95 -736.63 -718.11 -682.54 -699.92 -702.90 -723.52 -748.83 -790.96 -800.77 -836.67 -928.49 -1058.89 -1092.86 -1096.06
489.92 489.60 403.27 280.71 258.00 177.61 109.32 93.09 81.68 108.25 143.70 208.89 225.83 184.78 177.49 111.02 47.97 -5.21 -0.60 -30.65 -30.34 -42.74 -28.39 -25.09 -31.61 -38.15 2.79 -11.30 -1.92 1.89 30.00 30.82 29.23 45.63 72.29 75.07 63.27 43.63 35.91 -42.81 -45.85 -52.96 -54.91 -38.97 -31.09 -37.58 -24.37 -5.79 7.31 -18.14 -31.68 -57.35 -71.15 -82.67 -78.64 -96.21 -88.24 -98.57 -114.46 -119.14 -117.14 -110.50 -110.21 -113.65 -113.92 -128.67 -127.24 -133.40 -142.49 -139.44 -157.45 -163.26 -167.88 -160.79 -161.36 -162.00 -158.43 -162.58 -170.13 -182.99 -181.07 -184.72 -174.15 -173.48 -179.32 -172.95 -168.63 -159.86 -162.49 -164.01 -172.70 -165.37 -161.11 -161.01 -162.85 -162.94 -162.93 -165.20 -170.23 -162.55 -178.08 -177.42 -169.31 -173.57 -481.75 -480.34 -484.90 -486.88 -495.46 -499.66 -508.72 -512.77 -521.11 -610.21 -667.40 -711.94 -871.08 -706.06 -734.30 -718.94 -778.75 -722.67 -696.32 -677.59 -671.95 -649.73 -664.12 -681.89 -679.78 -719.04 -748.21 -803.96 -822.09 -1026.01 -1022.72 -1018.50
461.73 457.26 367.32 231.81 177.50 165.39 116.67 72.95 54.69 90.75 114.26 185.33 239.13 249.79 235.91 198.96 129.08 78.32 49.74 35.89 23.96 24.97 29.40 56.54 48.90 31.27 132.76 105.47 105.93 125.11 142.50 161.16 162.10 188.90 200.24 196.48 175.02 168.66 147.26 1.62 -10.66 -24.39 -25.02 -5.23 12.14 13.81 21.45 28.90 31.74 13.41 -28.04 -46.08 -60.74 -70.37 -82.84 -74.17 -77.39 -83.02 -99.55 -114.31 -119.18 -102.83 -96.60 -97.84 -105.39 -105.87 -107.39 -112.27 -109.38 -122.37 -134.83 -140.43 -144.38 -145.22 -142.27 -139.99 -148.41 -152.80 -181.99 -187.16 -172.45 -173.08 -174.40 -173.35 -168.54 -168.95 -157.46 -159.79 -161.31 -159.28 -164.46 -164.85 -166.82 -171.17 -173.40 -170.47 -174.68 -177.22 -183.51 -188.00 -188.00 -183.52 -186.99 -189.70 -172.52 -174.16 -174.36 -178.22 -181.14 -172.06 -188.53 -187.71 -196.67 -204.64 -215.52 -311.56 -378.81 -578.85 -667.37 -673.72 -855.81 -827.11 -788.82 -756.86 -755.26 -750.05 -752.63 -777.31 -761.73 -801.43 -820.11 -886.19 -950.11 -1030.28 -1086.72 -1088.75
380.75 381.66 379.28 221.24 149.03 128.84 89.13 70.89 52.16 81.65 127.04 185.73 202.15 249.26 226.47 204.50 170.36 129.48 115.64 73.31 62.15 65.15 58.50 72.60 86.63 67.68 153.26 117.57 114.90 130.92 156.34 192.61 200.39 212.45 224.05 200.95 176.69 161.23 166.74 11.38 2.08 -12.94 -7.56 17.42 27.73 21.30 31.76 31.78 24.69 -16.27 -46.76 -55.73 -74.03 -82.56 -94.40 -92.68 -86.99 -89.93 -98.60 -121.03 -123.72 -124.17 -118.19 -107.06 -114.52 -120.92 -120.47 -112.91 -116.86 -118.75 -133.30 -143.69 -142.18 -146.03 -151.74 -146.36 -152.43 -151.93 -176.99 -172.26 -170.24 -165.52 -164.87 -165.33 -159.04 -159.29 -160.06 -158.26 -151.13 -163.47 -166.73 -169.96 -167.32 -173.03 -176.17 -173.76 -177.53 -186.58 -177.79 -179.69 -184.81 -178.04 -189.46 -183.40 -171.05 -169.33 -168.41 -169.03 -176.92 -180.97 -173.95 -177.76 -177.91 -186.92 -216.89 -233.47 -338.10 -377.71 -635.39 -597.06 -828.10 -757.10 -732.50 -722.29 -707.18 -699.35 -718.49 -716.58 -740.97 -738.13 -791.51 -848.24 -883.60 -995.09 -1016.68 -1010.21
288.07 284.85 303.54 143.89 114.30 109.81 79.38 38.70 45.94 74.28 119.77 160.06 198.05 201.10 211.22 205.07 191.22 171.43 142.86 113.71 125.58 138.05 117.54 113.29 85.42 79.71 173.87 152.42 126.65 145.20 196.51 233.72 240.39 235.48 214.35 178.13 161.27 154.15 174.80 32.72 14.81 17.08 15.61 19.27 19.44 10.89 15.84 8.71 -0.71 -24.83 -55.97 -58.31 -92.34 -92.62 -102.81 -96.24 -86.50 -87.21 -106.00 -121.49 -130.54 -128.21 -117.22 -120.50 -131.41 -138.81 -135.60 -131.98 -121.52 -126.78 -135.94 -143.85 -142.30 -137.35 -143.63 -144.61 -146.47 -142.67 -182.01 -176.59 -158.35 -160.44 -156.03 -154.54 -151.11 -154.14 -148.38 -153.98 -151.49 -157.44 -160.25 -165.18 -169.62 -169.13 -176.58 -176.26 -182.92 -182.50 -182.02 -181.46 -188.74 -183.10 -180.04 -189.96 -174.84 -173.21 -176.41 -173.11 -175.04 -178.30 -176.63 -173.81 -177.86 -177.11 -198.94 -215.99 -234.18 -316.18 -421.40 -508.64 -752.15 -738.11 -719.07 -683.51 -692.82 -679.47 -671.20 -676.58 -698.54 -711.13 -730.71 -759.57 -815.40 -867.87 -939.28 -941.31
253.28 258.64 188.93 105.78 92.33 90.11 64.44 45.84 40.26 56.20 107.76 140.62 163.83 187.16 201.46 212.44 196.89 183.08 210.85 214.27 216.55 173.13 173.68 141.76 115.83 113.15 215.85 187.90 202.82 218.03 273.10 268.47 262.57 232.48 199.80 152.02 142.32 153.34 164.89 22.69 9.87 7.28 8.55 1.82 11.03 3.45 -6.46 -28.14 -33.13 -47.82 -57.36 -72.65 -88.16 -99.88 -108.84 -98.84 -108.18 -112.12 -113.82 -125.44 -128.60 -129.62 -135.00 -133.63 -143.45 -139.65 -144.22 -140.27 -137.95 -132.69 -138.19 -141.96 -138.63 -135.84 -135.76 -132.65 -140.07 -144.49 -176.67 -166.40 -158.48 -153.75 -146.26 -142.58 -150.83 -149.34 -151.61 -149.41 -151.54 -154.99 -160.02 -161.48 -173.82 -173.66 -178.19 -184.90 -178.59 -179.68 -182.84 -185.02 -189.79 -182.75 -182.12 -190.60 -169.54 -177.99 -177.44 -174.27 -179.24 -174.97 -177.36 -174.58 -174.57 -170.82 -171.65 -199.25 -229.55 -312.29 -371.21 -501.45 -718.62 -690.96 -670.06 -663.62 -657.98 -654.37 -661.31 -659.28 -683.49 -701.05 -706.21 -748.75 -794.35 -868.12 -874.35 -872.08
252.60 257.79 189.72 98.64 77.72 63.16 51.58 40.45 27.13 49.30 83.47 141.77 155.40 168.32 159.37 168.12 196.43 222.58 244.40 263.45 235.93 177.54 174.28 156.09 144.50 146.40 257.14 239.45 235.56 296.71 288.73 285.23 240.55 226.09 175.11 131.06 121.54 129.13 156.94 8.18 -4.47 -8.79 -24.61 -8.53 -5.90 -2.05 -22.98 -42.79 -59.64 -61.18 -65.85 -74.58 -94.84 -98.37 -106.04 -118.09 -126.07 -125.41 -133.22 -128.61 -132.10 -129.07 -128.00 -139.12 -145.90 -136.86 -149.83 -143.58 -140.17 -141.45 -142.96 -136.90 -136.58 -121.10 -119.81 -124.40 -131.61 -126.62 -164.11 -159.51 -153.76 -148.87 -150.36 -146.02 -142.85 -143.82 -148.35 -154.47 -160.93 -163.99 -162.88 -168.35 -169.35 -178.84 -178.04 -178.40 -178.58 -174.76 -179.11 -179.44 -187.71 -192.50 -188.29 -185.79 -169.93 -175.12 -170.48 -175.38 -176.08 -171.37 -176.97 -178.11 -177.42 -172.26 -174.76 -189.55 -216.19 -231.70 -362.24 -405.74 -691.16 -657.69 -646.89 -623.02 -630.88 -629.51 -642.60 -657.89 -662.04 -678.21 -693.84 -737.18 -761.86 -811.64 -830.61 -827.29
243.27 239.37 167.49 65.78 66.67 34.06 27.30 26.43 34.35 62.00 73.11 115.80 126.91 127.05 134.17 130.99 200.37 239.55 249.67 261.27 225.64 196.95 177.83 137.61 129.05 151.39 262.67 267.50 288.14 307.62 323.27 272.76 202.17 188.03 145.75 111.85 106.92 108.56 105.01 -27.42 -41.97 -37.24 -51.65 -35.33 -27.38 -32.40 -45.09 -70.19 -76.04 -82.50 -81.45 -86.47 -91.99 -101.02 -108.17 -118.46 -118.29 -127.97 -135.93 -127.21 -119.63 -132.55 -135.72 -145.77 -134.83 -125.80 -130.85 -139.56 -131.24 -125.07 -126.33 -131.45 -122.94 -114.83 -115.77 -111.96 -124.47 -114.59 -149.03 -154.18 -150.50 -147.28 -149.58 -148.15 -148.87 -155.53 -155.70 -157.65 -161.48 -168.76 -168.02 -179.85 -176.45 -176.60 -177.28 -173.29 -177.83 -181.27 -175.77 -184.23 -184.31 -185.46 -188.41 -187.36 -173.00 -166.86 -171.24 -168.96 -176.72 -173.29 -174.76 -169.37 -173.00 -176.49 -170.77 -185.23 -198.50 -232.87 -278.66 -330.76 -655.80 -618.90 -614.35 -603.01 -600.07 -604.42 -611.49 -641.11 -649.04 -670.09 -691.58 -717.39 -735.93 -771.33 -795.09 -794.10
244.01 248.61 180.39 62.81 31.16 30.23 25.57 12.90 23.38 50.21 60.26 74.29 68.62 95.15 97.18 130.92 155.32 221.91 232.62 215.38 193.77 173.45 138.27 120.01 101.23 116.82 258.06 262.13 279.93 312.35 325.45 307.68 256.15 169.64 146.45 110.95 101.49 91.56 104.06 -39.95 -41.47 -52.73 -50.99 -52.37 -40.22 -57.71 -68.38 -70.51 -84.54 -91.07 -92.40 -89.37 -95.10 -107.43 -118.18 -110.30 -113.79 -117.41 -124.47 -116.30 -117.37 -123.74 -127.78 -132.83 -130.60 -113.38 -128.31 -132.19 -117.91 -113.03 -115.99 -110.37 -104.62 -107.08 -108.07 -107.06 -106.72 -114.59 -143.64 -145.52 -152.41 -146.54 -151.26 -147.05 -150.68 -155.55 -159.15 -159.61 -167.19 -171.20 -179.61 -176.49 -178.68 -180.99 -173.27 -174.32 -181.52 -175.28 -179.57 -185.09 -183.54 -185.26 -191.16 -183.79 -172.64 -166.61 -174.26 -174.75 -174.13 -177.42 -175.53 -176.38 -180.78 -167.74 -177.67 -178.83 -196.53 -221.07 -276.57 -319.75 -600.12 -591.21 -567.04 -569.54 -581.59 -590.31 -612.83 -621.84 -644.55 -664.41 -694.93 -718.20 -746.31 -802.58 -783.86 -783.65
304.13 299.96 186.99 63.35 53.21 39.85 42.45 41.50 29.22 11.24 23.94 34.68 43.65 50.92 80.74 107.85 141.67 158.00 143.87 131.21 119.92 118.85 91.27 75.70 64.31 99.42 229.46 250.37 268.78 289.32 329.29 298.31 229.76 172.78 149.76 115.09 104.89 94.14 92.89 -55.14 -63.66 -73.61 -70.43 -64.49 -62.94 -66.87 -80.35 -90.56 -85.31 -93.66 -92.32 -90.04 -108.97 -114.59 -111.39 -99.57 -91.65 -95.28 -106.05 -117.11 -100.39 -112.41 -119.51 -108.60 -112.27 -119.49 -124.90 -122.99 -116.29 -111.68 -94.52 -105.64 -105.18 -110.16 -103.08 -107.38 -109.97 -113.67 -144.63 -149.88 -146.48 -150.13 -152.81 -157.10 -156.80 -162.17 -160.60 -162.76 -171.09 -176.49 -181.36 -183.36 -178.91 -177.18 -178.73 -177.56 -176.12 -177.89 -188.72 -188.37 -193.37 -185.92 -186.95 -187.99 -170.62 -175.11 -176.88 -173.27 -174.24 -177.93 -175.70 -177.16 -171.80 -180.07 -173.50 -174.21 -178.06 -215.09 -241.79 -270.97 -544.44 -538.97 -551.03 -531.46 -536.01 -544.17 -560.80 -607.86 -625.51 -672.45 -686.76 -725.41 -771.51 -821.39 -817.23 -820.29
264.81 254.47 185.62 69.34 63.59 74.70 90.09 63.92 37.77 25.56 11.03 19.11 17.23 36.99 68.46 84.76 97.17 93.05 96.19 100.04 100.76 89.13 51.64 44.36 47.42 70.20 220.94 234.92 222.96 259.13 295.70 279.12 235.10 173.93 148.22 125.50 129.76 93.71 94.42 -48.70 -53.74 -66.39 -69.61 -69.32 -79.37 -81.85 -84.73 -90.82 -92.14 -92.27 -94.86 -85.38 -107.80 -109.67 -105.26 -100.91 -86.02 -92.15 -93.18 -99.82 -89.08 -94.62 -96.30 -98.24 -108.76 -107.88 -115.09 -112.48 -104.10 -95.72 -96.55 -89.04 -96.88 -108.31 -105.40 -104.03 -112.83 -118.08 -145.57 -147.16 -153.52 -148.85 -152.42 -165.45 -166.76 -161.48 -164.00 -161.62 -162.70 -177.99 -182.28 -184.67 -185.19 -178.00 -183.09 -186.04 -188.87 -188.26 -183.04 -189.37 -187.53 -181.91 -186.26 -187.19 -176.98 -173.75 -173.75 -168.08 -179.77 -175.68 -176.35 -174.64 -173.13 -182.40 -176.03 -176.24 -176.22 -193.79 -233.63 -269.33 -534.64 -528.15 -499.92 -518.53 -505.48 -523.10 -543.70 -558.94 -625.15 -648.58 -679.31 -777.51 -784.98 -825.60 -875.69 -872.67
293.90 289.06 311.69 128.75 107.11 121.16 107.24 96.88 46.05 22.27 20.20 9.48 15.13 28.13 63.86 68.94 79.71 79.38 71.85 83.27 114.26 100.56 62.04 42.99 27.02 46.24 188.25 187.23 185.33 229.61 279.06 249.75 249.93 201.59 160.91 168.15 194.63 155.35 133.33 -16.13 -18.94 -35.03 -54.98 -55.66 -66.91 -70.10 -70.98 -76.56 -80.53 -83.33 -64.48 -73.20 -91.18 -104.53 -96.63 -90.86 -83.80 -76.03 -71.79 -81.04 -93.89 -84.54 -82.01 -86.10 -102.93 -100.85 -108.41 -104.62 -105.28 -89.72 -89.56 -85.06 -91.37 -104.32 -105.49 -109.13 -117.29 -118.75 -158.18 -153.46 -157.48 -159.40 -161.91 -168.99 -175.83 -173.52 -165.27 -157.46 -166.45 -170.00 -185.69 -186.07 -179.49 -181.41 -189.27 -184.63 -187.03 -189.92 -187.51 -182.64 -187.12 -187.11 -188.89 -185.42 -173.27 -170.13 -177.36 -173.79 -173.83 -174.47 -172.50 -174.84 -179.52 -174.28 -175.90 -173.53 -177.28 -188.52 -226.27 -255.03 -503.17 -473.05 -485.37 -469.73 -496.20 -486.79 -519.51 -550.64 -604.80 -641.25 -712.30 -779.45 -834.04 -859.44 -888.93 -885.95
361.78 361.54 353.26 171.54 125.82 142.29 134.51 88.11 43.45 31.23 6.55 -5.03 0.35 19.21 37.22 33.26 48.94 53.35 67.90 97.73 121.26 126.01 76.16 37.45 26.01 17.54 159.54 165.05 168.49 214.64 251.67 267.93 243.67 218.76 196.22 196.19 203.08 194.69 179.29 16.36 12.69 -14.68 -37.36 -50.98 -60.16 -64.63 -59.94 -64.54 -68.56 -70.81 -60.03 -45.46 -62.67 -66.88 -67.23 -72.74 -69.08 -57.61 -58.56 -73.41 -82.13 -83.19 -66.94 -70.78 -101.89 -92.45 -84.19 -81.27 -91.22 -81.76 -90.69 -86.64 -97.07 -100.84 -110.38 -120.42 -122.69 -124.53 -160.20 -164.09 -153.48 -164.77 -170.08 -178.82 -175.61 -169.66 -172.68 -168.33 -166.60 -174.76 -180.52 -187.07 -181.84 -182.86 -185.28 -183.17 -184.58 -182.42 -186.64 -180.77 -178.05 -180.05 -184.07 -185.86 -171.71 -171.42 -171.76 -167.12 -171.35 -172.54 -174.77 -180.57 -171.16 -173.54 -172.89 -175.65 -175.04 -183.13 -201.14 -213.17 -441.47 -443.54 -454.13 -463.69 -461.96 -464.67 -487.63 -516.37 -574.47 -623.96 -714.33 -761.69 -823.08 -862.90 -874.77 -866.88
396.03 398.25 300.12 185.60 197.68 140.12 127.04 75.68 44.58 17.52 -5.68 -8.62 -9.26 10.19 23.15 21.15 13.27 44.07 61.17 88.84 115.45 116.42 104.96 66.44 34.80 12.75 145.64 151.84 165.22 207.86 239.86 262.78 258.07 246.79 247.53 245.32 249.96 225.93 201.11 36.47 29.34 -3.13 -43.25 -51.55 -47.95 -41.29 -52.88 -53.80 -58.73 -60.47 -48.94 -38.11 -37.83 -41.45 -58.88 -65.00 -51.88 -55.34 -50.14 -59.91 -63.67 -60.08 -61.36 -70.93 -72.53 -78.72 -82.36 -87.36 -84.99 -91.68 -88.23 -89.53 -97.51 -106.83 -111.79 -121.22 -120.03 -116.40 -162.79 -167.12 -174.53 -170.02 -179.27 -181.30 -179.77 -187.22 -175.61 -177.97 -171.18 -182.94 -183.33 -186.21 -179.77 -179.59 -180.20 -176.40 -178.16 -181.34 -180.92 -184.43 -180.28 -182.98 -179.42 -182.58 -169.87 -168.50 -167.60 -181.26 -176.20 -175.21 -178.45 -173.46 -174.37 -172.35 -176.27 -177.50 -170.54 -170.84 -167.99 -193.41 -423.29 -418.10 -426.45 -427.34 -431.46 -434.89 -458.21 -495.06 -538.88 -572.78 -663.11 -751.63 -771.01 -831.05 -837.29 -836.59
587.22 584.83 481.50 447.55 439.19 376.73 316.44 275.54 235.87 229.44 205.69 191.16 176.84 -15.62 -24.80 -24.23 -16.82 4.71 30.68 63.53 66.42 86.07 54.16 38.45 7.06 -2.33 -1.26 11.93 50.42 78.94 89.06 95.90 87.16 83.02 95.51 114.53 111.40 99.78 91.02 168.31 133.23 99.39 78.79 66.51 65.94 75.53 65.27 55.16 39.25 38.01 46.88 57.60 -46.99 -45.09 -51.44 -47.68 -53.50 -51.56 -46.40 -51.05 -49.78 -56.48 -56.49 -68.04 -68.28 -92.94 -90.66 -99.81 -103.34 -102.56 -113.45 -106.31 -119.74 -126.35 -129.62 -140.74 -138.66 -132.09 -146.08 -149.85 -147.23 -161.89 -163.52 -174.73 -171.70 -173.18 -163.89 -167.66 -165.96 -171.17 -169.66 -168.46 -164.43 -161.13 -170.24 -166.88 -170.79 -173.46 -176.15 -176.06 -172.93 -175.59 -174.28 -179.18 -175.50 -167.64 -177.17 -175.49 -178.12 -178.28 -178.35 -175.41 -180.36 -176.22 -173.40 -175.66 -175.44 -177.22 -176.21 -176.17 -180.52 -181.74 -180.61 -181.87 -182.24 -188.91 -208.92 -242.82 -255.36 -290.36 -391.72 -488.36 -520.25 -548.09 -553.66 -561.94
637.94 642.10 611.34 485.20 501.11 433.89 374.01 312.00 269.15 244.02 225.18 210.73 186.54 -10.92 -16.05 -24.39 -31.45 -20.93 6.44 37.83 48.93 50.24 37.07 3.45 -1.70 -9.42 -3.42 37.95 43.60 69.84 85.32 72.19 63.58 58.91 67.19 102.17 110.85 105.81 102.05 185.93 168.95 124.23 99.17 80.71 99.46 109.27 97.07 78.37 66.91 66.68 49.86 64.46 -47.41 -37.08 -49.58 -57.71 -48.67 -54.99 -55.77 -59.04 -54.10 -48.93 -46.24 -43.72 -60.69 -75.26 -76.56 -95.18 -94.25 -108.21 -104.77 -107.92 -109.70 -116.61 -125.99 -134.53 -136.56 -134.59 -140.69 -142.34 -152.91 -146.13 -160.35 -162.64 -173.67 -174.76 -173.32 -174.18 -175.09 -162.80 -166.52 -160.55 -161.91 -170.91 -177.92 -174.22 -173.28 -176.17 -171.82 -183.69 -177.79 -177.34 -172.31 -176.17 -180.02 -180.49 -182.99 -175.34 -183.13 -178.48 -183.94 -184.03 -177.68 -172.05 -179.67 -183.83 -178.74 -171.73 -174.62 -177.80 -182.84 -181.93 -183.11 -186.12 -179.61 -186.33 -188.27 -214.73 -247.57 -279.34 -373.42 -441.63 -442.24 -494.23 -502.05 -501.49
750.23 739.90 639.21 536.92 518.40 447.34 387.59 334.74 283.20 262.62 259.72 235.42 219.35 1.15 -18.79 -33.61 -28.76 -19.32 7.93 12.99 16.42 7.42 18.84 -2.81 -9.94 -22.50 3.20 26.88 41.86 45.55 45.30 48.14 41.14 45.67 60.99 75.40 78.74 88.05 97.00 193.18 183.26 144.88 106.38 104.91 103.26 117.49 113.09 98.64 82.55 88.06 65.01 71.73 -36.62 -42.07 -48.50 -57.77 -47.24 -59.94 -58.09 -63.23 -67.25 -50.38 -46.22 -37.00 -49.54 -66.52 -75.30 -88.43 -92.16 -104.72 -106.39 -109.34 -121.24 -114.61 -134.94 -141.98 -141.57 -137.51 -139.27 -144.67 -152.65 -158.74 -157.09 -161.35 -169.57 -169.13 -168.35 -166.68 -163.35 -160.55 -158.63 -159.65 -165.44 -172.33 -174.87 -168.13 -169.64 -173.32 -177.76 -173.31 -176.60 -175.80 -174.68 -172.17 -179.02 -183.19 -174.19 -178.05 -175.19 -184.05 -177.58 -177.05 -181.08 -184.42 -176.00 -174.42 -184.34 -173.97 -169.02 -168.50 -178.88 -183.37 -177.59 -181.82 -182.35 -178.30 -182.24 -198.19 -209.05 -276.04 -306.92 -399.71 -398.66 -437.94 -452.63 -452.82
716.69 721.42 720.84 547.90 533.00 486.83 405.42 362.97 323.34 293.55 273.76 240.97 221.71 -2.69 -19.31 -32.03 -34.36 -13.15 -4.35 9.88 5.15 -6.83 -12.61 -18.56 -22.47 -18.02 -2.46 38.58 34.92 43.79 34.52 10.55 9.47 38.28 33.01 32.92 35.73 52.52 82.46 186.85 198.02 163.69 139.91 129.24 119.07 123.31 117.90 103.63 104.05 86.71 86.00 69.56 -44.21 -51.27 -59.55 -55.18 -55.54 -62.21 -67.52 -77.47 -81.37 -76.10 -62.66 -52.36 -53.28 -67.98 -77.39 -98.57 -98.31 -105.91 -111.63 -116.82 -118.11 -124.71 -135.13 -133.57 -142.61 -146.58 -154.83 -152.33 -147.85 -164.20 -159.11 -160.45 -156.53 -164.84 -169.86 -162.00 -157.80 -166.79 -163.21 -166.95 -172.48 -169.71 -168.97 -168.77 -163.06 -177.18 -174.65 -170.90 -176.92 -169.42 -177.97 -169.59 -174.83 -173.50 -179.04 -178.27 -179.91 -172.98 -179.15 -176.91 -177.60 -181.22 -180.32 -177.85 -180.76 -176.56 -175.76 -170.15 -176.03 -180.00 -180.34 -176.90 -178.97 -179.19 -177.99 -182.15 -197.04 -212.05 -238.64 -336.63 -348.55 -400.99 -390.84 -400.93
696.20 697.33 616.11 571.42 528.12 467.19 377.81 324.18 309.51 286.42 259.56 246.27 224.79 6.31 -12.06 -18.27 -20.18 -28.12 -16.42 -12.02 -24.23 -18.10 -17.37 -29.96 -23.10 -10.44 10.14 34.00 48.73 28.49 9.09 -2.00 2.22 19.04 18.65 10.21 14.51 24.68 74.65 186.54 199.71 169.74 146.62 131.39 119.74 115.67 103.18 100.03 94.64 85.58 76.36 70.33 -59.12 -59.24 -64.92 -71.91 -70.69 -76.11 -83.40 -81.60 -78.11 -83.36 -62.45 -62.14 -62.83 -69.39 -92.22 -98.40 -113.41 -104.05 -115.57 -124.15 -122.12 -118.97 -121.70 -132.90 -139.71 -151.71 -154.63 -153.58 -166.63 -168.65 -164.54 -163.90 -159.10 -164.80 -161.67 -154.01 -161.33 -164.12 -167.35 -172.28 -170.20 -168.34 -166.53 -164.64 -164.79 -171.18 -176.81 -177.22 -170.89 -175.19 -166.37 -175.08 -175.08 -176.63 -176.99 -178.71 -179.29 -179.41 -180.79 -175.37 -185.34 -181.31 -180.49 -177.36 -180.82 -176.77 -171.88 -164.71 -175.41 -175.48 -173.56 -171.59 -174.71 -181.78 -183.19 -175.66 -186.91 -184.13 -186.84 -251.56 -281.44 -315.21 -347.86 -341.71
691.64 686.47 609.50 518.82 502.58 418.28 317.46 279.51 252.20 251.38 249.76 216.67 216.01 -13.66 7.58 -18.87 -27.19 -35.49 -36.24 -38.81 -32.78 -31.76 -29.96 -35.01 -16.63 -18.02 14.94 28.49 33.22 26.73 7.80 -22.78 -18.18 -3.54 -4.86 -0.47 22.78 27.48 65.92 191.59 184.01 172.53 135.82 125.61 115.11 110.14 101.67 91.35 88.63 75.94 72.18 56.44 -61.04 -64.38 -61.82 -71.26 -64.56 -71.87 -72.35 -76.53 -84.53 -93.35 -78.13 -61.10 -62.18 -71.81 -82.51 -99.30 -101.21 -115.90 -113.84 -114.86 -115.09 -127.04 -116.98 -132.61 -140.68 -146.48 -162.76 -152.70 -160.45 -162.39 -167.42 -166.77 -166.50 -164.35 -157.02 -161.71 -155.24 -156.81 -169.74 -172.71 -171.01 -170.48 -167.09 -161.58 -173.87 -170.97 -173.19 -170.93 -173.14 -172.15 -165.25 -166.69 -166.86 -174.91 -178.58 -178.08 -176.62 -173.07 -178.35 -184.69 -181.18 -175.39 -172.44 -177.40 -179.23 -165.68 -169.01 -162.25 -164.52 -170.16 -173.06 -166.48 -168.91 -173.19 -176.65 -185.41 -180.12 -182.11 -185.04 -202.42 -212.81 -250.20 -278.55 -278.50
610.65 614.45 561.06 466.01 400.19 356.45 297.90 268.66 251.26 221.64 199.41 202.01 206.95 21.53 20.15 7.49 -16.43 -32.48 -36.65 -34.45 -31.70 -39.21 -51.08 -36.52 -28.06 -21.36 -21.69 13.84 5.55 7.31 -12.23 -18.27 -27.99 -18.02 -13.40 10.69 27.09 61.53 65.83 170.91 168.44 136.61 125.09 111.91 99.86 92.92 80.39 82.63 82.79 76.42 59.22 50.60 -58.19 -54.16 -57.60 -54.24 -57.17 -50.57 -62.03 -67.64 -86.00 -92.64 -88.73 -73.66 -64.21 -74.18 -73.12 -85.82 -99.71 -101.46 -105.27 -103.72 -107.17 -104.77 -114.35 -129.75 -144.54 -145.26 -151.93 -161.97 -161.84 -157.56 -169.25 -167.63 -162.10 -160.84 -157.87 -160.14 -161.55 -168.54 -168.76 -162.61 -156.40 -164.74 -164.56 -172.68 -171.08 -166.31 -170.09 -169.89 -161.84 -165.44 -166.00 -172.38 -170.18 -172.41 -184.11 -172.40 -181.51 -184.13 -175.34 -176.89 -182.30 -181.08 -177.59 -178.59 -176.22 -172.95 -171.95 -161.48 -165.19 -157.29 -161.68 -162.68 -167.25 -171.35 -168.95 -177.90 -185.76 -176.82 -184.68 -197.93 -190.84 -224.03 -228.84 -228.40
531.56 531.59 521.78 461.91 407.76 359.04 301.33 307.55 274.27 236.24 192.02 192.92 213.22 36.57 52.36 12.12 -0.97 -14.14 -8.99 -13.25 -19.79 -28.64 -35.92 -42.01 -35.11 -24.59 -31.70 -37.69 -10.02 -18.94 -19.80 -30.42 -31.74 -30.66 -29.66 -7.88 34.51 41.52 49.63 156.40 145.98 123.11 107.38 104.84 83.28 92.88 77.17 77.06 71.60 64.70 67.56 63.91 -39.98 -35.43 -39.38 -38.76 -50.08 -54.98 -53.09 -63.10 -79.49 -90.25 -94.74 -87.58 -66.17 -83.18 -78.42 -87.88 -86.29 -91.86 -96.02 -99.17 -108.62 -110.36 -116.21 -123.66 -139.53 -145.15 -146.25 -147.10 -151.67 -160.37 -161.90 -154.05 -151.95 -157.40 -147.00 -157.13 -165.69 -167.11 -163.51 -157.00 -157.35 -158.22 -165.42 -165.50 -158.96 -154.75 -162.82 -158.30 -160.68 -160.99 -163.50 -168.06 -169.27 -178.10 -177.42 -177.48 -181.71 -177.59 -184.26 -177.46 -178.23 -179.76 -180.67 -173.23 -178.07 -173.24 -168.09 -160.71 -174.49 -160.29 -159.68 -154.50 -155.15 -169.73 -176.12 -175.72 -173.34 -181.40 -181.76 -183.75 -184.96 -201.25 -230.70 -227.16
450.53 452.35 494.22 436.25 426.25 392.02 364.73 357.54 324.53 251.31 197.01 216.67 256.83 81.63 70.42 49.05 6.23 2.64 13.59 18.86 -0.99 -11.37 -40.67 -41.41 -49.21 -41.53 -52.97 -47.34 -32.55 -25.61 -29.42 -30.63 -38.65 -33.80 -35.67 -26.52 6.01 35.59 44.25 151.01 136.54 127.12 100.73 93.28 89.84 84.11 82.65 65.77 69.98 78.57 75.35 65.98 -31.38 -26.76 -36.47 -42.43 -53.02 -49.21 -49.28 -58.92 -68.76 -83.36 -94.85 -101.04 -83.97 -80.72 -74.99 -82.61 -90.51 -91.64 -99.12 -103.44 -106.21 -107.19 -115.42 -125.23 -133.77 -133.03 -136.26 -136.25 -149.78 -144.37 -151.49 -149.17 -145.74 -141.54 -141.21 -160.35 -163.58 -165.36 -155.25 -157.85 -156.47 -159.12 -157.83 -158.94 -148.74 -153.16 -154.22 -155.80 -155.97 -156.61 -160.49 -166.30 -170.27 -175.72 -176.67 -172.13 -177.52 -180.45 -180.17 -175.43 -173.81 -183.38 -176.84 -171.45 -171.61 -171.19 -174.03 -172.86 -165.39 -155.30 -147.97 -146.83 -153.64 -158.77 -166.96 -178.17 -173.37 -179.91 -186.60 -183.75 -182.09 -196.75 -177.98 -180.38
520.84 519.74 463.38 431.54 427.32 429.79 412.88 383.96 375.31 310.89 261.30 249.21 275.29 89.05 79.57 56.97 26.71 5.56 26.77 41.51 16.77 -3.41 -26.62 -39.77 -47.70 -46.18 -53.10 -57.36 -52.17 -38.39 -31.38 -28.33 -42.57 -39.57 -37.51 -32.57 2.50 23.26 35.67 144.97 136.76 112.27 106.84 95.04 91.64 83.39 84.00 87.82 91.51 83.74 92.07 87.78 -22.19 -30.20 -25.99 -39.06 -50.17 -53.26 -64.51 -59.49 -68.16 -65.54 -84.27 -93.61 -103.43 -90.86 -83.35 -79.69 -83.34 -93.91 -100.35 -109.14 -110.21 -112.96 -122.72 -133.94 -130.21 -126.22 -123.82 -123.23 -129.66 -134.54 -133.17 -142.00 -140.17 -143.71 -149.42 -157.98 -162.87 -153.92 -151.91 -150.12 -148.33 -146.73 -156.44 -152.90 -156.85 -149.03 -158.49 -150.82 -157.10 -164.86 -166.48 -166.13 -174.05 -176.38 -172.66 -174.95 -173.15 -167.43 -174.76 -175.62 -176.92 -175.23 -177.00 -170.87 -173.74 -175.71 -170.65 -165.78 -164.39 -159.64 -160.10 -151.27 -150.77 -165.77 -171.72 -172.62 -177.58 -178.41 -183.01 -182.39 -185.91 -174.16 -175.55 -180.13
514.12 515.76 478.03 421.38 414.57 434.57 423.19 405.60 361.87 366.51 284.45 276.05 286.42 87.65 69.83 36.80 16.08 11.59 35.59 59.58 31.35 12.93 -8.64 -25.28 -33.97 -46.27 -50.90 -58.72 -57.93 -56.17 -48.15 -52.32 -56.17 -49.10 -35.35 -36.02 -0.55 14.30 42.68 156.27 148.02 133.76 121.01 121.28 100.31 113.21 109.19 109.83 94.64 101.88 92.53 88.50 -22.47 -33.37 -32.98 -45.77 -60.32 -66.43 -72.53 -76.27 -68.71 -63.43 -78.26 -98.47 -113.40 -99.09 -91.19 -82.80 -82.01 -87.90 -91.58 -104.30 -117.36 -115.89 -121.73 -127.18 -122.22 -122.09 -121.98 -130.98 -130.56 -136.18 -136.68 -128.66 -140.30 -147.22 -153.73 -151.30 -160.47 -160.75 -149.95 -146.32 -141.37 -143.37 -151.43 -152.58 -152.09 -149.27 -146.45 -154.35 -159.51 -155.47 -165.66 -165.84 -171.58 -177.84 -174.54 -170.95 -175.41 -165.70 -166.77 -170.69 -177.01 -178.31 -182.46 -176.10 -176.01 -166.99 -165.74 -164.34 -159.21 -154.57 -157.69 -143.48 -149.05 -156.48 -163.92 -170.90 -182.04 -183.00 -179.61 -182.40 -183.88 -177.50 -179.11 -181.33
493.41 494.31 459.81 395.97 394.69 422.68 440.53 425.53 424.90 375.61 332.83 303.17 332.17 103.20 75.25 39.10 30.92 28.89 75.61 83.19 53.73 35.84 -2.75 -25.24 -25.79 -27.19 -41.64 -37.21 -54.68 -66.22 -54.06 -61.11 -58.99 -44.78 -39.41 -17.80 21.23 31.79 32.31 157.61 161.87 146.44 140.32 123.03 131.72 135.62 143.15 120.12 105.68 98.87 100.88 92.51 -31.12 -39.45 -53.17 -60.01 -56.46 -71.39 -87.22 -89.27 -86.30 -77.17 -87.24 -103.48 -113.97 -111.22 -95.14 -78.75 -83.80 -80.12 -91.03 -95.49 -109.51 -110.27 -107.40 -112.63 -108.74 -107.96 -116.66 -125.28 -128.38 -128.60 -134.47 -140.10 -148.59 -145.29 -153.12 -157.59 -152.19 -147.04 -146.63 -141.03 -146.73 -140.35 -145.50 -144.46 -142.48 -141.77 -146.13 -147.17 -152.60 -157.51 -162.56 -167.87 -170.96 -174.31 -173.69 -179.48 -167.34 -182.37 -169.39 -169.27 -171.37 -170.40 -177.53 -173.33 -169.62 -164.29 -164.98 -149.32 -157.44 -151.95 -148.88 -147.67 -156.85 -159.70 -165.72 -174.95 -174.90 -179.77 -180.63 -185.35 -180.52 -176.51 -172.17 -173.25
278.11 278.45 231.08 195.42 185.58 196.34 228.10 224.05 245.26 195.89 153.72 161.55 145.70 171.03 127.13 96.41 58.49 94.65 136.77 128.95 110.47 67.30 47.09 28.95 6.39 -5.31 -23.33 -26.20 -50.82 -60.73 -73.40 -68.31 -63.05 -37.82 -32.27 -3.33 24.65 19.16 35.38 284.78 298.43 294.18 293.08 274.36 278.03 290.84 285.51 280.40 254.09 240.29 243.91 243.32 -3.96 -24.99 -37.43 -37.32 -48.19 -53.21 -72.65 -69.61 -72.11 -62.91 -69.15 -88.38 -86.24 -108.39 -88.48 -84.18 -80.42 -78.37 -84.09 -79.53 -99.03 -100.51 -97.63 -102.12 -105.77 -107.61 -119.04 -125.32 -132.29 -134.25 -134.86 -144.34 -153.85 -149.56 -155.97 -154.69 -153.21 -152.68 -150.20 -144.50 -139.88 -136.81 -139.09 -139.41 -142.42 -139.26 -142.87 -146.90 -156.17 -160.54 -167.40 -164.25 -163.39 -176.12 -173.06 -177.38 -178.97 -168.87 -168.28 -164.48 -170.05 -170.60 -171.50 -168.60 -170.24 -168.27 -151.72 -153.98 -147.63 -146.15 -134.89 -137.25 -140.23 -145.31 -157.02 -162.04 -166.93 -175.35 -173.41 -166.27 -166.27 -168.25 -164.78 -169.45
261.38 256.10 255.38 171.56 177.46 193.01 213.71 224.23 238.64 214.26 184.37 190.00 170.66 171.12 131.49 106.13 93.99 146.28 183.88 184.28 153.61 110.53 50.14 53.15 30.65 19.55 -22.90 -28.21 -48.61 -75.10 -72.63 -81.30 -68.78 -55.68 -28.79 -8.99 16.59 24.93 33.98 272.52 277.88 285.84 266.37 279.17 270.74 282.43 292.32 272.46 247.06 244.21 249.26 246.94 6.43 -18.12 -24.27 -42.96 -55.15 -64.25 -72.91 -78.03 -88.27 -76.51 -80.21 -98.52 -98.51 -111.25 -104.01 -93.13 -89.53 -80.41 -83.84 -84.88 -89.47 -91.53 -96.30 -91.09 -108.67 -108.73 -121.71 -126.71 -131.93 -140.25 -140.34 -143.11 -147.52 -157.02 -148.91 -141.41 -149.02 -152.30 -147.82 -143.56 -137.79 -132.52 -126.17 -131.31 -137.00 -133.32 -137.27 -150.25 -155.28 -154.09 -162.09 -162.24 -161.65 -166.80 -176.68 -175.08 -174.53 -162.98 -167.36 -163.52 -165.25 -166.59 -170.99 -167.51 -164.32 -156.23 -156.00 -148.63 -141.04 -141.29 -132.73 -139.03 -137.43 -143.51 -149.58 -152.09 -158.39 -164.68 -168.98 -170.05 -170.20 -167.19 -178.15 -177.55
238.40 238.63 215.27 185.13 175.24 184.48 195.91 208.23 221.17 222.76 201.78 195.25 181.54 214.86 217.56 164.12 166.11 159.11 226.56 234.38 189.41 179.19 112.10 89.31 46.52 28.96 -11.17 -21.49 -50.63 -66.78 -71.42 -77.51 -81.02 -58.14 -38.62 -17.58 7.75 20.58 29.74 258.52 237.93 260.60 250.62 261.00 275.24 274.73 265.15 260.79 239.31 244.71 241.00 247.48 4.46 -0.80 -16.24 -29.43 -39.29 -49.48 -57.76 -75.71 -86.84 -87.41 -94.76 -100.02 -92.04 -113.92 -117.70 -105.18 -89.33 -83.17 -71.37 -77.44 -83.60 -84.57 -90.18 -100.97 -103.15 -107.80 -115.43 -126.99 -135.26 -135.61 -140.81 -142.22 -138.42 -140.44 -138.23 -140.34 -143.68 -149.15 -137.19 -136.12 -135.86 -134.71 -134.42 -140.06 -133.28 -138.76 -140.28 -145.01 -149.41 -153.42 -148.94 -155.79 -159.31 -167.05 -163.27 -168.45 -167.50 -171.97 -164.83 -163.39 -157.93 -162.67 -160.48 -162.63 -161.24 -154.26 -156.26 -155.26 -145.22 -144.73 -137.39 -137.14 -141.78 -137.98 -148.45 -152.63 -153.02 -154.93 -157.05 -167.00 -166.45 -168.24 -156.83 -159.14
231.89 230.40 205.71 180.23 177.68 187.67 193.57 194.69 193.38 196.02 188.49 184.53 195.52 233.65 224.85 213.38 206.25 231.93 247.58 248.41 244.98 196.90 147.29 92.90 34.30 31.94 -13.31 -35.98 -49.11 -59.61 -65.56 -71.33 -84.23 -68.25 -60.84 -25.26 -9.61 10.24 -4.07 229.77 226.36 235.15 231.22 251.39 244.14 245.85 254.45 248.71 226.96 234.83 234.96 238.72 7.52 -1.31 -11.73 -18.28 -34.69 -44.47 -45.11 -54.21 -65.98 -96.56 -96.16 -89.63 -96.92 -127.68 -125.98 -122.05 -100.67 -92.50 -75.46 -81.43 -76.24 -82.90 -92.68 -99.05 -107.96 -111.77 -122.65 -128.46 -132.42 -132.10 -134.95 -137.27 -137.96 -135.43 -141.50 -137.05 -133.52 -135.00 -133.96 -143.29 -130.09 -121.46 -131.92 -130.23 -136.66 -132.24 -144.03 -134.76 -140.68 -147.65 -147.47 -155.38 -159.15 -160.80 -158.62 -161.33 -166.63 -156.31 -165.94 -157.02 -158.45 -156.70 -155.73 -161.28 -163.30 -153.34 -158.19 -156.87 -140.49 -145.08 -146.57 -142.36 -149.42 -138.69 -145.12 -145.84 -154.67 -154.76 -160.87 -160.19 -167.02 -166.75 -153.94 -156.66
211.27 209.31 210.87 172.64 172.16 185.90 195.72 191.32 187.07 185.36 179.09 184.09 185.47 238.41 246.03 238.87 237.58 251.00 257.91 240.28 235.35 192.66 126.79 96.39 41.43 17.60 -18.19 -34.03 -38.98 -33.70 -38.63 -58.11 -83.20 -77.78 -62.24 -34.03 -23.78 -25.61 -27.12 210.49 205.88 211.79 208.35 209.35 222.18 221.99 237.65 232.45 229.09 215.98 219.80 219.59 -5.50 -2.62 -9.62 -17.02 -33.72 -29.90 -37.58 -52.42 -63.04 -68.47 -75.29 -86.23 -93.09 -147.77 -126.23 -120.86 -110.44 -90.42 -79.00 -78.17 -78.24 -87.44 -96.94 -96.27 -113.38 -122.51 -121.51 -126.81 -132.85 -134.88 -137.78 -132.46 -130.72 -131.30 -131.88 -132.53 -131.87 -129.76 -125.37 -132.97 -126.02 -133.47 -131.42 -125.88 -127.93 -134.07 -139.33 -133.92 -146.87 -146.86 -143.10 -152.01 -158.23 -166.19 -159.27 -157.46 -158.99 -156.93 -161.69 -161.49 -159.82 -155.35 -159.14 -159.87 -154.70 -159.81 -158.06 -164.69 -160.21 -150.82 -150.73 -155.44 -149.00 -144.80 -142.76 -148.06 -144.60 -147.35 -147.35 -153.68 -158.42 -148.46 -143.12 -153.26
199.12 198.82 186.28 169.19 168.54 176.34 187.17 187.88 189.77 182.30 177.02 177.44 198.47 241.66 241.62 243.39 249.46 244.10 251.21 237.08 209.26 157.84 129.60 73.82 46.14 26.47 -17.45 -21.89 -20.04 -14.52 -33.81 -60.70 -70.08 -78.64 -51.16 -48.81 -37.02 -39.28 -55.46 196.93 191.21 200.66 201.71 193.73 204.42 222.14 232.27 231.20 234.08 216.28 210.06 194.67 -28.20 -21.43 -13.23 -22.91 -29.36 -27.26 -38.74 -48.91 -48.63 -61.63 -73.56 -77.34 -104.03 -149.91 -130.16 -122.79 -113.63 -90.18 -83.81 -77.41 -83.42 -87.68 -100.67 -110.79 -113.50 -122.13 -127.60 -126.43 -135.37 -143.77 -147.95 -139.54 -146.72 -134.17 -134.26 -133.98 -131.52 -121.33 -122.47 -125.84 -123.21 -124.52 -128.61 -130.86 -134.65 -134.93 -140.09 -141.32 -147.20 -152.53 -147.38 -158.45 -161.10 -162.84 -163.14 -160.93 -164.38 -167.74 -163.42 -164.99 -156.50 -159.91 -164.27 -159.64 -166.12 -162.12 -168.37 -171.88 -159.60 -152.91 -152.60 -154.06 -151.83 -149.39 -141.17 -139.43 -140.51 -144.75 -143.04 -152.17 -145.03 -146.15 -139.91 -133.93
198.42 199.05 180.86 173.12 168.58 171.78 185.19 179.75 183.05 173.91 172.56 178.02 193.69 242.92 250.19 247.06 248.86 251.44 239.76 223.13 182.87 159.83 138.65 112.45 59.73 23.35 0.38 -4.27 -10.58 -8.16 -45.04 -51.41 -75.35 -81.20 -75.91 -68.73 -65.40 -66.34 -79.43 183.47 179.99 185.94 190.43 182.54 194.11 221.62 228.96 236.17 231.89 222.22 207.74 208.10 -34.80 -30.31 -16.02 -22.61 -34.71 -46.39 -42.96 -44.09 -48.62 -67.34 -86.58 -96.34 -108.90 -155.44 -132.64 -118.57 -108.72 -90.92 -74.01 -77.27 -94.40 -95.07 -107.16 -111.07 -124.03 -131.99 -137.64 -132.66 -145.74 -152.46 -151.69 -152.75 -147.45 -141.06 -135.36 -125.58 -129.56 -122.46 -122.16 -127.73 -131.40 -132.03 -135.42 -126.61 -135.11 -137.17 -153.56 -154.03 -147.12 -161.51 -157.70 -169.75 -166.10 -169.43 -169.65 -166.08 -168.09 -169.04 -165.94 -167.47 -163.82 -162.52 -160.25 -167.54 -170.44 -169.03 -170.69 -165.52 -159.80 -156.87 -164.03 -169.65 -158.31 -156.03 -144.65 -145.44 -138.56 -137.45 -138.79 -145.58 -150.47 -147.20 -138.43 -144.84
207.35 206.22 198.82 163.16 166.61 179.32 178.03 170.19 168.64 172.14 172.91 184.13 197.63 230.87 232.41 233.42 231.23 239.05 240.40 216.03 191.01 171.65 159.93 120.25 93.01 46.88 11.88 -12.51 -13.08 -35.34 -54.55 -73.68 -86.21 -87.71 -93.50 -89.61 -97.71 -91.21 -83.57 165.75 177.15 174.13 164.23 157.73 183.21 199.58 215.10 225.84 239.41 232.06 212.21 201.19 -31.79 -40.12 -37.80 -37.49 -37.50 -55.01 -44.07 -54.93 -62.93 -73.42 -88.29 -106.44 -120.62 -150.85 -132.17 -122.06 -108.94 -90.51 -101.28 -108.27 -110.43 -109.41 -114.42 -123.88 -131.67 -142.99 -148.37 -151.47 -150.94 -162.76 -169.50 -161.87 -158.11 -158.95 -146.96 -140.69 -135.20 -126.40 -127.19 -129.50 -140.44 -142.54 -141.44 -134.23 -135.28 -139.62 -151.56 -145.34 -163.45 -164.72 -172.09 -171.40 -169.90 -174.37 -170.08 -175.51 -172.25 -173.58 -169.75 -173.15 -171.72 -170.66 -169.13 -171.40 -173.86 -172.69 -173.23 -171.30 -161.32 -165.61 -159.69 -171.14 -170.42 -163.31 -151.72 -145.63 -144.90 -140.28 -141.66 -149.97 -152.88 -145.53 -145.89 -150.55
200.44 204.90 191.87 174.84 171.07 174.78 173.89 180.88 179.82 171.87 173.08 184.65 204.73 240.01 228.29 222.40 229.62 232.21 216.90 196.38 180.68 183.28 188.26 131.68 111.41 66.02 -8.55 -38.21 -44.32 -53.43 -73.60 -86.11 -85.20 -71.29 -77.13 -93.42 -102.57 -100.76 -104.53 168.20 170.21 161.80 154.40 162.67 168.78 198.15 210.29 228.55 231.28 227.57 205.85 208.34 -35.30 -39.68 -44.69 -50.46 -49.79 -57.70 -64.38 -58.10 -64.71 -86.64 -96.90 -96.61 -106.17 -142.99 -132.04 -115.69 -110.71 -110.50 -123.86 -125.18 -112.90 -108.13 -122.74 -142.15 -144.07 -153.16 -156.37 -156.13 -154.54 -162.02 -170.75 -165.03 -164.08 -161.00 -154.60 -149.44 -143.28 -132.49 -131.49 -139.16 -138.78 -149.97 -143.75 -143.66 -141.58 -140.34 -151.47 -152.18 -157.44 -157.45 -164.96 -171.62 -171.75 -172.20 -172.30 -178.58 -176.93 -184.94 -177.18 -172.83 -166.68 -176.22 -172.66 -177.13 -178.25 -172.70 -174.00 -174.48 -170.34 -169.96 -173.83 -165.55 -160.07 -167.06 -160.58 -153.78 -139.51 -149.06 -143.97 -147.35 -157.45 -152.02 -154.51 -159.11
205.38 201.23 191.16 175.50 169.32 173.08 172.64 173.74 180.51 175.17 170.33 188.19 195.18 231.93 218.51 211.03 215.70 223.83 208.99 192.77 165.45 153.95 152.96 134.23 96.96 59.96 -18.33 -55.52 -46.07 -40.14 -51.20 -55.05 -61.15 -56.48 -71.89 -80.35 -95.02 -92.76 -104.08 159.31 178.80 168.75 153.20 137.03 141.00 161.22 214.97 215.25 230.38 215.15 206.35 202.06 -26.11 -32.92 -48.43 -57.62 -57.40 -62.70 -72.51 -58.99 -68.44 -83.89 -85.98 -91.22 -94.84 -132.06 -138.62 -136.06 -128.13 -122.29 -140.09 -121.37 -114.62 -125.17 -126.61 -143.02 -145.33 -161.85 -165.05 -165.46 -163.46 -168.55 -175.14 -165.88 -165.34 -163.60 -158.51 -151.00 -147.97 -142.36 -144.14 -147.32 -148.06 -153.66 -147.30 -144.19 -138.17 -145.97 -141.59 -145.68 -153.08 -154.74 -155.03 -163.70 -166.75 -165.88 -175.22 -175.52 -179.48 -181.25 -175.79 -176.08 -175.89 -180.71 -172.25 -175.65 -176.62 -160.93 -168.97 -172.83 -173.35 -172.51 -174.70 -172.84 -167.29 -155.61 -160.38 -147.48 -150.67 -152.53 -148.76 -156.05 -154.20 -158.77 -164.48 -167.49
211.67 214.72 209.33 165.93 168.41 168.33 176.50 177.61 169.81 170.94 176.90 182.23 196.32 229.97 212.81 208.42 209.49 196.54 183.33 171.23 146.31 123.83 137.75 132.55 82.56 10.81 -22.57 -31.39 -14.79 -27.51 -31.01 -44.65 -44.46 -56.66 -63.59 -75.97 -65.87 -76.74 -101.26 154.93 173.07 180.90 148.13 141.29 129.78 151.22 198.31 207.04 208.06 200.70 185.83 196.80 -31.42 -32.73 -48.53 -48.75 -59.74 -68.52 -68.46 -74.36 -73.42 -79.43 -86.19 -90.35 -89.74 -132.68 -155.78 -148.92 -136.18 -130.38 -141.91 -133.95 -125.31 -125.05 -138.72 -139.61 -157.86 -162.66 -174.09 -174.58 -173.92 -167.67 -167.56 -168.97 -174.24 -169.62 -156.34 -153.21 -147.08 -144.88 -150.64 -157.35 -151.27 -160.57 -148.18 -146.26 -137.47 -143.48 -148.09 -156.20 -153.09 -156.21 -154.12 -163.10 -171.53 -171.50 -173.98 -175.24 -181.23 -174.68 -178.71 -180.45 -181.84 -179.12 -182.22 -178.10 -178.25 -178.47 -170.81 -174.55 -171.93 -177.16 -175.11 -173.60 -170.15 -166.16 -155.76 -152.11 -158.25 -152.80 -167.21 -156.65 -167.20 -166.94 -168.08 -169.46
215.07 221.46 194.75 175.49 167.81 165.29 169.07 165.52 168.03 169.62 175.00 180.94 188.81 227.83 216.41 206.17 207.24 181.17 177.33 148.99 126.48 104.84 77.25 94.02 39.03 19.34 -13.38 -2.44 0.93 -11.66 -22.51 -29.73 -41.98 -56.55 -77.32 -67.84 -58.07 -68.15 -97.17 137.39 149.52 157.27 156.90 139.11 113.47 146.57 160.36 199.96 187.26 173.87 167.24 190.39 -33.20 -30.81 -55.70 -55.11 -73.24 -63.04 -66.50 -78.62 -78.59 -78.31 -78.76 -77.60 -77.57 -132.25 -145.69 -154.33 -153.30 -150.67 -154.28 -154.13 -137.94 -134.99 -147.69 -148.00 -161.48 -165.75 -170.67 -173.34 -176.41 -164.03 -152.78 -158.38 -161.95 -172.14 -169.38 -159.91 -159.26 -159.02 -155.97 -165.16 -162.80 -159.73 -155.10 -142.23 -137.65 -149.50 -152.67 -164.10 -163.90 -159.14 -164.82 -160.90 -171.59 -168.59 -170.48 -173.71 -180.10 -183.30 -178.55 -179.88 -177.89 -181.29 -176.28 -180.34 -178.70 -172.62 -174.61 -169.53 -179.57 -176.49 -175.62 -165.84 -173.24 -164.97 -153.61 -158.13 -157.28 -162.79 -164.72 -166.14 -168.17 -168.54 -165.69 -169.54
217.76 207.09 197.65 172.84 181.32 166.93 170.46 163.29 169.76 169.07 182.97 187.50 192.98 213.34 199.68 195.79 182.20 165.04 155.66 140.12 107.54 58.36 47.98 39.76 23.63 32.21 53.25 64.88 37.08 19.97 -5.71 -16.85 -28.95 -23.18 -33.42 -16.78 -13.26 -31.68 -70.53 -113.13 -110.89 -103.35 -96.48 -130.53 -132.72 -119.33 -105.42 -98.08 -85.54 -94.50 -93.75 -75.78 -44.43 -56.26 -67.11 -76.38 -64.08 -62.92 -68.99 -75.30 -84.19 -71.95 -66.53 -66.34 -60.69 -118.19 -139.69 -157.51 -152.71 -157.05 -160.05 -159.40 -151.48 -144.80 -145.97 -150.67 -160.79 -163.89 -170.83 -167.84 -163.95 -148.95 -149.74 -158.29 -165.08 -171.83 -177.41 -171.02 -171.68 -166.75 -170.64 -166.06 -163.14 -166.40 -159.57 -147.06 -145.26 -153.27 -160.67 -162.42 -161.75 -166.86 -162.51 -166.31 -173.00 -170.21 -171.70 -178.37 -175.08 -174.98 -177.07 -168.07 -177.94 -172.79 -177.84 -177.18 -176.16 -171.62 -174.60 -170.36 -172.17 -174.33 -165.68 -171.66 -168.88 -167.52 -164.46 -154.78 -163.29 -175.56 -169.45 -172.25 -167.49 -170.56 -176.71 -176.92
228.04 219.13 202.82 182.11 183.26 177.37 161.98 168.71 171.85 174.27 174.05 181.18 190.50 210.20 199.72 183.82 175.27 165.93 152.24 147.53 108.46 73.31 51.29 38.90 47.34 74.34 94.81 74.28 37.28 22.20 -7.02 -16.65 -28.60 -17.24 3.24 5.41 1.28 -24.61 -50.73 -102.73 -105.11 -100.89 -106.77 -121.39 -149.37 -129.72 -134.79 -136.35 -139.03 -121.19 -115.65 -90.50 -51.34 -70.70 -83.25 -101.91 -79.15 -68.66 -50.73 -57.36 -60.01 -68.84 -59.03 -70.20 -70.32 -114.84 -137.36 -147.78 -160.11 -163.26 -165.44 -164.50 -157.20 -159.51 -163.56 -164.41 -169.91 -169.97 -171.06 -159.51 -137.50 -142.17 -141.87 -151.74 -160.61 -168.37 -175.12 -173.28 -173.90 -175.82 -169.33 -166.38 -172.05 -174.02 -158.41 -154.59 -148.91 -164.09 -166.80 -168.92 -171.17 -177.09 -175.30 -171.35 -176.33 -173.77 -172.77 -171.54 -176.04 -171.30 -172.15 -172.01 -175.76 -169.02 -170.99 -172.05 -172.57 -175.38 -170.34 -169.08 -172.05 -163.50 -170.34 -173.13 -164.54 -164.31 -164.88 -162.76 -167.03 -162.52 -169.59 -170.41 -171.34 -173.97 -165.38 -164.90
202.72 206.34 200.39 184.42 179.66 168.75 171.33 169.17 163.72 169.71 171.11 178.00 191.45 205.43 193.94 198.18 180.59 157.76 151.23 141.94 116.53 126.78 112.57 92.79 68.91 73.09 93.27 59.74 44.82 17.24 -10.78 -26.06 -27.76 -18.63 12.48 19.22 3.12 -2.67 -33.37 -81.30 -79.02 -90.58 -91.85 -109.09 -139.61 -133.29 -144.80 -143.53 -145.88 -144.35 -137.60 -89.64 -79.30 -78.57 -105.91 -107.15 -81.43 -61.68 -55.48 -44.08 -50.47 -49.82 -59.35 -72.41 -73.43 -125.46 -133.00 -146.85 -151.68 -165.04 -162.54 -153.65 -152.68 -149.20 -147.28 -159.04 -164.47 -158.99 -168.28 -134.88 -134.46 -130.58 -136.91 -142.60 -159.75 -166.95 -170.78 -170.97 -175.75 -178.42 -170.42 -172.13 -176.09 -169.11 -161.96 -157.38 -157.80 -169.79 -167.02 -171.46 -173.87 -177.79 -176.09 -172.84 -177.33 -178.20 -176.47 -174.01 -184.86 -175.97 -171.71 -164.55 -167.36 -168.17 -174.61 -176.31 -170.73 -174.23 -178.69 -173.99 -165.31 -164.52 -168.22 -166.28 -165.92 -166.55 -162.82 -167.43 -163.33 -171.98 -173.60 -172.16 -173.30 -171.75 -169.43 -172.31
194.77 193.24 188.01 178.06 175.42 179.55 167.87 165.08 167.58 165.41 171.32 174.42 181.36 201.35 204.59 195.68 194.71 177.74 139.66 135.42 151.59 156.31 161.64 131.52 128.70 95.79 94.67 63.15 35.38 3.11 -4.04 -20.90 -1.27 15.15 35.73 38.89 25.90 5.71 -19.84 -73.73 -73.25 -84.09 -88.57 -115.57 -129.01 -128.34 -127.41 -134.57 -138.15 -143.26 -148.96 -137.00 -97.47 -107.16 -119.90 -114.16 -98.71 -68.76 -56.06 -46.17 -51.59 -46.19 -54.42 -72.69 -76.88 -127.34 -138.55 -135.05 -141.11 -143.35 -146.50 -145.83 -137.36 -130.23 -143.66 -134.08 -143.44 -140.62 -134.99 -131.72 -125.90 -141.00 -140.71 -145.04 -143.53 -158.75 -164.06 -159.21 -166.66 -167.89 -168.75 -168.86 -175.34 -177.56 -170.37 -170.88 -165.54 -170.21 -173.59 -177.32 -168.26 -171.09 -174.30 -171.02 -171.61 -176.82 -177.77 -173.39 -169.85 -169.71 -173.40 -161.60 -163.06 -168.00 -172.37 -169.55 -171.37 -174.29 -178.73 -169.49 -172.06 -166.96 -165.90 -170.48 -171.56 -164.56 -161.15 -167.00 -168.74 -171.74 -166.38 -176.38 -177.53 -175.24 -172.55 -175.84
192.71 190.74 184.58 176.27 177.46 171.95 171.15 166.17 163.99 167.97 174.22 173.10 175.88 196.36 201.25 194.70 189.49 183.12 163.79 149.14 160.08 166.54 167.76 147.67 130.78 82.40 84.14 46.37 39.53 11.54 -13.76 -9.41 -0.40 12.36 43.55 43.25 36.55 9.39 -14.68 -51.53 -51.39 -80.54 -83.65 -114.53 -122.13 -113.49 -97.22 -101.48 -117.99 -140.94 -144.52 -144.17 -111.27 -103.20 -109.65 -123.17 -114.61 -98.65 -71.87 -58.02 -52.45 -44.15 -53.32 -66.06 -75.65 -118.60 -124.85 -125.83 -127.58 -122.31 -127.00 -121.24 -128.32 -126.26 -131.80 -128.29 -134.18 -124.28 -122.60 -122.61 -126.66 -135.27 -138.67 -143.92 -149.21 -150.68 -146.54 -146.20 -157.23 -164.76 -164.35 -173.12 -170.22 -174.86 -169.67 -174.23 -171.30 -170.77 -172.94 -172.98 -177.31 -171.93 -167.35 -169.58 -171.64 -177.50 -172.34 -168.57 -166.21 -162.86 -160.76 -160.35 -162.73 -163.83 -170.53 -176.80 -174.44 -173.27 -175.87 -167.89 -174.27 -173.52 -167.73 -169.26 -170.51 -168.82 -165.53 -170.69 -167.50 -170.97 -175.98 -173.93 -176.56 -184.19 -180.48 -177.42
188.35 199.97 187.66 163.93 168.06 170.20 164.64 168.79 167.61 164.36 168.29 170.13 172.52 198.17 199.72 195.31 184.61 183.27 172.27 165.79 171.57 181.96 188.20 151.92 137.60 100.00 75.28 48.22 14.49 6.25 -1.49 10.81 11.30 23.73 35.20 59.75 55.98 26.54 9.63 -40.13 -58.09 -70.32 -88.43 -103.63 -109.98 -87.25 -76.14 -93.23 -98.17 -118.27 -139.82 -117.19 -90.59 -94.31 -105.22 -127.05 -122.42 -107.05 -105.23 -65.28 -63.91 -41.95 -53.28 -62.91 -71.48 -106.13 -119.99 -111.48 -111.90 -116.15 -118.12 -115.80 -108.28 -108.10 -117.62 -117.78 -116.03 -121.84 -121.24 -131.50 -132.76 -136.59 -137.13 -143.32 -138.69 -136.30 -134.53 -137.37 -147.81 -166.97 -168.43 -167.82 -178.43 -177.38 -170.14 -169.09 -174.82 -171.44 -166.14 -168.45 -172.15 -163.26 -163.98 -166.39 -170.92 -174.28 -162.76 -162.75 -158.57 -161.04 -156.48 -164.82 -158.55 -161.13 -167.41 -173.59 -164.09 -172.50 -168.67 -175.93 -183.73 -173.80 -166.00 -167.22 -164.91 -172.81 -169.53 -168.63 -177.46 -167.46 -173.89 -174.60 -176.45 -177.22 -180.22 -174.66
192.34 191.49 178.03 176.35 167.76 166.38 164.90 161.63 166.23 169.45 170.63 174.68 171.89 199.51 198.21 196.50 189.09 186.14 176.18 177.65 174.40 182.36 173.21 152.43 139.45 113.23 88.31 50.55 46.43 13.15 12.19 19.18 52.42 43.81 57.79 72.36 62.76 44.30 22.72 -24.36 -50.92 -73.89 -96.54 -103.80 -94.19 -78.86 -64.23 -87.55 -113.99 -115.54 -110.51 -95.62 -69.66 -67.23 -78.03 -109.40 -128.22 -122.95 -113.25 -97.08 -66.52 -54.54 -60.92 -63.23 -69.10 -102.77 -105.59 -110.60 -125.66 -114.98 -116.62 -111.25 -109.64 -124.23 -124.85 -127.34 -117.53 -122.08 -133.65 -140.82 -147.32 -146.08 -140.33 -147.06 -146.37 -138.51 -149.05 -151.04 -155.44 -157.10 -164.97 -168.69 -177.10 -171.96 -173.82 -168.21 -169.55 -171.03 -166.31 -165.92 -164.30 -160.14 -159.58 -161.93 -168.39 -161.68 -162.95 -159.57 -157.29 -161.33 -157.99 -162.88 -166.65 -163.19 -168.45 -166.38 -173.26 -172.20 -171.77 -169.72 -172.75 -175.29 -173.41 -169.91 -171.89 -167.66 -176.92 -166.65 -175.24 -172.65 -165.51 -176.10 -173.36 -175.76 -188.97 -187.76
191.23 191.11 179.40 177.52 176.55 167.21 167.04 168.69 164.90 160.53 162.95 172.72 170.78 185.94 188.89 185.67 191.59 183.38 179.46 186.50 188.99 184.01 178.65 160.86 138.19 126.94 105.97 62.56 31.72 30.40 55.27 50.77 66.75 97.91 96.68 85.41 82.94 67.45 48.60 -21.91 -47.86 -71.70 -91.32 -95.34 -78.17 -60.03 -71.92 -86.61 -90.57 -106.30 -100.46 -83.65 -57.27 -70.81 -84.22 -104.78 -124.72 -135.04 -130.16 -99.87 -75.63 -77.24 -77.39 -78.47 -80.74 -106.47 -120.77 -131.78 -130.19 -130.22 -128.60 -119.08 -111.01 -125.87 -139.82 -140.83 -137.52 -135.69 -135.52 -146.21 -141.83 -157.33 -156.29 -154.97 -148.55 -151.01 -146.73 -159.73 -159.87 -160.98 -161.11 -167.40 -174.41 -170.96 -166.48 -164.90 -161.47 -163.25 -162.33 -160.72 -159.39 -159.72 -158.44 -158.88 -154.95 -156.19 -158.89 -156.12 -156.38 -157.70 -156.66 -156.92 -169.45 -158.13 -167.52 -173.97 -167.58 -172.61 -177.17 -176.87 -177.61 -175.77 -168.80 -174.37 -172.73 -176.32 -175.57 -171.58 -174.40 -170.28 -172.24 -181.86 -182.54 -185.48 -190.68 -186.45
209.61 213.85 203.70 180.28 171.41 173.20 168.48 165.44 168.38 167.60 166.23 169.25 167.04 187.32 186.43 191.71 188.48 181.73 195.08 182.36 184.67 188.91 175.75 149.76 135.08 126.86 122.12 84.81 65.80 47.41 61.35 85.03 103.62 127.94 118.37 101.65 78.65 60.01 44.89 -25.95 -49.92 -64.63 -63.95 -72.09 -57.51 -45.58 -62.03 -77.64 -88.48 -85.63 -62.44 -65.18 -55.76 -62.16 -90.69 -104.98 -118.60 -130.47 -128.38 -122.36 -101.82 -104.79 -90.85 -101.09 -101.29 -136.55 -131.51 -139.61 -147.68 -143.24 -143.95 -130.69 -128.02 -131.45 -156.56 -154.35 -151.45 -152.52 -157.50 -158.15 -162.32 -161.44 -165.88 -153.79 -152.50 -153.46 -159.03 -165.06 -170.59 -167.54 -168.13 -169.41 -166.79 -161.89 -160.29 -154.33 -153.54 -151.12 -156.20 -156.12 -151.05 -148.11 -150.52 -149.60 -153.06 -161.04 -154.13 -155.25 -156.48 -154.74 -157.05 -161.72 -162.13 -161.19 -168.19 -174.77 -176.33 -172.24 -173.04 -173.64 -173.10 -173.06 -172.09 -173.76 -175.54 -173.30 -176.86 -192.51 -194.46 -200.67 -202.59 -202.62 -189.85 -218.39 -221.33 -217.74
230.27 228.96 206.35 179.42 174.46 171.48 167.65 168.44 164.20 164.26 161.20 166.52 167.61 187.59 186.47 187.72 187.70 194.01 190.38 187.36 186.49 185.98 183.97 175.47 161.12 123.65 121.75 125.41 134.96 111.04 128.03 111.97 141.60 129.37 112.00 81.48 58.84 54.74 25.34 -37.92 -53.59 -45.17 -42.76 -47.19 -36.97 -45.22 -58.47 -55.98 -50.10 -43.62 -46.49 -55.95 -59.73 -76.89 -86.42 -97.80 -95.27 -105.80 -133.06 -129.46 -115.24 -107.68 -116.11 -120.68 -124.23 -148.08 -156.30 -146.65 -159.87 -159.58 -151.82 -144.86 -146.44 -144.19 -154.02 -160.40 -163.89 -154.35 -166.34 -162.16 -171.68 -176.86 -170.27 -170.08 -162.43 -155.25 -164.94 -166.57 -177.18 -176.31 -171.32 -174.91 -170.25 -162.05 -155.40 -153.82 -141.94 -143.09 -148.98 -152.36 -145.67 -144.19 -148.49 -143.19 -153.65 -158.16 -152.25 -155.47 -156.92 -168.19 -165.89 -166.95 -167.63 -162.90 -169.98 -174.33 -173.70 -173.78 -174.65 -179.34 -171.54 -173.35 -170.26 -171.47 -175.76 -180.35 -193.55 -201.26 -233.00 -253.16 -243.82 -240.16 -215.56 -237.51 -249.53 -248.30
218.55 219.68 195.40 174.48 169.74 177.48 164.32 172.44 168.08 170.23 161.23 167.34 168.23 188.32 191.50 189.88 191.45 187.80 191.81 187.97 192.54 188.22 187.49 175.12 186.00 137.74 133.47 131.02 148.08 167.75 143.78 160.76 142.50 126.72 117.45 82.22 56.66 42.46 23.03 -36.68 -41.23 -42.43 -31.70 -10.44 -28.85 -21.64 -25.05 -40.16 -40.01 -42.28 -29.65 -62.89 -56.44 -66.22 -79.10 -71.05 -72.24 -105.94 -119.25 -130.73 -128.65 -129.93 -115.50 -129.19 -125.54 -163.07 -159.53 -163.92 -169.05 -160.95 -160.94 -162.80 -158.97 -154.06 -153.55 -156.90 -158.59 -154.43 -171.52 -165.46 -161.21 -170.03 -172.73 -178.88 -173.30 -161.38 -167.18 -173.56 -168.41 -170.05 -170.49 -167.65 -166.29 -166.64 -153.44 -150.97 -146.22 -138.37 -139.74 -141.42 -146.16 -145.14 -140.64 -150.72 -147.26 -150.96 -160.93 -153.54 -155.98 -156.44 -170.42 -173.55 -166.55 -166.12 -171.15 -168.62 -172.08 -173.10 -179.41 -172.09 -177.24 -168.64 -176.79 -171.04 -174.05 -183.86 -190.16 -226.79 -264.04 -265.24 -280.72 -263.97 -258.78 -302.17 -298.72 -296.31
215.31 218.00 196.95 195.80 207.55 187.64 184.32 181.99 182.40 170.18 169.04 166.58 166.02 189.07 177.87 188.49 186.84 182.52 186.04 187.58 187.64 188.15 188.02 188.62 192.65 195.63 171.72 191.29 223.35 223.17 249.65 214.99 215.93 187.34 174.32 129.25 117.74 63.85 31.28 6.02 -1.89 -0.05 29.27 30.62 75.05 29.48 25.58 9.92 5.69 -3.20 -3.61 -10.94 -32.78 -35.11 1.48 -28.31 -42.45 -66.49 -77.27 -108.68 -102.18 -95.04 -88.66 -75.80 -109.11 -137.85 -139.34 -148.82 -121.38 -143.93 -142.33 -147.23 -157.18 -145.23 -159.07 -134.27 -127.20 -130.51 -122.23 -142.32 -152.65 -134.54 -158.77 -153.89 -156.84 -159.01 -158.70 -159.87 -141.20 -143.49 -156.90 -149.12 -153.30 -153.71 -141.50 -137.41 -122.26 -129.44 -127.23 -137.03 -131.75 -143.12 -142.11 -143.80 -144.20 -151.60 -153.73 -152.53 -159.32 -162.34 -166.16 -161.81 -169.04 -167.40 -174.24 -171.35 -176.66 -171.93 -168.59 -171.71 -172.75 -173.68 -175.49 -174.22 -194.49 -197.18 -249.81 -281.67 -284.34 -298.29 -304.52 -329.19 -319.11 -320.22 -331.11 -325.51
233.10 237.36 200.83 213.36 222.36 194.75 199.16 188.26 187.38 172.45 167.68 162.95 164.34 191.00 188.71 185.00 190.26 186.30 183.83 180.89 185.85 182.64 192.21 189.29 197.63 188.12 212.12 217.13 259.57 261.61 243.88 254.40 238.40 228.79 195.35 165.83 138.26 118.70 79.50 -35.88 33.34 38.82 78.09 81.39 67.20 71.07 61.80 44.26 50.78 24.34 17.56 -19.35 -0.83 -1.48 9.97 -6.27 -29.11 -37.07 -58.87 -80.64 -72.13 -69.84 -72.71 -73.61 -83.06 -112.20 -122.93 -119.77 -110.46 -125.13 -117.14 -126.29 -142.93 -174.80 -140.10 -125.06 -110.08 -113.71 -128.17 -130.97 -135.29 -142.96 -149.90 -144.27 -149.69 -141.01 -151.11 -149.82 -139.92 -143.00 -139.72 -140.95 -134.71 -132.14 -126.10 -121.41 -126.71 -127.34 -130.68 -134.54 -135.58 -139.74 -141.73 -150.56 -144.39 -149.82 -150.61 -152.40 -166.31 -157.33 -159.05 -164.16 -166.01 -173.25 -177.16 -176.69 -172.89 -173.67 -165.03 -171.16 -170.43 -177.63 -179.63 -179.25 -202.92 -214.95 -238.07 -293.70 -317.75 -318.43 -330.02 -330.49 -337.93 -342.00 -352.56 -344.89
