68.05 69.32 58.62 52.70 49.49 33.51 39.81 35.65 33.21 22.22 13.08 7.47 -15.02 -24.32 -22.16 -15.90 -13.22 -12.64 -16.25 -23.50 -25.44 -18.90 -24.18 -26.73 -45.16 -70.46 -165.41 -163.82 -161.01 -177.54 -177.93 -179.31 -174.52 -172.43 -175.16 -169.60 -171.31 -176.85 -180.59 -294.16 -295.88 -296.51 -291.58 -285.49 -292.02 -291.12 -292.99 -284.32 -299.16 -291.77 -293.62 -296.36 -565.42 -560.97 -557.35 -562.03 -562.95 -558.01 -563.60 -565.18 -563.19 -581.94 -668.82 -720.02 -881.88 -894.03 -1007.62 -1138.83 -1109.84 -1109.23 -1114.83 -1201.34 -1212.94 -1240.86 -1224.59 -1261.81 -1375.69 -1340.82 -1352.10 -1360.81 -1425.01 -1438.11 -1451.50 -1490.84 -1499.54 -1518.62 -1566.39 -1591.77 -1651.89 -1691.45 -1691.49 -1776.78 -1781.87 -1754.90 -1753.55 -1759.57 -1774.57 -1797.38 -1805.32 -1872.02 -1907.33 -1982.21 -2036.98 -2045.85 -2022.15 -2028.54 -2031.81 -2029.49 -2055.03 -2079.26 -2077.80 -2098.35 -2117.75 -2158.25 -2225.27 -2219.73 -2265.85 -2186.81 -2255.25 -2321.56 -2366.00 -2424.77 -2433.90 -2441.15 -2459.71 -2463.94 -2476.72 -2475.48 -2476.36 -2492.26 -2493.61 -2512.81 -2516.72 -2545.62 -2546.12 -2546.07
152.97 160.00 151.99 152.38 132.47 115.40 113.54 106.47 96.85 96.25 81.17 71.13 62.54 -46.02 -43.85 -41.23 -35.45 -42.46 -43.67 -45.40 -53.83 -55.36 -55.42 -65.42 -77.43 -88.43 -162.60 -169.89 -180.57 -177.68 -174.13 -179.04 -169.03 -165.06 -162.16 -166.95 -173.66 -178.92 -179.91 -240.77 -244.32 -246.49 -243.48 -236.61 -231.78 -239.76 -237.78 -236.27 -236.42 -243.62 -244.29 -245.42 -417.10 -417.16 -412.56 -412.46 -413.70 -416.46 -414.00 -416.07 -417.67 -424.98 -493.87 -586.95 -654.75 -838.22 -1121.10 -1117.20 -1038.65 -1084.32 -1143.09 -1203.03 -1330.27 -1324.44 -1259.63 -1317.09 -1291.31 -1447.69 -1785.92 -1794.37 -1908.12 -1966.76 -2046.25 -2045.97 -2085.13 -2089.47 -2119.92 -2127.75 -2248.55 -2253.71 -2284.50 -1991.25 -2020.02 -2020.50 -2004.69 -2011.20 -2015.83 -2066.28 -2072.87 -2095.64 -2158.52 -2193.43 -2254.55 -2290.35 -2021.46 -2032.45 -2035.07 -2039.28 -2058.07 -2076.35 -2071.13 -2090.79 -2106.38 -2138.91 -2161.18 -2205.80 -2206.76 -2145.52 -2221.15 -2241.63 -2331.25 -2368.52 -2398.05 -2428.20 -2448.73 -2438.96 -2454.21 -2457.58 -2471.07 -2473.66 -2479.56 -2496.56 -2501.78 -2525.60 -2540.37 -2535.42
181.54 181.73 199.37 179.41 161.09 119.80 113.91 111.80 104.66 81.38 66.47 67.76 61.27 -45.83 -46.54 -37.13 -36.54 -42.90 -46.08 -53.78 -60.71 -55.58 -61.13 -71.69 -77.97 -92.84 -166.46 -178.50 -168.85 -175.36 -156.85 -165.72 -159.03 -157.13 -151.88 -171.58 -180.42 -183.50 -183.26 -248.33 -247.87 -244.85 -243.98 -234.81 -236.67 -233.16 -240.78 -238.99 -247.74 -241.68 -240.91 -248.03 -411.29 -420.95 -411.99 -413.44 -410.47 -409.54 -417.16 -417.62 -416.94 -432.04 -499.80 -589.73 -687.94 -860.62 -953.81 -927.62 -1011.43 -1056.11 -1045.88 -1140.19 -1186.98 -1175.37 -1214.05 -1189.79 -1234.70 -1305.05 -1631.95 -1627.60 -1737.10 -1797.96 -1802.37 -1879.04 -1940.54 -1980.05 -1964.21 -1979.44 -2037.42 -2199.25 -2220.70 -1974.76 -1996.92 -1994.02 -1987.97 -1965.98 -1972.84 -1982.33 -2018.24 -2066.07 -2117.58 -2176.25 -2205.88 -2251.10 -1988.00 -1997.84 -1994.82 -2017.47 -2010.57 -2041.58 -2055.60 -2075.43 -2090.07 -2090.71 -2126.57 -2142.83 -2200.88 -2071.26 -2143.22 -2196.94 -2284.27 -2309.10 -2385.62 -2389.54 -2403.70 -2422.59 -2427.12 -2430.15 -2448.79 -2468.03 -2469.41 -2479.44 -2486.68 -2516.06 -2521.19 -2520.92
259.51 261.40 276.58 189.93 168.28 130.75 109.29 100.17 91.74 67.90 67.52 66.18 59.55 -51.03 -45.77 -41.21 -39.07 -47.14 -56.19 -64.69 -70.73 -80.20 -79.20 -89.99 -96.52 -97.02 -176.81 -177.59 -163.43 -161.14 -153.83 -162.57 -153.87 -154.17 -158.59 -169.32 -178.78 -180.22 -178.92 -241.04 -244.08 -244.98 -231.68 -239.32 -232.07 -229.35 -238.15 -234.98 -239.62 -240.46 -238.24 -244.12 -415.44 -411.30 -414.42 -413.99 -416.55 -411.46 -414.48 -417.01 -426.90 -440.43 -468.06 -560.37 -602.08 -821.22 -831.57 -872.38 -869.72 -912.04 -959.39 -888.51 -1051.36 -1069.99 -1065.90 -1021.97 -1100.33 -1154.28 -1585.81 -1574.59 -1597.91 -1729.50 -1737.48 -1737.31 -1722.40 -1855.68 -1912.74 -1926.12 -2022.20 -2162.18 -2198.01 -1941.25 -1962.14 -1955.82 -1936.18 -1933.07 -1943.62 -1977.02 -2009.38 -2033.06 -2093.06 -2158.52 -2171.62 -2200.52 -1969.81 -1978.78 -1990.54 -1986.70 -2015.56 -2027.10 -2030.52 -2046.76 -2057.07 -2085.55 -2098.15 -2128.39 -2136.29 -2038.79 -2124.04 -2180.20 -2202.23 -2290.26 -2327.18 -2372.19 -2366.26 -2399.60 -2393.66 -2415.38 -2423.20 -2441.04 -2455.14 -2474.54 -2482.63 -2501.17 -2503.89 -2502.31
407.46 403.07 317.62 228.30 175.16 134.27 99.03 83.75 76.99 73.11 73.43 75.32 66.72 -49.27 -45.67 -36.11 -45.11 -51.01 -69.59 -83.89 -92.48 -100.15 -100.25 -107.65 -108.34 -113.67 -181.01 -163.19 -167.45 -149.20 -142.80 -149.56 -149.50 -158.47 -165.13 -170.49 -175.17 -178.49 -178.72 -227.38 -239.24 -233.81 -238.46 -230.48 -230.48 -233.08 -233.21 -226.82 -236.26 -234.73 -240.16 -239.71 -415.03 -415.62 -415.73 -412.57 -405.73 -421.55 -409.99 -417.80 -451.54 -463.93 -513.65 -549.09 -556.73 -744.01 -752.99 -707.35 -732.50 -781.17 -785.18 -849.79 -875.17 -952.57 -952.33 -1005.84 -976.02 -1081.70 -1426.13 -1429.74 -1549.64 -1594.18 -1594.39 -1612.26 -1657.52 -1639.19 -1716.98 -1955.20 -1999.52 -2091.04 -2113.16 -1852.92 -1889.99 -1905.64 -1931.15 -1929.11 -1930.21 -1949.48 -1975.05 -2026.46 -2057.38 -2121.73 -2131.74 -2194.22 -1915.90 -1958.88 -1973.37 -1979.82 -1982.80 -2001.42 -2016.09 -2036.57 -2049.94 -2055.13 -2086.40 -2099.02 -2117.04 -1997.87 -2054.00 -2106.76 -2149.02 -2224.36 -2272.68 -2301.62 -2326.90 -2359.67 -2371.86 -2389.68 -2408.58 -2412.88 -2450.31 -2459.93 -2458.18 -2473.15 -2490.78 -2477.74
392.84 400.07 409.11 178.17 183.00 128.90 105.01 85.05 81.89 81.59 85.42 75.63 62.82 -48.41 -42.21 -35.38 -39.75 -44.39 -64.57 -78.35 -109.17 -106.60 -102.67 -105.51 -108.70 -107.98 -166.13 -159.12 -145.84 -140.94 -131.96 -144.31 -154.54 -162.85 -169.18 -175.27 -175.08 -178.29 -172.55 -232.31 -230.03 -234.35 -237.29 -230.97 -225.56 -224.54 -235.06 -234.23 -239.65 -230.65 -236.30 -240.44 -411.53 -417.56 -412.07 -405.90 -409.59 -410.06 -412.61 -417.62 -449.38 -477.59 -482.26 -491.39 -481.17 -619.30 -612.75 -634.53 -614.46 -663.70 -713.11 -791.25 -831.51 -859.34 -863.09 -936.85 -959.53 -987.51 -1308.88 -1329.03 -1452.91 -1474.28 -1507.39 -1479.42 -1419.25 -1402.78 -1436.78 -1539.23 -1840.78 -1934.10 -1903.23 -1818.60 -1846.65 -1880.38 -1897.39 -1913.49 -1920.57 -1931.08 -1950.93 -1997.75 -2056.41 -2086.27 -2125.05 -2171.60 -1905.79 -1910.65 -1945.41 -1947.35 -1967.86 -1989.06 -2005.71 -2010.54 -2021.85 -2041.80 -2060.37 -2070.08 -2103.41 -1980.62 -2046.24 -2102.51 -2130.05 -2187.38 -2223.61 -2277.05 -2305.23 -2314.63 -2339.90 -2336.65 -2357.86 -2362.70 -2377.60 -2383.45 -2416.67 -2439.39 -2457.90 -2452.22
419.14 419.35 330.52 205.01 149.28 134.14 88.55 91.16 82.51 76.78 75.06 69.19 62.21 -39.54 -28.45 -34.22 -40.67 -52.21 -66.18 -88.44 -96.15 -102.24 -104.71 -93.58 -100.32 -106.41 -163.17 -151.42 -143.67 -136.69 -137.81 -157.29 -159.28 -163.49 -172.93 -179.10 -176.48 -169.74 -171.68 -230.83 -226.98 -231.86 -229.55 -225.10 -222.92 -219.35 -228.76 -234.80 -229.33 -240.08 -236.53 -246.38 -418.17 -420.48 -411.41 -406.39 -410.83 -413.42 -414.95 -410.64 -437.84 -473.42 -467.62 -474.56 -445.18 -591.40 -567.90 -580.84 -579.65 -608.27 -631.44 -715.30 -779.87 -806.84 -844.31 -840.57 -851.20 -897.86 -1271.35 -1258.01 -1305.91 -1366.44 -1311.29 -1297.08 -1285.50 -1298.09 -1314.44 -1471.35 -1538.27 -1676.67 -1783.72 -1519.27 -1613.15 -1748.17 -1870.75 -1875.37 -1902.13 -1927.58 -1953.38 -2002.04 -2017.97 -2057.81 -2115.37 -2131.63 -1880.02 -1894.38 -1918.28 -1927.94 -1959.52 -1967.44 -1999.47 -2006.35 -2026.68 -2026.35 -2044.72 -2064.25 -2065.61 -1954.99 -2013.79 -2052.35 -2112.25 -2110.96 -2214.17 -2229.15 -2228.85 -2301.72 -2311.89 -2311.92 -2311.80 -2353.92 -2340.03 -2367.75 -2385.84 -2422.90 -2426.02 -2422.98
425.58 435.37 332.45 207.50 143.10 99.22 87.34 84.31 79.81 68.52 64.24 65.49 69.08 -38.38 -25.77 -25.58 -42.26 -61.36 -78.36 -96.18 -96.78 -99.58 -99.64 -92.06 -102.01 -104.88 -153.72 -137.95 -133.79 -125.99 -132.16 -157.00 -166.68 -174.01 -166.11 -161.01 -148.97 -162.01 -155.93 -219.61 -217.81 -228.54 -224.55 -224.30 -219.86 -226.69 -242.08 -238.95 -238.35 -239.13 -241.22 -248.54 -413.28 -418.25 -413.60 -398.47 -406.71 -406.72 -409.56 -411.51 -432.64 -442.93 -444.87 -433.07 -415.78 -553.41 -553.48 -555.95 -547.98 -584.67 -621.14 -660.12 -705.32 -726.80 -744.04 -786.05 -789.74 -818.94 -1194.78 -1177.93 -1237.58 -1241.10 -1261.40 -1246.32 -1248.33 -1204.60 -1252.70 -1301.40 -1357.15 -1380.59 -1466.32 -1416.41 -1525.75 -1718.73 -1792.32 -1867.83 -1891.77 -1915.32 -1937.81 -1987.81 -2009.19 -2038.09 -2086.62 -2111.25 -1851.92 -1886.80 -1902.88 -1922.09 -1942.85 -1961.07 -1996.66 -2007.47 -2016.49 -2018.78 -2028.14 -2038.90 -2051.34 -1921.52 -1977.74 -2031.93 -2090.99 -2108.75 -2176.90 -2190.36 -2190.02 -2192.85 -2248.61 -2256.31 -2290.06 -2294.48 -2323.40 -2344.51 -2358.90 -2395.95 -2395.26 -2395.77
431.46 432.29 343.89 203.62 124.65 102.29 93.58 76.14 73.11 73.87 64.11 74.93 90.45 -25.56 -29.60 -26.60 -48.89 -71.53 -92.32 -100.17 -91.27 -90.32 -77.38 -91.39 -94.35 -88.41 -150.69 -139.56 -134.77 -134.98 -141.54 -157.70 -160.83 -166.46 -156.35 -147.78 -149.51 -153.71 -156.45 -216.31 -211.97 -212.50 -215.92 -223.28 -222.65 -227.52 -233.91 -246.78 -238.90 -248.05 -246.12 -243.44 -411.03 -412.92 -414.27 -402.20 -405.87 -410.53 -408.05 -408.26 -412.45 -408.44 -415.85 -409.86 -415.65 -557.63 -555.72 -560.80 -551.52 -570.98 -586.65 -621.32 -658.04 -709.82 -722.64 -742.52 -762.22 -792.82 -1153.07 -1163.43 -1159.22 -1206.88 -1170.85 -1173.34 -1150.58 -1171.36 -1165.24 -1165.57 -1217.43 -1284.76 -1354.98 -1285.08 -1394.54 -1507.17 -1572.81 -1695.94 -1873.28 -1915.02 -1927.59 -1962.53 -1996.37 -2032.08 -2067.95 -2093.01 -1823.00 -1865.85 -1906.02 -1910.45 -1935.77 -1964.82 -1995.18 -2000.67 -2012.31 -2021.23 -2021.30 -2028.96 -2051.10 -1908.94 -1952.36 -2004.10 -2029.41 -2081.40 -2138.64 -2181.16 -2161.57 -2154.82 -2182.19 -2235.23 -2249.58 -2286.52 -2288.31 -2291.13 -2302.06 -2320.18 -2358.42 -2359.30
434.88 437.42 345.81 170.30 118.75 95.89 81.36 75.94 79.24 80.10 77.08 93.89 92.21 -15.11 -32.40 -43.28 -53.66 -85.01 -93.91 -99.01 -90.03 -57.86 -73.41 -75.86 -79.98 -70.02 -131.48 -131.92 -130.33 -128.25 -144.13 -146.46 -155.59 -155.06 -145.48 -140.45 -135.69 -143.38 -143.04 -204.33 -213.28 -202.07 -215.46 -214.82 -219.39 -226.53 -235.29 -236.62 -237.97 -243.79 -239.50 -242.53 -405.54 -412.34 -403.42 -403.96 -397.48 -412.19 -413.61 -412.75 -416.15 -414.27 -415.72 -419.72 -415.59 -547.15 -556.29 -550.77 -548.64 -569.35 -595.38 -616.17 -637.06 -674.37 -680.05 -733.49 -737.61 -751.26 -1099.97 -1117.03 -1135.07 -1126.43 -1129.54 -1123.63 -1132.01 -1114.04 -1114.84 -1106.73 -1165.61 -1201.89 -1324.41 -1193.03 -1169.65 -1257.71 -1333.00 -1596.88 -1849.46 -1872.71 -1915.88 -1965.38 -1984.74 -2009.31 -2065.23 -2108.08 -1823.08 -1859.66 -1899.44 -1916.40 -1935.37 -1970.52 -1991.11 -1995.40 -2008.70 -2013.68 -2018.27 -2023.39 -2029.95 -1899.70 -1938.15 -1952.63 -2001.40 -2025.52 -2058.67 -2125.33 -2149.70 -2152.51 -2171.54 -2180.37 -2227.08 -2224.72 -2234.27 -2259.08 -2261.19 -2319.03 -2320.34 -2314.98
449.81 449.57 343.05 189.81 145.54 106.25 83.51 80.14 87.26 96.32 89.68 96.30 109.40 -9.40 -30.91 -52.62 -74.58 -90.57 -79.06 -88.15 -67.02 -48.77 -50.63 -68.60 -71.52 -52.51 -111.96 -115.14 -119.37 -121.62 -122.49 -135.88 -141.09 -142.60 -133.94 -134.39 -138.70 -137.55 -152.39 -208.52 -211.77 -208.79 -216.72 -215.41 -220.47 -232.07 -235.23 -239.73 -248.08 -243.56 -243.13 -232.90 -410.95 -406.79 -405.30 -401.90 -410.14 -411.36 -408.55 -408.54 -414.87 -410.31 -413.29 -411.55 -418.67 -554.05 -551.94 -556.01 -557.65 -558.08 -576.46 -581.98 -592.47 -633.98 -629.85 -635.44 -679.47 -687.85 -1063.26 -1060.40 -1082.98 -1094.23 -1078.80 -1090.46 -1104.24 -1086.04 -1079.50 -1063.92 -1068.67 -1165.70 -1242.74 -1008.25 -1061.34 -1088.31 -1243.40 -1428.66 -1689.91 -1818.01 -1848.07 -1967.98 -1985.56 -1998.82 -2036.07 -2094.71 -1846.50 -1863.82 -1902.37 -1921.83 -1947.32 -1975.90 -1988.85 -2000.90 -2009.08 -2018.00 -2011.64 -2025.35 -2032.06 -1900.49 -1929.89 -1956.11 -1991.62 -1998.31 -2010.58 -2057.07 -2080.89 -2090.90 -2101.46 -2128.98 -2158.87 -2171.79 -2179.77 -2207.39 -2247.49 -2269.33 -2281.47 -2279.31
454.31 456.26 338.81 227.39 155.86 115.43 86.59 83.43 102.06 120.12 125.13 119.62 113.46 -1.48 -27.23 -48.71 -64.98 -80.76 -77.58 -55.87 -31.53 -32.91 -36.79 -59.74 -57.92 -49.49 -106.98 -102.92 -115.70 -116.43 -125.50 -126.93 -134.77 -139.77 -129.30 -140.69 -151.58 -150.36 -161.08 -220.55 -220.34 -214.89 -216.00 -225.91 -225.28 -243.38 -225.33 -245.89 -246.97 -238.35 -241.48 -242.46 -403.14 -401.56 -404.62 -402.47 -404.87 -406.30 -408.55 -416.68 -411.31 -416.32 -410.06 -413.10 -415.55 -559.29 -551.95 -553.96 -548.16 -557.33 -551.67 -560.54 -572.05 -583.99 -588.86 -611.63 -646.38 -677.96 -1016.83 -1033.75 -1056.98 -1044.28 -1058.75 -1051.77 -1054.55 -1063.12 -1052.05 -1047.88 -1042.73 -1037.30 -1100.75 -875.46 -959.87 -994.19 -1127.33 -1383.50 -1627.65 -1675.47 -1828.97 -1912.83 -1979.26 -1988.18 -2030.58 -2088.14 -1858.12 -1871.10 -1900.91 -1956.65 -1975.42 -1997.93 -1998.58 -2009.05 -2012.27 -2015.41 -2022.03 -2032.00 -2042.86 -1904.71 -1930.19 -1953.85 -1976.85 -1992.60 -2006.75 -2022.89 -2035.32 -2051.73 -2059.09 -2098.89 -2114.46 -2132.03 -2159.53 -2179.39 -2189.86 -2243.24 -2246.93 -2246.22
433.84 433.73 458.49 170.80 145.24 110.93 106.26 111.15 151.58 137.80 131.87 139.53 119.48 -11.26 -22.24 -36.59 -54.17 -77.84 -80.97 -58.95 -27.83 -19.53 -41.10 -63.29 -54.02 -52.07 -95.41 -103.69 -98.57 -112.12 -127.55 -130.23 -132.83 -139.22 -141.76 -148.54 -164.91 -166.43 -169.97 -237.50 -233.81 -225.61 -224.46 -227.77 -237.88 -242.11 -243.41 -235.70 -242.98 -234.02 -234.35 -228.70 -408.07 -392.48 -405.68 -409.94 -406.33 -413.66 -410.64 -413.68 -413.00 -408.77 -417.97 -420.55 -414.25 -552.15 -555.02 -549.54 -552.34 -554.25 -552.68 -550.49 -566.40 -563.05 -587.23 -595.21 -616.73 -637.78 -996.38 -1006.59 -996.33 -994.78 -1008.49 -1032.81 -1016.40 -1035.43 -1031.82 -1013.84 -1002.07 -1014.58 -997.69 -721.05 -768.50 -884.64 -1027.77 -1308.10 -1592.11 -1770.93 -1855.86 -1923.77 -1942.61 -1992.55 -2029.17 -2081.94 -1845.03 -1884.45 -1907.82 -1969.63 -1996.12 -2006.63 -2008.91 -2013.91 -2014.46 -2022.97 -2037.99 -2033.67 -2049.76 -1909.22 -1930.55 -1951.78 -1962.41 -1973.65 -1994.61 -2013.53 -2014.52 -2032.15 -2045.31 -2046.97 -2090.75 -2112.92 -2138.47 -2129.66 -2168.45 -2176.12 -2213.85 -2217.87
1430.94 1431.67 1315.19 1161.93 1083.81 1060.71 1056.82 1090.91 1099.39 1110.67 1083.58 1069.30 1043.53 323.01 306.65 310.01 287.78 276.00 271.79 299.04 326.09 332.06 328.81 305.72 311.94 327.30 -84.81 -84.38 -97.15 -106.49 -113.37 -132.94 -141.54 -143.66 -148.15 -148.81 -157.00 -161.35 -160.40 -284.10 -297.94 -282.54 -293.25 -295.25 -298.03 -298.17 -293.89 -301.31 -286.83 -282.93 -280.74 -289.22 -301.92 -296.51 -310.16 -305.08 -315.56 -311.91 -310.34 -314.29 -314.04 -325.02 -315.94 -315.45 -317.10 -563.31 -571.45 -566.76 -564.55 -570.34 -567.84 -567.51 -568.21 -568.15 -582.90 -600.58 -608.55 -624.65 -439.15 -455.11 -457.92 -468.79 -461.86 -451.35 -474.34 -448.72 -430.92 -452.06 -450.57 -460.96 -447.10 -576.04 -617.87 -635.70 -809.65 -987.65 -1301.88 -1511.71 -1740.69 -1774.21 -1821.60 -1871.91 -1879.39 -1996.96 -1950.88 -2003.22 -2060.94 -2099.93 -2107.30 -2121.05 -2114.96 -2127.62 -2118.64 -2131.78 -2139.50 -2147.31 -2169.35 -1924.74 -1937.61 -1948.69 -1952.34 -1965.87 -1989.08 -2002.58 -2010.33 -2006.47 -2021.90 -2032.60 -2040.96 -2072.49 -2102.81 -2122.96 -2129.95 -2177.43 -2186.78 -2183.43
1408.73 1405.65 1310.28 1196.17 1140.35 1060.78 1073.03 1087.09 1110.65 1095.94 1076.27 1052.05 1041.08 318.60 311.69 300.07 278.51 278.14 283.66 297.15 319.37 329.87 322.98 312.99 321.29 331.79 -80.24 -78.36 -104.25 -109.73 -126.50 -127.97 -132.66 -139.83 -135.68 -136.27 -143.47 -147.15 -144.17 -273.99 -277.74 -279.15 -298.38 -294.60 -291.63 -296.01 -286.04 -293.22 -279.18 -283.10 -284.80 -284.57 -301.03 -303.40 -311.08 -309.24 -315.60 -317.95 -315.63 -317.92 -318.12 -318.70 -318.03 -316.60 -313.94 -573.59 -570.70 -562.78 -560.23 -564.36 -565.30 -566.17 -566.77 -569.27 -569.90 -583.13 -582.07 -605.50 -414.10 -434.93 -444.75 -446.98 -446.62 -450.34 -423.45 -422.31 -424.61 -414.47 -425.94 -433.75 -431.81 -562.02 -606.66 -646.45 -791.93 -965.64 -1129.35 -1166.40 -1396.84 -1646.96 -1747.22 -1751.45 -1894.13 -1972.52 -1965.42 -2009.71 -2080.69 -2123.03 -2126.46 -2132.53 -2141.31 -2147.45 -2146.38 -2139.76 -2153.24 -2158.17 -2167.76 -1940.75 -1942.23 -1953.32 -1966.56 -1974.32 -1983.78 -1991.71 -1991.11 -2000.30 -2005.09 -2024.15 -2034.12 -2036.16 -2061.71 -2087.34 -2110.36 -2164.73 -2152.89 -2154.90
1628.17 1630.89 1516.04 1257.36 1247.47 1125.38 1076.16 1083.13 1125.12 1108.41 1097.45 1055.70 1061.53 354.14 351.03 319.15 308.79 286.28 284.07 309.94 316.79 350.11 337.11 323.54 329.65 336.56 -73.46 -75.31 -102.46 -100.11 -109.77 -108.00 -112.64 -121.69 -122.60 -116.97 -126.63 -134.80 -134.43 -268.80 -263.62 -279.40 -285.08 -291.95 -295.65 -289.36 -288.72 -284.91 -277.02 -274.03 -272.55 -280.01 -302.85 -305.93 -312.49 -313.37 -313.21 -307.61 -312.63 -311.62 -311.59 -309.93 -317.85 -313.58 -314.38 -566.13 -563.64 -562.74 -567.32 -562.46 -565.64 -569.08 -570.16 -562.99 -568.71 -567.61 -570.65 -585.43 -393.67 -420.12 -427.26 -428.61 -434.65 -415.14 -414.17 -415.01 -413.56 -403.83 -413.00 -411.47 -407.68 -539.82 -581.89 -596.02 -628.29 -836.57 -893.43 -1000.33 -1363.96 -1355.62 -1580.12 -1734.18 -1956.70 -2000.07 -1993.21 -2047.54 -2081.13 -2125.21 -2153.60 -2162.04 -2173.83 -2159.51 -2172.65 -2168.13 -2180.84 -2179.26 -2175.83 -1944.91 -1953.66 -1975.30 -1978.33 -1979.23 -1986.10 -1988.04 -1990.92 -1996.97 -2001.81 -2017.19 -2024.85 -2036.11 -2054.17 -2068.89 -2086.19 -2122.62 -2129.43 -2136.84
1757.92 1761.03 1573.72 1381.76 1263.84 1179.77 1128.66 1181.13 1143.72 1178.11 1160.76 1130.62 1118.92 372.37 356.22 336.95 312.37 284.46 285.85 307.42 340.99 353.25 350.42 339.77 333.35 342.73 -67.06 -84.13 -103.51 -102.29 -92.20 -98.30 -107.10 -112.57 -115.36 -112.02 -115.20 -124.05 -130.18 -262.08 -270.15 -279.41 -288.94 -295.12 -287.45 -281.23 -280.82 -291.44 -279.72 -271.31 -266.35 -274.63 -298.62 -305.79 -306.30 -309.65 -308.64 -307.26 -310.25 -309.18 -305.13 -312.81 -309.80 -310.63 -310.96 -565.98 -561.83 -560.42 -562.84 -566.34 -568.06 -569.25 -570.36 -567.13 -563.32 -567.00 -573.05 -569.34 -379.80 -401.20 -392.21 -409.02 -409.22 -409.35 -400.06 -398.03 -389.97 -396.33 -399.44 -396.94 -407.03 -524.67 -541.53 -563.74 -577.63 -617.25 -710.06 -780.28 -1007.67 -1286.99 -1365.98 -1695.58 -1919.72 -2001.29 -2009.03 -2043.06 -2119.60 -2140.82 -2164.84 -2184.22 -2181.10 -2193.01 -2183.00 -2189.97 -2183.77 -2195.84 -2201.22 -1960.31 -1978.76 -1980.98 -1995.82 -1999.72 -1999.15 -2002.42 -2001.31 -2010.93 -2010.41 -2015.52 -2027.10 -2031.35 -2045.39 -2064.43 -2080.63 -2110.75 -2122.09 -2118.84
1829.89 1835.27 1794.66 1334.26 1297.58 1195.83 1203.95 1259.44 1211.77 1218.72 1189.90 1188.91 1140.74 369.01 349.44 333.72 317.78 311.87 295.22 302.41 338.29 364.28 357.67 352.08 353.77 353.28 -59.35 -89.71 -88.88 -99.84 -93.84 -90.48 -109.11 -114.99 -121.80 -120.91 -109.00 -122.48 -145.76 -266.79 -283.90 -289.40 -288.13 -291.69 -284.49 -277.16 -277.41 -279.76 -270.56 -267.49 -267.87 -274.10 -294.91 -301.93 -303.31 -303.50 -298.16 -299.99 -299.13 -302.31 -304.25 -304.00 -316.95 -312.93 -316.94 -560.55 -560.30 -563.12 -564.89 -557.33 -562.43 -562.55 -566.84 -568.96 -567.75 -572.89 -567.95 -569.25 -372.02 -384.54 -393.80 -398.58 -400.87 -390.63 -391.37 -390.41 -390.78 -383.42 -395.65 -394.70 -401.38 -524.59 -527.77 -536.86 -569.63 -605.01 -637.52 -737.94 -955.55 -1206.13 -1429.87 -1835.06 -1916.43 -2020.32 -2017.18 -2077.41 -2133.31 -2150.46 -2181.59 -2194.95 -2209.10 -2205.95 -2205.20 -2208.65 -2202.32 -2209.50 -2216.82 -1974.30 -1983.09 -1989.34 -2011.18 -2008.11 -2027.20 -2024.20 -2014.36 -2008.76 -2010.58 -2023.45 -2021.88 -2028.65 -2044.99 -2062.64 -2077.38 -2094.66 -2104.95 -2108.82
1786.08 1784.76 1680.16 1459.34 1323.96 1262.04 1285.49 1331.10 1323.27 1250.18 1215.77 1204.43 1157.76 378.60 367.14 365.37 343.01 334.69 314.85 311.80 346.90 372.08 376.08 367.68 364.92 369.97 -61.55 -74.10 -90.87 -91.57 -89.94 -96.55 -107.54 -129.05 -126.76 -128.09 -122.26 -141.57 -152.70 -279.83 -287.26 -289.85 -289.55 -291.06 -278.33 -271.44 -266.23 -267.65 -269.02 -261.66 -264.16 -267.66 -296.07 -298.17 -305.30 -304.76 -290.82 -294.22 -301.46 -294.82 -307.06 -308.18 -311.79 -305.46 -315.39 -559.06 -555.87 -562.14 -554.58 -565.60 -560.01 -564.76 -565.64 -574.01 -568.63 -567.35 -577.27 -570.09 -374.34 -389.10 -389.34 -394.53 -381.22 -379.74 -378.58 -383.49 -380.98 -375.82 -380.66 -386.54 -398.52 -516.60 -517.35 -524.51 -536.59 -564.00 -630.02 -690.71 -869.24 -1102.39 -1228.88 -1626.70 -1914.68 -2012.50 -2033.19 -2096.21 -2147.93 -2145.86 -2182.41 -2204.54 -2216.10 -2208.81 -2213.07 -2216.31 -2207.77 -2220.74 -2226.82 -1994.31 -2001.88 -2011.36 -2018.28 -2031.85 -2031.57 -2027.65 -2025.49 -2023.33 -2017.64 -2024.92 -2026.67 -2033.43 -2048.71 -2057.03 -2062.60 -2087.70 -2090.51 -2093.80
1707.66 1709.20 1593.81 1473.52 1427.38 1348.23 1340.05 1393.53 1360.36 1352.42 1310.83 1217.32 1138.92 397.71 405.59 384.02 358.99 326.32 312.06 322.74 366.94 373.46 386.60 386.55 387.32 376.66 -49.50 -54.40 -72.03 -85.86 -95.02 -94.04 -118.45 -128.35 -151.38 -129.08 -145.80 -156.94 -157.17 -281.95 -293.51 -295.87 -288.09 -284.79 -280.37 -271.96 -255.04 -258.92 -265.88 -266.25 -265.03 -274.93 -290.04 -300.89 -305.97 -300.37 -296.15 -288.69 -290.64 -296.22 -304.59 -301.31 -312.28 -305.66 -313.63 -563.13 -560.34 -559.01 -559.91 -568.67 -564.28 -560.92 -564.81 -563.37 -570.68 -567.78 -567.41 -566.31 -369.85 -385.50 -394.24 -385.40 -378.35 -378.58 -380.85 -376.93 -376.83 -380.48 -372.86 -383.16 -382.73 -507.23 -499.65 -513.32 -525.17 -567.96 -582.81 -684.82 -851.77 -940.17 -1040.03 -1563.75 -1920.85 -1995.50 -2031.37 -2087.07 -2116.92 -2162.32 -2189.45 -2213.90 -2226.06 -2225.32 -2223.77 -2223.66 -2233.16 -2239.57 -2242.28 -2002.73 -2017.39 -2029.77 -2034.70 -2036.49 -2042.74 -2039.24 -2039.29 -2030.00 -2020.33 -2032.45 -2030.98 -2040.05 -2042.05 -2051.49 -2059.34 -2087.68 -2084.40 -2093.26
1647.89 1644.38 1573.43 1476.15 1432.67 1430.42 1426.96 1402.52 1420.12 1392.95 1360.37 1233.55 1178.17 438.61 438.50 408.94 384.05 324.97 314.97 356.20 374.02 404.49 410.26 408.08 395.21 377.34 -40.64 -49.50 -64.13 -82.96 -88.24 -108.77 -129.89 -152.45 -152.16 -158.81 -162.67 -165.18 -161.45 -285.35 -300.59 -293.88 -295.21 -286.22 -278.39 -262.04 -247.75 -250.20 -248.57 -252.99 -273.25 -270.43 -292.42 -297.20 -300.27 -284.65 -282.03 -286.29 -287.56 -286.67 -292.94 -297.64 -300.46 -298.70 -310.87 -556.68 -555.12 -559.00 -558.24 -563.92 -564.43 -562.33 -570.47 -567.32 -567.03 -570.20 -562.34 -567.47 -376.61 -380.22 -381.72 -377.74 -369.45 -373.24 -380.61 -371.58 -373.47 -369.03 -368.98 -373.42 -373.86 -492.31 -497.61 -508.89 -517.01 -524.49 -543.61 -572.77 -661.96 -842.92 -1110.57 -1260.83 -1955.20 -1979.12 -1986.35 -2068.78 -2109.79 -2161.18 -2191.43 -2220.27 -2221.53 -2232.18 -2238.33 -2238.58 -2243.49 -2244.29 -2251.80 -2009.47 -2035.16 -2041.93 -2043.65 -2042.04 -2045.15 -2038.23 -2033.18 -2031.03 -2024.67 -2031.22 -2031.30 -2036.37 -2049.57 -2051.62 -2063.74 -2073.54 -2085.59 -2077.74
1629.64 1632.74 1575.21 1470.29 1437.26 1437.37 1442.36 1437.33 1434.23 1401.19 1343.87 1299.30 1200.66 463.70 437.47 389.54 366.45 330.82 338.72 381.86 406.69 412.05 420.12 404.04 391.59 369.31 -38.22 -47.51 -66.26 -75.88 -91.90 -90.33 -129.66 -154.74 -155.98 -170.78 -169.87 -173.48 -178.42 -295.63 -293.93 -302.97 -291.41 -283.90 -278.82 -263.18 -246.97 -242.67 -240.73 -254.29 -264.30 -265.23 -284.42 -284.55 -283.81 -281.99 -278.15 -279.76 -279.17 -283.77 -280.36 -292.91 -293.35 -303.03 -298.07 -554.09 -553.83 -557.45 -556.75 -564.68 -563.99 -558.02 -562.92 -564.97 -563.48 -565.56 -567.18 -564.67 -372.91 -378.07 -377.76 -370.03 -371.43 -371.92 -373.01 -374.22 -375.05 -368.65 -370.71 -366.36 -374.16 -487.54 -490.74 -497.57 -506.59 -519.62 -531.95 -545.78 -649.94 -801.95 -895.26 -1246.17 -1583.82 -1984.49 -1973.99 -2052.42 -2099.89 -2127.25 -2184.99 -2212.42 -2223.65 -2234.23 -2236.37 -2237.84 -2240.82 -2257.51 -2257.45 -2034.73 -2042.41 -2042.02 -2043.72 -2048.16 -2042.89 -2037.93 -2032.35 -2035.24 -2035.74 -2028.96 -2031.76 -2036.48 -2041.73 -2049.21 -2063.93 -2075.75 -2080.58 -2084.67
1605.07 1605.76 1606.61 1411.85 1412.19 1435.39 1434.07 1441.33 1444.41 1420.38 1398.40 1335.05 1265.64 477.14 424.24 374.59 354.06 342.98 364.64 397.90 415.87 400.61 408.65 392.84 373.67 362.91 -40.98 -45.62 -54.09 -65.76 -88.26 -99.18 -130.59 -131.91 -145.09 -159.44 -173.47 -166.21 -160.76 -285.79 -287.36 -292.48 -288.00 -290.44 -269.69 -258.38 -244.09 -238.73 -236.87 -246.29 -257.73 -265.31 -280.94 -289.83 -282.83 -286.57 -277.40 -282.25 -275.33 -283.78 -288.73 -290.33 -292.69 -295.89 -295.60 -544.71 -553.64 -551.16 -559.98 -559.78 -561.48 -564.31 -559.55 -571.72 -564.21 -564.65 -564.38 -570.58 -372.59 -373.50 -372.25 -373.73 -370.30 -370.62 -369.26 -369.13 -369.13 -367.48 -368.23 -373.73 -374.25 -488.92 -491.85 -496.41 -495.97 -498.13 -523.36 -546.02 -579.97 -685.88 -878.08 -1192.84 -1332.75 -1735.90 -1980.39 -2036.52 -2073.55 -2137.03 -2156.13 -2193.26 -2220.89 -2228.15 -2238.23 -2241.67 -2239.23 -2256.65 -2263.51 -2027.52 -2044.60 -2040.03 -2049.36 -2050.33 -2049.71 -2042.29 -2040.77 -2039.47 -2040.57 -2033.90 -2030.68 -2040.47 -2044.67 -2050.93 -2063.50 -2081.49 -2085.84 -2082.14
1584.26 1582.52 1509.05 1427.41 1402.24 1420.93 1431.45 1435.31 1435.48 1448.16 1445.07 1395.81 1271.46 475.57 435.45 381.94 354.59 367.13 412.62 423.17 418.84 407.57 389.07 364.02 353.83 340.46 -52.61 -54.62 -50.90 -66.88 -100.64 -98.21 -112.88 -120.90 -134.33 -156.96 -169.62 -158.49 -159.82 -277.13 -272.29 -272.92 -285.75 -279.12 -280.37 -258.88 -240.23 -252.34 -247.07 -257.17 -255.30 -261.45 -284.28 -287.47 -296.07 -294.60 -297.53 -280.25 -280.37 -284.62 -286.02 -291.18 -296.38 -288.25 -297.66 -540.35 -548.14 -548.63 -552.12 -557.74 -556.59 -558.41 -564.54 -566.77 -566.93 -560.47 -567.34 -570.59 -362.77 -367.76 -365.30 -369.09 -369.10 -370.76 -365.42 -375.05 -371.03 -374.63 -368.31 -370.84 -371.95 -487.67 -487.59 -487.60 -494.13 -494.06 -506.63 -516.71 -540.44 -651.86 -828.70 -950.80 -1283.59 -1504.24 -1809.12 -2023.69 -2044.08 -2099.26 -2150.23 -2185.00 -2204.75 -2222.31 -2225.78 -2238.78 -2239.20 -2250.06 -2263.05 -2024.88 -2029.85 -2039.98 -2050.37 -2051.46 -2047.56 -2047.12 -2043.43 -2042.46 -2036.31 -2034.83 -2033.13 -2037.97 -2038.32 -2056.64 -2063.36 -2072.75 -2082.79 -2081.64
1581.00 1585.94 1492.86 1442.16 1348.86 1324.46 1372.50 1389.46 1426.81 1434.13 1451.50 1381.24 1307.29 484.98 455.44 407.85 409.54 418.96 439.52 413.87 410.83 396.48 381.10 350.97 329.08 329.47 -73.40 -69.85 -70.50 -84.13 -106.70 -101.59 -106.56 -122.56 -132.78 -142.20 -168.71 -166.89 -141.72 -265.13 -250.91 -261.29 -275.28 -276.28 -264.91 -266.45 -265.94 -265.35 -262.97 -267.92 -259.00 -265.50 -285.03 -290.86 -297.96 -306.23 -297.57 -287.40 -282.44 -282.53 -292.37 -293.01 -295.45 -295.34 -289.08 -544.78 -550.00 -552.78 -551.06 -558.12 -555.05 -558.58 -562.37 -564.13 -559.08 -561.66 -562.85 -568.13 -372.95 -370.96 -369.78 -371.25 -365.72 -366.45 -373.03 -373.78 -374.14 -366.48 -374.38 -370.32 -366.93 -488.09 -485.54 -488.62 -488.50 -487.42 -495.11 -506.52 -534.57 -559.65 -701.86 -795.60 -1105.60 -1412.47 -1683.65 -1886.69 -2018.56 -2044.55 -2120.24 -2148.89 -2199.20 -2225.52 -2229.84 -2236.78 -2246.51 -2250.43 -2253.96 -2026.67 -2027.26 -2037.87 -2042.78 -2047.53 -2041.21 -2046.67 -2041.57 -2037.39 -2041.53 -2039.16 -2033.83 -2041.71 -2048.44 -2061.43 -2062.70 -2072.83 -2088.14 -2083.00
798.43 800.73 818.46 615.77 596.37 585.94 643.20 688.89 713.62 728.67 745.38 686.86 619.62 949.85 855.71 893.24 850.82 832.87 818.02 778.82 769.14 750.59 742.92 697.49 701.07 695.34 -90.00 -69.95 -70.76 -100.37 -111.13 -110.82 -117.99 -122.25 -144.53 -149.91 -165.99 -159.01 -143.81 -275.59 -274.69 -273.53 -274.80 -284.19 -287.04 -288.73 -296.23 -290.17 -301.31 -299.51 -298.53 -294.53 -361.72 -371.88 -389.70 -381.62 -374.37 -373.75 -367.46 -368.41 -363.79 -368.05 -373.81 -374.33 -370.07 -345.46 -347.92 -346.85 -346.24 -356.01 -358.27 -357.08 -357.00 -355.72 -358.69 -361.44 -363.17 -361.18 -451.21 -446.36 -452.36 -450.12 -446.01 -450.16 -455.21 -449.76 -448.47 -452.41 -455.70 -446.86 -450.20 -358.14 -354.91 -355.27 -358.59 -362.00 -361.99 -374.63 -391.75 -404.58 -461.48 -598.82 -858.70 -1077.16 -1795.51 -1974.81 -2014.18 -2122.03 -2154.54 -2209.58 -2226.17 -2272.91 -2299.84 -2304.39 -2306.89 -2310.44 -2319.19 -2012.36 -2016.53 -2022.10 -2028.21 -2028.83 -2031.82 -2038.93 -2038.31 -2039.79 -2032.56 -2034.90 -2037.30 -2042.08 -2041.84 -2048.77 -2063.87 -2084.64 -2087.85 -2082.90
767.37 765.96 680.12 593.80 539.65 579.67 634.08 678.48 703.39 711.44 719.29 730.78 693.28 1036.91 967.85 922.58 907.25 880.38 802.61 757.79 764.30 739.61 710.11 700.30 694.10 688.38 -102.38 -89.18 -94.18 -98.78 -130.43 -126.56 -137.83 -162.46 -154.23 -156.20 -154.65 -146.84 -141.32 -278.98 -264.98 -268.05 -283.96 -277.89 -275.05 -286.70 -301.32 -307.44 -311.25 -308.37 -301.18 -303.81 -367.00 -374.80 -387.34 -385.53 -384.17 -377.23 -367.99 -373.57 -371.90 -378.80 -383.64 -379.23 -374.52 -352.48 -356.77 -353.32 -356.23 -356.93 -363.86 -354.54 -350.53 -362.47 -360.26 -354.35 -359.30 -361.93 -444.71 -448.41 -449.50 -449.86 -456.13 -454.46 -449.25 -453.86 -453.36 -447.83 -450.75 -453.07 -454.76 -354.19 -353.64 -357.07 -357.23 -357.05 -357.02 -367.28 -370.05 -429.04 -483.06 -526.77 -742.48 -1119.41 -1645.48 -1858.97 -1924.89 -2032.07 -2149.91 -2168.60 -2212.76 -2233.42 -2273.37 -2283.94 -2307.60 -2301.30 -2309.80 -2002.88 -2004.81 -2012.13 -2024.15 -2020.33 -2031.12 -2031.92 -2033.22 -2034.73 -2036.23 -2038.57 -2040.35 -2034.21 -2047.65 -2055.72 -2068.64 -2094.41 -2088.16 -2087.60
755.43 752.16 663.53 572.83 538.61 588.35 628.47 676.81 678.07 694.23 707.49 698.01 722.23 1116.05 1015.29 992.92 924.12 866.46 787.88 783.05 782.50 750.84 745.60 722.89 709.97 681.77 -109.59 -115.02 -118.17 -130.60 -141.33 -147.05 -158.04 -158.22 -169.08 -155.40 -152.91 -140.99 -131.74 -268.12 -256.51 -257.48 -266.75 -270.33 -281.14 -300.00 -300.11 -316.49 -313.97 -316.77 -306.80 -314.93 -376.39 -377.94 -383.69 -390.19 -386.83 -385.19 -381.15 -375.97 -379.42 -377.36 -389.32 -393.32 -390.51 -354.12 -358.52 -358.32 -357.40 -351.09 -362.80 -361.78 -360.79 -358.53 -362.04 -360.01 -360.36 -362.13 -442.02 -453.21 -448.83 -449.02 -450.63 -452.74 -454.01 -452.38 -452.74 -449.51 -449.89 -450.13 -452.09 -356.10 -348.52 -353.33 -351.30 -357.58 -359.07 -361.82 -368.12 -404.04 -476.21 -545.94 -765.15 -1086.23 -1569.55 -1649.52 -1815.51 -1901.00 -2077.65 -2136.50 -2180.78 -2230.90 -2250.48 -2262.67 -2271.80 -2290.94 -2288.80 -1994.20 -2005.81 -2009.81 -2014.77 -2016.91 -2029.43 -2027.79 -2032.54 -2035.37 -2035.31 -2038.40 -2039.79 -2041.25 -2052.39 -2066.08 -2069.24 -2082.63 -2095.35 -2092.02
681.25 683.08 691.85 496.83 473.54 530.12 588.86 610.66 636.31 640.84 667.07 693.80 702.69 1091.62 1047.36 1018.28 945.40 885.15 820.55 820.99 788.05 761.15 745.13 728.39 712.02 685.97 -134.47 -129.60 -123.54 -130.36 -150.39 -152.56 -164.50 -165.39 -155.97 -144.17 -132.70 -124.43 -125.71 -247.47 -251.24 -250.44 -261.39 -268.16 -282.07 -283.91 -318.02 -321.45 -323.82 -315.98 -318.77 -320.49 -390.21 -383.14 -382.68 -386.60 -383.91 -386.24 -389.27 -383.22 -383.17 -389.05 -384.76 -394.36 -392.88 -361.52 -358.54 -353.37 -356.73 -355.57 -365.60 -362.30 -363.06 -364.09 -362.56 -355.91 -356.12 -366.18 -449.12 -449.90 -456.00 -447.25 -445.95 -449.37 -454.76 -448.25 -451.06 -450.68 -451.44 -447.09 -454.45 -355.66 -354.12 -360.51 -354.81 -351.44 -362.52 -349.76 -361.00 -415.75 -449.27 -527.03 -681.26 -705.46 -1247.11 -1659.44 -1726.73 -1801.70 -1965.60 -2092.69 -2108.63 -2177.72 -2222.92 -2234.06 -2265.79 -2268.67 -2283.29 -1990.59 -1990.81 -2001.70 -2016.89 -2016.78 -2028.04 -2031.92 -2038.43 -2045.70 -2036.02 -2039.32 -2046.13 -2057.86 -2057.60 -2078.81 -2076.95 -2095.66 -2097.73 -2099.44
650.24 655.58 589.54 484.65 465.77 469.40 511.78 543.80 594.53 620.98 639.99 643.47 665.16 1036.91 969.54 958.87 977.78 912.63 895.98 842.17 793.25 736.19 725.15 713.52 710.66 682.70 -133.24 -136.37 -138.44 -139.93 -132.32 -142.84 -161.76 -166.81 -147.49 -128.78 -123.98 -112.51 -110.32 -248.82 -246.88 -242.10 -257.91 -271.38 -292.84 -299.58 -319.91 -318.50 -320.19 -310.23 -318.33 -317.73 -388.60 -385.06 -385.43 -379.06 -385.66 -384.04 -390.65 -388.46 -387.79 -381.46 -387.40 -385.83 -389.75 -359.89 -359.40 -356.82 -365.66 -361.67 -361.17 -363.87 -364.11 -366.10 -368.33 -366.28 -364.80 -360.16 -454.28 -451.50 -450.76 -450.23 -446.21 -448.74 -449.41 -448.12 -450.44 -446.41 -454.93 -450.91 -452.62 -358.33 -355.31 -353.80 -359.62 -355.91 -357.70 -357.82 -352.48 -367.14 -418.88 -484.77 -522.55 -789.58 -1284.57 -1577.23 -1634.25 -1811.30 -1924.16 -1966.46 -2060.65 -2140.86 -2165.68 -2214.60 -2229.34 -2237.41 -2267.14 -1984.68 -1987.13 -2001.26 -2004.05 -2016.69 -2027.89 -2030.42 -2040.04 -2048.08 -2047.26 -2052.85 -2055.27 -2062.59 -2073.47 -2072.18 -2081.98 -2104.19 -2109.35 -2119.24
654.16 659.93 603.42 500.05 474.45 441.76 459.09 482.18 522.59 545.16 549.44 545.05 532.66 916.06 872.88 933.02 961.57 952.12 906.43 853.19 781.84 761.76 724.54 700.67 691.19 683.53 -133.03 -124.88 -123.53 -114.98 -118.44 -140.47 -164.21 -148.68 -129.13 -111.93 -112.32 -101.81 -100.47 -254.25 -253.12 -251.89 -257.41 -292.94 -296.49 -309.88 -323.44 -324.20 -318.50 -306.56 -307.07 -321.64 -391.96 -383.76 -380.97 -369.21 -372.86 -378.56 -392.33 -385.82 -389.04 -385.31 -383.74 -381.99 -385.45 -357.07 -356.91 -362.14 -361.23 -367.52 -365.16 -357.10 -363.17 -365.35 -361.67 -364.81 -363.78 -362.74 -446.29 -449.50 -449.19 -450.50 -448.67 -452.23 -448.19 -454.20 -448.00 -450.17 -443.08 -447.60 -448.97 -359.97 -357.07 -362.18 -357.95 -353.65 -361.04 -357.03 -361.24 -370.71 -392.02 -438.49 -518.40 -857.98 -1247.78 -1520.51 -1667.15 -1819.13 -1867.18 -1937.75 -2000.31 -2063.02 -2096.04 -2180.84 -2214.29 -2222.07 -2267.19 -1965.69 -1982.33 -1998.91 -2015.50 -2023.02 -2024.65 -2035.54 -2040.51 -2049.00 -2046.82 -2051.92 -2057.12 -2070.76 -2077.54 -2090.04 -2088.44 -2110.08 -2122.35 -2124.98
726.22 726.57 639.34 531.79 521.80 455.48 430.52 462.34 476.19 484.59 467.79 463.91 462.62 835.90 820.04 872.74 950.07 937.47 896.69 852.97 791.96 752.09 724.99 709.78 691.46 682.83 -107.60 -111.44 -100.44 -112.94 -120.24 -141.63 -144.73 -137.85 -130.16 -109.06 -111.10 -97.68 -111.44 -264.00 -272.97 -272.13 -292.75 -288.58 -298.85 -313.40 -319.80 -317.40 -313.41 -300.66 -303.43 -295.78 -370.74 -367.77 -368.60 -364.38 -371.97 -381.33 -383.02 -385.77 -386.09 -384.12 -382.45 -383.48 -385.62 -361.18 -364.44 -358.54 -367.73 -361.54 -364.02 -357.75 -352.13 -364.35 -364.70 -360.14 -364.58 -365.27 -451.20 -450.71 -450.00 -452.33 -450.78 -452.87 -454.02 -453.35 -444.28 -454.56 -447.22 -454.06 -448.05 -353.52 -349.81 -357.14 -358.46 -355.24 -363.29 -362.54 -367.90 -379.97 -422.57 -483.04 -512.83 -687.75 -1153.97 -1505.82 -1612.24 -1743.63 -1782.97 -1861.68 -1923.67 -1973.79 -2086.16 -2138.90 -2173.20 -2232.59 -2267.61 -1966.38 -1985.22 -1996.91 -2022.97 -2033.41 -2037.30 -2042.89 -2043.48 -2048.70 -2060.55 -2065.61 -2073.92 -2075.81 -2091.11 -2100.06 -2106.57 -2119.59 -2134.27 -2127.14
731.22 729.45 659.06 583.18 519.29 458.12 427.58 448.00 450.76 466.41 463.96 435.64 422.32 794.34 810.04 861.34 915.05 928.57 898.23 847.21 824.87 765.77 727.10 724.06 711.36 701.13 -103.16 -95.58 -94.44 -105.46 -136.94 -136.43 -129.44 -124.00 -103.65 -109.06 -100.72 -117.36 -122.06 -294.78 -293.26 -284.98 -294.04 -297.79 -303.05 -316.57 -322.85 -314.80 -306.62 -299.66 -298.66 -297.03 -359.13 -365.99 -360.06 -356.97 -353.67 -369.46 -379.00 -378.58 -382.41 -380.85 -386.93 -388.61 -393.29 -360.30 -364.38 -364.38 -358.54 -364.81 -360.90 -353.80 -356.34 -360.76 -364.57 -359.74 -363.59 -359.99 -452.86 -454.52 -447.45 -445.34 -446.96 -447.47 -455.54 -448.53 -450.33 -456.37 -450.79 -449.27 -450.28 -355.13 -356.13 -353.76 -360.23 -351.26 -358.73 -357.39 -380.75 -408.22 -448.71 -502.83 -517.35 -653.30 -1079.38 -1278.78 -1484.83 -1588.38 -1736.69 -1780.74 -1863.22 -1947.82 -2029.55 -2104.40 -2156.86 -2237.64 -2272.01 -1970.17 -1991.07 -2004.67 -2030.99 -2026.02 -2035.90 -2045.71 -2055.04 -2056.87 -2071.26 -2068.89 -2080.44 -2095.28 -2089.69 -2102.94 -2104.94 -2126.37 -2144.69 -2141.73
723.35 723.15 725.76 540.10 525.50 472.73 428.79 427.09 424.66 460.60 460.72 439.34 425.11 771.16 779.00 825.66 895.97 916.57 885.87 863.11 838.95 749.62 734.37 717.63 721.80 717.44 -83.59 -98.61 -107.49 -124.50 -133.13 -123.54 -116.79 -99.74 -101.79 -98.57 -109.90 -113.36 -131.18 -296.04 -299.64 -304.00 -308.82 -309.20 -319.46 -326.99 -311.77 -298.64 -301.28 -296.92 -293.07 -282.33 -352.53 -353.81 -357.55 -355.72 -350.15 -357.69 -368.40 -374.84 -379.96 -391.63 -386.87 -382.82 -382.42 -360.76 -362.86 -364.64 -363.11 -356.62 -360.44 -357.05 -356.33 -364.92 -366.96 -361.75 -361.18 -365.62 -451.13 -442.77 -446.95 -454.40 -448.46 -443.75 -452.07 -452.47 -452.26 -449.56 -456.75 -455.32 -449.67 -353.52 -356.94 -354.93 -358.51 -352.66 -357.24 -363.66 -376.33 -398.54 -431.41 -439.67 -478.65 -667.92 -1125.47 -1333.56 -1508.98 -1545.79 -1589.64 -1702.41 -1772.07 -1866.89 -1917.55 -2081.99 -2106.34 -2210.65 -2256.28 -1967.35 -2004.56 -2007.16 -2023.11 -2032.46 -2033.71 -2044.25 -2050.97 -2061.24 -2071.19 -2075.51 -2083.60 -2092.70 -2093.78 -2104.72 -2119.97 -2146.34 -2153.80 -2153.75
719.63 726.97 651.08 547.02 504.78 465.83 426.82 395.08 412.18 418.23 450.31 436.62 405.25 757.54 768.11 827.00 841.49 876.85 886.01 832.15 799.05 744.01 738.53 711.64 712.58 707.15 -90.34 -111.59 -128.75 -125.56 -114.42 -103.79 -96.06 -103.06 -84.79 -92.72 -117.28 -120.51 -145.94 -304.99 -320.56 -314.67 -316.61 -319.98 -318.23 -317.03 -303.86 -294.28 -291.01 -293.62 -284.79 -274.71 -344.17 -343.91 -349.96 -352.44 -354.87 -364.49 -363.43 -371.23 -381.52 -387.03 -391.51 -387.08 -387.68 -359.62 -359.23 -355.00 -358.02 -359.85 -359.73 -359.90 -354.57 -359.52 -356.53 -365.06 -359.09 -361.45 -446.95 -442.97 -449.55 -452.25 -453.57 -451.91 -453.76 -445.26 -449.08 -448.49 -453.24 -453.48 -448.94 -357.16 -358.62 -354.30 -358.22 -350.67 -361.16 -371.00 -368.60 -383.89 -420.46 -433.37 -437.17 -661.14 -1121.76 -1271.98 -1408.02 -1531.17 -1551.72 -1624.50 -1722.37 -1751.93 -1916.31 -2010.94 -2114.56 -2159.81 -2216.58 -1969.92 -2006.43 -2014.20 -2029.52 -2032.84 -2033.18 -2043.61 -2050.33 -2057.01 -2055.28 -2072.45 -2082.36 -2096.07 -2100.49 -2115.06 -2124.77 -2146.74 -2156.54 -2152.57
733.03 730.41 653.34 538.57 473.93 431.61 398.09 389.61 389.96 409.00 426.70 407.84 391.71 738.79 764.37 798.31 839.00 862.33 863.65 829.49 773.27 760.41 730.94 722.54 706.68 693.44 -97.98 -118.19 -116.81 -110.41 -105.14 -90.07 -86.33 -89.42 -88.33 -94.05 -114.51 -143.48 -147.88 -298.90 -308.03 -307.19 -311.65 -316.10 -314.77 -305.45 -296.28 -281.75 -275.78 -279.34 -274.54 -284.42 -347.35 -346.94 -352.29 -353.02 -365.08 -368.85 -374.54 -380.62 -390.79 -390.07 -386.58 -383.54 -380.16 -348.57 -349.45 -355.01 -359.57 -357.15 -358.11 -356.15 -359.18 -359.94 -361.48 -353.75 -360.98 -361.66 -443.59 -452.21 -454.20 -447.01 -448.18 -450.13 -452.96 -453.04 -454.17 -449.53 -449.26 -447.36 -448.34 -352.11 -355.34 -351.96 -361.38 -350.56 -355.26 -354.89 -356.80 -363.84 -368.87 -417.47 -442.13 -618.21 -1039.84 -1307.26 -1345.79 -1461.45 -1530.59 -1589.70 -1626.82 -1779.05 -1823.52 -2007.99 -2093.22 -2127.01 -2189.79 -1995.32 -2007.57 -2020.26 -2020.99 -2023.12 -2030.68 -2035.84 -2039.65 -2050.99 -2061.10 -2071.64 -2081.25 -2085.54 -2098.99 -2105.42 -2118.99 -2136.08 -2152.92 -2150.56
720.89 715.15 631.87 539.03 470.74 387.26 383.61 379.25 405.20 409.55 395.79 400.55 368.23 738.51 747.22 819.69 837.12 863.48 858.99 835.49 814.45 769.14 758.08 736.71 727.27 702.97 -103.13 -100.51 -105.20 -99.35 -83.94 -75.80 -73.01 -69.39 -79.65 -91.16 -112.87 -114.83 -132.18 -287.32 -293.56 -295.92 -299.08 -308.13 -306.63 -303.50 -288.06 -277.34 -269.57 -264.38 -270.58 -276.93 -361.83 -360.14 -364.99 -353.47 -366.05 -372.62 -378.37 -384.47 -378.68 -386.35 -379.07 -381.42 -373.52 -345.63 -348.62 -356.60 -363.57 -370.25 -360.17 -356.90 -351.69 -353.32 -347.49 -353.22 -355.64 -363.66 -451.60 -447.51 -450.62 -452.28 -451.48 -449.01 -447.48 -449.91 -452.60 -446.06 -451.77 -454.12 -456.21 -357.91 -356.80 -351.40 -357.61 -357.47 -358.53 -355.87 -353.85 -359.36 -385.33 -407.59 -471.54 -506.58 -843.32 -1103.07 -1383.36 -1405.64 -1496.73 -1512.25 -1570.79 -1738.03 -1810.92 -2000.93 -2072.60 -2114.28 -2145.83 -1948.02 -1981.79 -1993.10 -1995.59 -2016.25 -2014.93 -2032.28 -2029.96 -2036.78 -2054.17 -2071.43 -2083.65 -2082.57 -2098.21 -2112.85 -2119.72 -2138.11 -2148.81 -2149.09
1228.29 1226.84 1155.54 1037.54 1003.37 957.27 933.41 908.54 941.08 930.58 939.46 924.39 909.21 1163.66 1191.49 1254.57 1281.85 1311.80 1301.38 1275.54 1273.36 1241.60 1219.30 1208.66 1181.92 1164.52 110.88 98.33 95.38 87.40 105.65 130.41 123.35 120.81 114.41 98.88 80.27 90.85 72.42 -134.03 -146.16 -154.87 -157.85 -165.95 -173.52 -165.55 -151.02 -141.53 -119.30 -117.44 -125.27 -132.57 -177.99 -177.21 -190.75 -183.93 -194.28 -191.16 -202.90 -201.83 -192.63 -189.26 -190.76 -182.88 -200.50 -238.06 -245.20 -247.75 -254.26 -245.00 -252.69 -238.90 -234.44 -233.42 -229.72 -238.69 -244.22 -248.02 -323.98 -330.16 -333.94 -330.67 -339.17 -333.14 -334.06 -331.75 -333.10 -332.10 -333.13 -332.13 -332.14 -558.87 -550.07 -554.45 -550.67 -553.28 -555.88 -547.94 -555.28 -559.84 -553.95 -598.85 -678.40 -694.51 -657.45 -868.06 -1007.30 -1109.98 -1294.46 -1334.80 -1362.37 -1454.97 -1696.41 -1809.38 -1861.46 -1937.25 -1983.51 -1899.44 -1944.26 -1959.08 -1962.83 -1984.66 -2005.37 -2017.76 -2020.85 -2031.77 -2039.85 -2061.89 -2073.04 -2083.15 -2089.59 -2101.85 -2114.44 -2123.66 -2142.73 -2143.89
1192.43 1190.86 1101.13 993.63 971.09 969.82 932.38 923.98 899.20 911.33 897.37 911.06 910.87 1170.39 1185.87 1215.20 1255.37 1260.29 1291.18 1274.32 1270.66 1268.15 1256.57 1227.81 1204.70 1173.64 114.39 114.19 111.28 109.24 110.98 121.75 118.22 121.09 112.07 89.13 82.26 79.22 58.18 -135.59 -155.04 -159.38 -166.07 -165.16 -167.51 -162.43 -163.20 -147.28 -130.49 -130.40 -127.93 -129.65 -162.06 -175.94 -172.84 -176.62 -183.67 -186.76 -199.95 -186.98 -180.81 -179.18 -181.22 -192.11 -192.63 -246.30 -252.18 -243.93 -245.53 -238.23 -234.23 -242.88 -235.46 -234.51 -232.23 -237.00 -249.23 -248.15 -331.51 -330.15 -333.39 -335.45 -334.16 -336.94 -335.82 -334.75 -331.14 -326.21 -336.12 -327.23 -328.77 -552.54 -553.82 -558.31 -555.91 -548.67 -550.90 -554.74 -548.90 -557.38 -558.15 -559.16 -625.02 -684.12 -546.75 -804.93 -864.44 -1009.00 -1067.33 -1194.64 -1338.53 -1444.81 -1600.25 -1741.79 -1832.11 -1893.82 -1935.47 -1851.20 -1900.69 -1907.74 -1950.07 -1932.80 -1957.63 -1963.50 -1995.28 -2000.01 -2013.25 -2048.46 -2064.09 -2069.84 -2092.30 -2095.03 -2105.75 -2126.95 -2134.40 -2127.78
1194.52 1191.20 1100.03 969.31 957.16 942.25 939.99 919.37 908.99 900.29 892.67 885.19 883.92 1145.38 1160.15 1170.96 1189.37 1247.16 1244.68 1259.28 1269.33 1270.83 1262.73 1244.73 1220.25 1182.63 113.91 114.87 116.96 128.59 130.15 124.71 112.84 110.24 93.37 73.68 56.94 58.94 58.38 -154.13 -168.56 -169.54 -169.75 -160.69 -148.57 -148.20 -156.10 -150.63 -131.99 -118.03 -125.28 -124.09 -158.59 -156.71 -165.78 -170.72 -170.93 -176.73 -190.39 -171.87 -170.72 -172.03 -177.07 -187.32 -192.98 -242.08 -241.37 -240.59 -234.40 -234.72 -230.34 -233.76 -234.79 -224.11 -228.00 -244.05 -242.94 -245.86 -329.57 -325.56 -327.44 -339.49 -329.53 -332.65 -328.48 -332.26 -339.41 -341.56 -337.20 -332.72 -333.31 -552.47 -550.68 -547.61 -558.89 -551.56 -558.32 -554.13 -551.17 -554.73 -555.29 -558.38 -557.96 -605.99 -428.52 -574.02 -711.98 -728.00 -945.49 -1104.87 -1242.60 -1328.33 -1515.38 -1659.30 -1792.51 -1834.35 -1913.37 -1777.31 -1824.21 -1853.43 -1852.47 -1843.60 -1856.20 -1883.79 -1890.23 -1943.79 -1988.74 -2009.17 -2044.79 -2048.01 -2064.46 -2080.82 -2085.83 -2105.86 -2114.27 -2117.48
1276.11 1271.84 1140.72 980.02 956.73 943.06 940.19 931.44 913.26 903.96 900.34 887.52 893.54 1162.45 1151.61 1162.70 1151.48 1185.10 1199.17 1244.55 1251.15 1258.12 1253.40 1242.99 1249.74 1212.00 151.08 138.99 138.01 140.75 134.61 121.25 102.72 100.56 78.59 60.53 44.39 51.13 40.66 -153.51 -164.48 -173.45 -166.02 -158.92 -146.32 -141.13 -139.04 -128.96 -126.61 -122.02 -116.88 -122.36 -153.70 -158.11 -152.48 -160.68 -164.46 -164.62 -169.05 -163.62 -157.48 -159.18 -173.34 -179.81 -182.63 -241.11 -241.80 -225.30 -220.18 -230.81 -233.54 -221.13 -227.60 -229.47 -237.69 -237.21 -242.08 -236.79 -320.98 -322.27 -326.33 -330.28 -332.97 -328.73 -331.49 -329.17 -328.26 -333.87 -333.70 -333.71 -336.10 -555.78 -551.65 -553.06 -547.10 -550.40 -551.58 -555.15 -552.59 -554.48 -552.48 -560.08 -551.58 -568.94 -386.58 -390.68 -578.23 -653.65 -764.43 -937.89 -1030.36 -1175.87 -1468.21 -1562.73 -1661.10 -1725.12 -1839.58 -1726.67 -1763.00 -1764.93 -1770.12 -1821.36 -1834.71 -1869.42 -1875.04 -1896.49 -1931.33 -1955.31 -2012.63 -2040.09 -2051.83 -2064.97 -2085.45 -2099.86 -2097.45 -2102.27
1226.27 1222.04 1147.14 987.34 972.62 964.62 980.80 940.73 949.80 921.79 922.79 907.41 897.84 1177.82 1168.76 1148.82 1138.81 1165.04 1192.71 1171.68 1219.43 1232.76 1259.36 1253.37 1258.85 1235.97 156.99 143.71 142.81 131.82 112.94 106.35 99.29 81.79 70.69 56.35 39.52 42.98 26.32 -162.34 -160.33 -157.88 -168.49 -165.78 -154.09 -136.77 -125.92 -113.89 -111.92 -112.39 -99.72 -116.26 -146.59 -148.50 -144.62 -144.90 -154.16 -153.61 -162.30 -160.29 -155.16 -155.99 -157.97 -173.22 -184.86 -231.18 -232.79 -229.18 -219.51 -217.13 -220.89 -219.64 -221.89 -220.18 -229.58 -236.55 -231.14 -239.72 -319.03 -321.60 -321.62 -325.14 -326.59 -333.53 -325.64 -329.86 -334.38 -334.37 -335.08 -332.73 -335.37 -551.40 -552.89 -557.52 -560.64 -554.20 -556.51 -553.39 -550.83 -555.58 -545.95 -553.32 -560.47 -571.59 -388.86 -390.20 -391.56 -501.07 -682.23 -743.91 -942.18 -1183.53 -1279.34 -1490.19 -1621.28 -1665.37 -1715.95 -1543.99 -1652.48 -1739.54 -1720.29 -1750.44 -1727.62 -1787.66 -1815.83 -1866.93 -1864.77 -1910.55 -1997.24 -2014.12 -2011.86 -2043.12 -2052.23 -2071.90 -2076.13 -2072.38
1313.89 1313.61 1272.83 993.49 996.38 1010.70 1022.37 1003.44 955.55 950.94 952.66 922.70 926.68 1210.38 1194.52 1150.54 1134.91 1163.23 1174.02 1166.41 1168.81 1197.16 1225.32 1243.64 1250.48 1246.82 189.31 159.01 144.95 130.67 106.59 80.52 73.51 75.24 48.54 43.60 23.44 21.83 28.87 -157.90 -138.86 -151.14 -161.11 -165.63 -157.38 -138.43 -105.61 -102.89 -100.01 -100.58 -99.19 -99.88 -133.30 -139.65 -133.22 -143.42 -137.49 -152.72 -149.51 -155.16 -149.75 -150.48 -158.84 -164.95 -168.98 -223.01 -219.61 -224.17 -213.81 -220.44 -215.14 -220.00 -209.27 -218.90 -221.39 -223.75 -227.26 -233.09 -312.30 -314.01 -321.19 -325.66 -326.39 -326.40 -325.10 -330.54 -330.24 -330.21 -328.57 -327.84 -334.78 -547.30 -555.92 -548.90 -554.09 -559.06 -549.13 -551.89 -559.03 -552.62 -550.15 -559.19 -559.47 -561.07 -386.33 -378.86 -393.10 -392.74 -497.90 -727.74 -882.90 -1191.41 -1329.28 -1385.58 -1553.16 -1613.90 -1633.42 -1505.75 -1535.06 -1605.96 -1627.03 -1636.75 -1659.76 -1708.67 -1715.32 -1773.51 -1820.99 -1824.81 -1925.67 -1976.07 -2004.81 -2023.32 -2015.70 -2037.83 -2044.34 -2044.00
1244.44 1246.71 1152.54 1032.37 1007.56 1041.54 1088.23 1078.36 1016.21 980.34 956.87 953.77 944.07 1206.44 1189.37 1153.46 1136.96 1141.57 1152.30 1146.38 1156.29 1197.24 1209.58 1223.98 1230.21 1250.44 202.34 175.87 148.85 133.81 113.44 87.33 69.23 59.67 49.93 32.66 21.59 33.34 37.61 -139.32 -139.35 -134.78 -150.80 -155.90 -150.18 -144.50 -102.05 -81.35 -91.54 -87.16 -93.89 -98.99 -137.40 -136.22 -133.81 -147.27 -146.55 -147.99 -152.70 -158.73 -152.03 -148.60 -155.65 -158.15 -159.11 -207.38 -215.17 -210.47 -221.52 -216.20 -220.20 -216.27 -223.65 -214.12 -227.63 -221.55 -231.02 -228.12 -299.29 -308.94 -325.70 -325.36 -321.84 -324.90 -317.79 -325.30 -324.33 -323.81 -333.82 -334.97 -335.15 -549.55 -555.23 -554.80 -553.71 -554.30 -555.84 -556.70 -553.53 -551.59 -555.24 -550.08 -555.84 -560.45 -376.44 -380.38 -377.92 -389.05 -483.98 -573.40 -974.09 -1172.17 -1326.15 -1341.31 -1442.39 -1557.24 -1564.77 -1392.58 -1394.38 -1392.10 -1471.02 -1505.92 -1542.42 -1601.74 -1645.68 -1712.79 -1740.52 -1799.25 -1844.82 -1900.08 -1926.89 -1937.17 -1974.74 -2008.72 -1999.53 -1994.42
1247.50 1251.78 1137.00 1010.23 1051.43 1104.53 1134.89 1139.86 1063.73 1035.21 983.86 974.56 968.60 1209.02 1209.43 1184.08 1147.78 1134.21 1128.77 1123.94 1134.50 1157.85 1181.83 1197.60 1227.16 1241.18 210.91 182.37 183.38 157.75 127.50 80.64 73.13 62.91 42.50 31.21 21.35 35.37 46.90 -123.44 -116.66 -127.98 -144.51 -153.72 -149.80 -127.01 -97.46 -80.17 -88.99 -88.08 -95.63 -96.93 -144.72 -150.59 -141.95 -154.08 -161.09 -164.16 -167.91 -156.36 -154.64 -157.89 -153.87 -159.02 -154.66 -210.33 -202.98 -213.69 -208.00 -217.73 -216.80 -217.11 -214.13 -220.57 -223.66 -236.31 -240.68 -232.78 -318.74 -312.12 -323.61 -319.95 -317.82 -318.98 -327.25 -323.39 -320.44 -326.33 -322.95 -329.34 -324.52 -546.29 -552.08 -555.75 -553.07 -552.16 -555.67 -552.70 -557.94 -555.44 -552.89 -552.18 -556.03 -558.03 -368.98 -377.30 -373.64 -373.10 -384.41 -525.62 -706.72 -1061.07 -1173.19 -1273.02 -1413.85 -1484.32 -1478.33 -1332.41 -1322.03 -1369.47 -1391.06 -1426.65 -1489.11 -1496.83 -1517.23 -1604.47 -1695.51 -1723.73 -1753.26 -1769.36 -1825.10 -1891.88 -1900.81 -1950.85 -1954.31 -1952.02
1372.86 1362.65 1218.94 1055.11 1126.68 1180.09 1164.89 1171.05 1123.28 1046.03 1013.06 1004.00 980.53 1224.84 1199.09 1196.37 1185.50 1169.93 1136.69 1136.33 1118.58 1136.36 1154.62 1188.70 1200.58 1231.80 188.51 190.48 163.96 149.29 146.05 110.24 79.68 66.59 49.22 34.63 23.41 27.14 42.95 -118.58 -107.84 -113.25 -129.65 -137.55 -137.65 -108.15 -93.71 -82.90 -88.33 -98.79 -102.56 -112.33 -142.78 -152.53 -161.48 -162.66 -170.76 -177.76 -170.49 -163.65 -161.48 -159.07 -164.54 -153.98 -161.51 -207.61 -210.12 -213.68 -206.23 -220.91 -228.09 -227.69 -234.23 -233.32 -233.33 -246.16 -251.22 -246.44 -317.18 -319.12 -324.47 -323.39 -322.21 -327.01 -317.63 -322.40 -327.25 -322.43 -322.84 -326.15 -333.63 -550.52 -555.39 -554.05 -548.34 -554.26 -552.72 -558.48 -550.99 -553.58 -554.99 -549.13 -552.16 -558.44 -375.12 -372.34 -372.33 -375.36 -380.75 -475.32 -628.07 -893.65 -1000.08 -1130.39 -1252.52 -1341.16 -1457.74 -1264.92 -1285.48 -1310.54 -1353.25 -1359.99 -1386.85 -1407.23 -1467.19 -1469.63 -1522.29 -1559.19 -1612.43 -1725.56 -1784.35 -1830.49 -1850.26 -1852.12 -1902.15 -1894.02
1342.17 1342.92 1217.35 1125.72 1116.37 1201.42 1203.43 1210.16 1149.44 1081.83 1028.87 1033.63 1004.17 1212.35 1192.29 1201.45 1192.11 1173.58 1162.68 1143.27 1117.47 1135.11 1126.61 1167.28 1180.09 1199.97 162.08 164.83 165.48 143.93 137.02 114.37 67.29 63.83 48.14 30.09 18.35 26.31 41.34 -123.37 -100.06 -107.21 -119.08 -122.10 -110.27 -101.18 -91.01 -79.76 -84.95 -96.27 -103.52 -122.02 -156.73 -172.63 -174.03 -172.10 -176.84 -189.43 -181.48 -170.99 -172.92 -168.87 -175.08 -183.07 -187.07 -230.75 -224.19 -217.24 -223.88 -235.85 -244.84 -247.70 -239.78 -233.62 -252.37 -249.32 -249.52 -249.21 -324.94 -329.47 -325.58 -327.00 -320.52 -323.53 -318.03 -320.14 -318.52 -327.10 -327.81 -330.40 -330.12 -553.63 -551.65 -555.47 -551.04 -555.69 -552.95 -552.43 -548.91 -558.64 -555.57 -549.19 -557.43 -555.56 -368.35 -370.38 -373.06 -376.58 -387.53 -393.52 -543.78 -726.79 -795.42 -953.00 -1181.85 -1321.43 -1414.16 -1227.60 -1205.68 -1244.89 -1246.63 -1269.58 -1275.11 -1318.75 -1328.31 -1372.69 -1447.48 -1468.95 -1576.04 -1606.45 -1683.12 -1790.51 -1794.89 -1845.77 -1827.60 -1830.27
1381.02 1373.64 1435.44 1132.74 1183.08 1219.54 1271.25 1258.91 1211.26 1095.68 1032.04 1011.79 987.14 1208.63 1183.47 1174.54 1183.73 1190.90 1179.14 1158.73 1151.01 1125.59 1125.84 1135.03 1171.39 1177.76 140.71 162.29 134.02 128.20 110.21 111.95 58.82 29.48 32.58 17.73 29.44 27.49 51.77 -127.07 -105.62 -94.99 -102.43 -104.42 -99.34 -92.20 -79.30 -80.10 -83.13 -108.48 -121.50 -135.14 -163.93 -175.73 -167.30 -161.43 -164.68 -181.05 -192.40 -181.21 -174.36 -181.49 -189.68 -193.53 -199.72 -239.78 -238.52 -233.46 -236.35 -243.59 -243.49 -246.53 -253.49 -248.44 -245.76 -251.03 -251.92 -257.05 -326.95 -334.86 -328.58 -329.85 -325.02 -325.45 -327.04 -320.96 -333.85 -330.15 -329.32 -328.92 -334.87 -549.90 -555.61 -551.67 -547.31 -550.92 -546.87 -554.67 -552.88 -552.48 -549.43 -552.66 -550.36 -555.91 -372.07 -371.36 -364.75 -372.82 -380.54 -385.72 -420.32 -627.74 -743.34 -989.66 -1188.06 -1350.82 -1372.86 -1154.13 -1155.09 -1169.24 -1178.84 -1160.97 -1164.40 -1225.49 -1204.33 -1251.03 -1319.37 -1366.62 -1488.56 -1522.34 -1570.95 -1635.51 -1703.13 -1742.08 -1763.00 -1761.91
1629.54 1628.44 1423.03 1272.54 1228.03 1280.49 1312.89 1301.35 1246.61 1146.91 1050.89 1032.22 958.71 1192.36 1174.67 1162.85 1163.03 1170.71 1176.50 1169.80 1143.22 1120.96 1112.97 1121.87 1136.34 1164.07 132.18 135.47 102.62 102.37 85.83 51.10 41.08 20.94 27.77 24.83 36.08 43.35 59.31 -119.11 -106.69 -89.27 -93.85 -79.62 -74.06 -74.47 -78.41 -80.69 -93.77 -103.53 -118.24 -126.08 -165.79 -163.67 -152.02 -159.70 -172.94 -177.00 -187.80 -187.43 -188.14 -188.06 -187.42 -189.45 -208.15 -250.02 -242.55 -228.05 -236.90 -239.04 -249.82 -245.44 -250.25 -247.50 -253.53 -255.36 -250.20 -257.73 -329.86 -338.30 -339.29 -334.33 -333.26 -335.21 -336.61 -331.97 -328.76 -334.08 -335.23 -341.00 -334.93 -555.96 -551.53 -552.47 -546.24 -551.95 -549.53 -549.75 -556.15 -557.65 -553.78 -552.34 -549.71 -555.79 -370.95 -365.22 -370.70 -371.60 -375.19 -385.84 -498.65 -596.19 -829.33 -1029.89 -1220.10 -1335.50 -1328.50 -1141.29 -1110.12 -1085.80 -1086.31 -1116.98 -1073.50 -1104.88 -1168.43 -1169.23 -1181.31 -1289.42 -1341.35 -1401.40 -1493.01 -1521.85 -1604.68 -1692.21 -1682.47 -1675.96
1024.13 1023.38 923.16 691.71 647.58 677.76 701.01 688.62 622.89 502.33 432.98 354.96 285.92 -6.31 -27.01 -50.72 -47.16 -45.82 -51.15 -60.20 -59.30 -75.43 -86.02 -85.37 -67.75 -48.48 231.59 229.79 217.64 193.40 177.29 162.28 155.60 158.02 153.84 157.33 178.48 190.86 203.31 8.49 39.88 59.82 52.29 55.60 66.06 59.02 54.62 50.01 39.46 25.50 8.25 -1.59 -135.73 -126.97 -122.02 -136.07 -143.05 -159.87 -158.24 -154.84 -164.36 -161.05 -155.17 -165.42 -177.31 -194.21 -191.65 -193.40 -184.41 -188.33 -183.95 -196.10 -198.31 -192.14 -191.71 -185.44 -186.65 -195.49 -263.37 -256.18 -258.07 -262.35 -263.01 -255.22 -261.42 -261.83 -262.25 -258.95 -262.35 -262.36 -261.15 -306.13 -304.50 -305.03 -297.93 -294.50 -296.84 -297.80 -300.96 -300.95 -301.18 -296.10 -297.80 -297.38 -695.16 -697.92 -696.56 -698.83 -701.01 -716.84 -852.37 -995.74 -1232.86 -1378.59 -1540.66 -1616.13 -1627.73 -1099.31 -1056.35 -1049.39 -1034.33 -1025.25 -1039.50 -1044.99 -1040.28 -1027.50 -1028.01 -1114.37 -1199.45 -1248.39 -1341.99 -1463.04 -1466.46 -1599.49 -1598.46 -1597.79
1198.77 1196.38 996.80 733.07 731.31 767.97 734.78 672.94 576.52 539.03 420.65 342.95 283.38 -14.92 -23.30 -38.41 -52.22 -60.65 -70.59 -73.79 -76.87 -96.28 -102.77 -91.11 -73.78 -69.36 223.59 216.93 203.10 185.73 173.41 152.23 158.46 165.14 169.96 177.53 187.12 205.79 226.43 55.34 47.74 64.23 61.58 65.53 67.68 65.18 49.50 49.83 44.33 28.00 5.07 8.62 -132.31 -118.65 -116.71 -127.69 -140.18 -139.12 -151.45 -143.93 -161.65 -160.41 -148.32 -154.02 -169.57 -190.45 -193.33 -195.69 -199.21 -194.30 -188.72 -195.34 -191.69 -190.05 -184.75 -185.05 -182.17 -196.81 -248.83 -257.23 -255.44 -260.94 -261.16 -257.83 -253.83 -253.23 -259.52 -247.57 -260.53 -263.15 -263.05 -296.60 -301.09 -300.38 -297.58 -292.46 -298.87 -300.27 -298.55 -303.28 -301.34 -300.63 -299.88 -299.50 -696.09 -699.39 -695.99 -698.98 -707.99 -710.98 -833.45 -1073.72 -1304.71 -1343.01 -1494.07 -1532.37 -1595.13 -1055.65 -1040.97 -1029.10 -1035.11 -995.13 -974.89 -966.90 -970.86 -999.44 -1008.17 -1001.81 -1044.58 -1162.75 -1278.26 -1343.31 -1406.22 -1432.87 -1513.71 -1510.94
1183.21 1187.68 971.50 860.55 806.78 798.64 748.06 657.02 603.55 466.52 401.48 314.50 315.01 -2.08 -27.77 -29.44 -48.39 -52.07 -76.18 -83.11 -90.53 -86.82 -94.43 -103.98 -101.60 -92.23 202.91 195.11 191.90 169.55 165.85 163.26 171.72 179.37 172.13 214.25 212.38 238.47 253.10 71.04 70.83 80.55 66.79 65.05 67.69 63.16 47.79 38.40 31.94 27.13 18.36 1.74 -123.51 -123.59 -117.39 -127.13 -134.38 -130.17 -123.23 -137.40 -147.26 -151.63 -145.61 -147.95 -163.22 -186.81 -178.04 -184.85 -191.31 -193.56 -204.52 -195.71 -187.86 -182.75 -177.31 -181.69 -175.66 -174.60 -245.87 -246.23 -247.43 -256.88 -251.74 -252.65 -259.02 -259.57 -256.28 -256.42 -256.00 -257.51 -262.11 -298.09 -299.03 -296.65 -302.49 -288.66 -296.64 -292.21 -299.01 -302.43 -293.20 -307.82 -299.91 -305.25 -694.24 -702.94 -697.06 -701.16 -706.02 -720.78 -721.69 -1036.62 -1264.56 -1319.87 -1429.72 -1557.29 -1570.30 -1047.17 -1021.60 -994.44 -985.87 -980.17 -930.66 -937.01 -894.71 -912.61 -917.78 -940.86 -1006.42 -1032.99 -1124.99 -1326.56 -1327.59 -1425.80 -1435.25 -1433.08
1088.50 1088.01 1100.09 760.87 786.07 728.13 617.48 594.85 557.87 527.54 406.82 399.31 339.00 61.57 23.21 -4.24 -18.18 -45.97 -59.65 -73.25 -70.94 -89.16 -97.23 -97.69 -104.74 -97.16 182.95 179.98 174.21 165.39 159.14 161.85 185.45 207.46 222.94 242.64 225.86 254.12 279.03 104.21 86.77 68.76 67.37 61.38 56.82 48.74 25.95 26.03 26.30 27.87 22.99 13.69 -125.23 -110.09 -113.42 -111.40 -121.83 -126.64 -118.66 -127.94 -135.68 -144.88 -142.37 -137.98 -143.68 -162.04 -172.47 -179.62 -182.90 -193.88 -200.63 -193.60 -189.30 -177.74 -180.00 -173.28 -162.61 -170.83 -236.50 -239.37 -248.00 -247.35 -250.08 -256.77 -248.43 -257.49 -256.75 -257.65 -253.50 -259.29 -259.35 -300.46 -294.52 -301.42 -293.88 -296.88 -298.60 -297.95 -308.76 -297.12 -301.65 -298.83 -295.09 -302.27 -701.84 -697.65 -696.26 -704.20 -710.73 -718.41 -739.07 -1101.43 -1329.72 -1348.46 -1412.18 -1538.32 -1551.63 -1013.45 -999.58 -979.53 -935.19 -897.51 -871.94 -879.32 -853.73 -843.87 -850.05 -850.79 -923.81 -955.01 -1024.01 -1137.38 -1236.07 -1311.03 -1363.75 -1359.86
1030.46 1033.02 896.45 735.13 671.24 635.77 518.95 556.42 611.45 615.58 549.27 432.37 416.72 88.51 67.01 34.27 21.89 -19.12 -36.68 -51.89 -72.85 -70.62 -71.63 -101.52 -105.84 -106.00 165.69 171.21 160.82 162.68 164.67 175.25 191.90 220.12 224.30 262.20 259.73 272.99 284.21 101.37 77.01 66.17 60.30 59.59 49.82 31.46 27.15 26.65 22.75 29.30 30.38 27.31 -117.55 -109.83 -96.23 -105.65 -111.10 -115.02 -106.56 -118.08 -130.70 -135.45 -146.15 -140.09 -142.65 -160.84 -158.97 -169.56 -178.07 -190.65 -196.37 -193.79 -181.96 -184.26 -166.78 -168.69 -167.01 -172.44 -233.91 -235.11 -239.67 -245.53 -254.13 -251.43 -255.57 -265.22 -258.41 -262.16 -256.25 -255.84 -259.26 -298.27 -305.61 -296.61 -295.28 -302.31 -303.44 -301.18 -303.91 -301.09 -302.57 -301.02 -302.47 -299.84 -696.55 -706.58 -701.24 -708.02 -717.70 -726.13 -753.27 -988.53 -1237.19 -1347.66 -1461.02 -1515.85 -1526.00 -1001.91 -999.30 -934.70 -907.04 -887.18 -862.20 -815.85 -804.02 -808.09 -809.85 -834.83 -871.45 -886.10 -917.50 -1031.32 -1150.82 -1267.13 -1296.26 -1301.11
1019.10 1025.77 843.98 673.70 552.60 490.34 512.74 532.78 613.95 614.07 550.19 475.12 437.00 101.40 61.19 40.41 42.58 25.21 7.59 -31.68 -46.14 -45.99 -54.11 -73.63 -96.14 -105.81 174.13 165.66 171.55 161.82 165.97 176.43 199.50 211.04 250.01 269.52 294.42 298.77 296.79 94.86 69.36 62.74 61.87 45.23 37.98 31.70 29.75 28.92 30.15 41.12 41.67 35.69 -122.85 -108.76 -101.09 -100.54 -104.91 -110.09 -116.64 -120.69 -124.69 -137.93 -143.27 -144.82 -149.16 -163.08 -162.03 -175.07 -186.93 -194.94 -198.14 -180.56 -165.50 -169.24 -162.75 -161.59 -164.37 -168.88 -230.72 -234.73 -231.89 -248.63 -250.94 -264.09 -260.26 -259.75 -261.49 -258.90 -261.25 -261.77 -256.68 -299.74 -303.93 -298.23 -296.41 -297.37 -303.38 -293.62 -302.25 -299.50 -300.13 -302.71 -299.23 -306.23 -697.30 -707.94 -709.41 -714.00 -712.86 -746.93 -776.25 -906.13 -1148.11 -1389.51 -1469.88 -1483.12 -1516.70 -975.12 -956.66 -910.44 -886.52 -868.25 -819.74 -779.11 -754.45 -747.60 -763.35 -767.84 -812.90 -835.94 -902.71 -989.08 -1053.06 -1253.54 -1249.60 -1248.12
835.96 840.53 878.95 557.42 539.64 480.17 446.25 497.49 578.63 582.70 526.58 514.50 494.94 152.10 122.83 73.13 86.19 68.07 29.98 5.57 -8.52 -11.05 -46.90 -70.65 -85.12 -78.62 182.22 171.99 177.71 178.63 180.58 190.20 214.35 216.33 249.84 284.45 306.09 298.40 294.35 89.43 67.59 54.95 52.34 45.56 36.77 34.20 42.21 42.98 54.26 53.77 46.15 39.29 -110.79 -109.59 -97.42 -94.92 -109.71 -114.55 -112.44 -127.74 -138.00 -140.27 -160.73 -162.57 -161.40 -177.07 -179.87 -176.48 -184.84 -183.35 -183.98 -181.32 -168.10 -162.80 -164.97 -156.52 -161.92 -166.29 -224.18 -239.86 -240.49 -249.55 -246.64 -255.39 -259.66 -263.03 -260.41 -261.76 -256.77 -263.46 -260.34 -294.05 -302.90 -302.61 -304.86 -299.30 -307.47 -302.37 -305.61 -301.89 -298.53 -293.52 -302.39 -307.38 -691.29 -698.53 -704.63 -717.51 -712.25 -746.51 -775.68 -942.70 -1054.09 -1278.59 -1424.83 -1454.40 -1477.76 -962.12 -941.12 -898.24 -863.04 -848.35 -814.51 -763.63 -740.95 -735.14 -731.00 -719.45 -751.66 -795.59 -866.76 -961.91 -1047.25 -1144.70 -1203.67 -1203.55
783.69 786.84 647.19 562.43 500.98 447.29 422.77 482.08 519.01 506.06 498.46 507.79 519.22 184.16 141.14 89.89 96.07 89.69 29.18 3.44 -8.09 -42.86 -55.28 -85.19 -72.14 -66.87 199.25 203.58 197.62 192.95 196.67 199.77 218.92 225.42 258.45 291.00 298.66 301.09 285.56 74.82 59.38 52.44 45.75 36.60 35.49 44.08 57.33 65.50 67.49 64.82 59.80 44.26 -106.79 -94.64 -98.54 -100.17 -112.36 -121.25 -128.54 -138.72 -142.49 -156.73 -157.28 -158.31 -163.01 -170.84 -178.30 -180.18 -171.05 -175.70 -175.94 -165.95 -172.28 -163.70 -155.46 -160.73 -170.05 -171.15 -238.75 -243.47 -248.69 -247.67 -258.81 -260.13 -258.54 -257.01 -258.40 -257.48 -255.47 -260.61 -260.20 -300.95 -299.92 -303.29 -299.01 -302.10 -296.02 -299.70 -298.39 -299.37 -300.72 -296.52 -308.52 -307.64 -701.53 -700.09 -692.68 -709.78 -710.64 -736.69 -833.05 -878.34 -1059.78 -1241.08 -1412.79 -1436.67 -1467.32 -955.48 -910.41 -875.68 -831.65 -814.19 -757.10 -710.35 -712.49 -688.20 -691.83 -716.71 -753.37 -788.57 -809.50 -933.92 -986.02 -1119.62 -1164.41 -1160.72
773.86 771.47 651.99 523.69 455.30 401.40 420.62 462.77 489.90 477.73 451.64 476.29 493.52 220.44 185.72 132.27 103.42 80.03 13.31 -36.31 -38.21 -60.12 -65.99 -70.17 -51.16 -35.55 216.75 203.69 209.94 218.24 211.02 212.65 225.49 240.95 259.16 284.68 301.95 294.78 274.70 67.52 58.28 54.81 45.34 39.05 46.12 54.38 63.24 73.90 90.87 74.45 68.22 56.01 -91.65 -92.47 -102.82 -106.99 -116.47 -120.70 -129.31 -145.91 -149.97 -147.66 -142.39 -145.66 -147.52 -169.45 -176.38 -177.49 -163.56 -171.25 -162.33 -172.57 -167.15 -165.01 -163.78 -166.66 -171.29 -177.16 -244.56 -246.79 -253.98 -250.11 -259.99 -263.91 -263.36 -253.96 -253.87 -252.43 -246.79 -249.43 -257.58 -300.49 -307.23 -295.77 -300.34 -301.61 -291.26 -296.62 -297.50 -296.87 -302.71 -304.56 -303.84 -302.08 -695.23 -697.23 -701.46 -709.37 -712.28 -722.09 -812.21 -962.73 -1083.48 -1169.95 -1370.98 -1399.76 -1435.74 -912.32 -875.35 -832.62 -804.32 -790.37 -721.70 -709.42 -672.43 -674.67 -673.91 -676.40 -721.25 -744.21 -786.89 -876.42 -909.30 -1122.00 -1118.32 -1121.09
826.04 830.85 700.33 539.56 465.71 396.37 389.16 404.57 431.12 424.34 424.88 437.74 482.36 206.66 180.04 122.39 116.12 86.09 17.50 -52.04 -48.11 -53.05 -47.03 -54.79 -42.97 -47.30 230.67 217.18 231.35 243.19 247.65 242.12 229.74 251.79 274.27 296.55 304.52 294.97 280.88 73.53 60.25 48.57 49.30 53.23 63.39 63.19 76.72 97.03 93.18 86.06 69.03 66.36 -83.02 -89.60 -97.65 -111.00 -116.56 -138.49 -139.60 -137.24 -143.34 -135.21 -135.87 -127.67 -142.58 -162.15 -160.35 -160.61 -149.81 -162.92 -167.04 -168.28 -171.92 -162.72 -170.34 -160.89 -173.89 -183.11 -251.65 -251.33 -249.36 -261.35 -262.55 -258.94 -260.24 -257.77 -247.92 -241.46 -238.41 -253.14 -258.82 -302.76 -301.59 -300.53 -291.69 -285.81 -288.13 -296.14 -297.42 -293.90 -301.30 -298.49 -302.78 -305.38 -694.31 -695.33 -701.60 -698.67 -713.73 -723.77 -786.23 -937.32 -1006.73 -1140.35 -1267.27 -1296.02 -1359.60 -882.60 -858.58 -795.26 -773.61 -727.10 -681.48 -628.25 -637.52 -644.01 -637.09 -641.16 -678.76 -699.20 -756.64 -796.69 -886.50 -972.35 -1065.86 -1067.29
787.95 790.92 674.56 541.17 506.18 414.94 359.22 361.67 342.34 365.79 405.47 444.85 484.28 210.99 177.69 120.85 86.71 31.57 -5.34 -29.47 -25.60 -38.89 -15.21 -25.57 -7.98 -32.42 239.22 223.65 237.50 260.36 274.41 273.19 258.70 269.96 294.49 313.44 304.33 287.92 283.45 64.99 65.01 61.19 63.05 63.40 69.24 81.34 88.36 110.91 110.37 104.41 90.52 73.63 -86.80 -90.38 -95.82 -108.97 -102.75 -112.58 -129.09 -136.29 -130.21 -134.15 -120.42 -130.55 -130.45 -148.23 -150.56 -154.53 -158.41 -158.42 -169.49 -182.28 -177.78 -185.62 -174.86 -175.28 -176.66 -178.98 -251.35 -257.57 -254.92 -254.29 -260.99 -259.72 -264.57 -257.31 -241.30 -232.28 -239.09 -246.83 -258.11 -291.58 -293.85 -289.64 -287.77 -288.29 -285.02 -293.34 -293.21 -300.22 -300.79 -301.11 -301.95 -297.76 -693.73 -698.39 -694.71 -698.22 -707.34 -722.56 -730.66 -815.89 -878.00 -1068.62 -1117.32 -1193.64 -1288.68 -773.83 -773.37 -780.69 -723.92 -697.73 -644.40 -625.88 -590.32 -607.69 -610.68 -631.29 -656.60 -698.73 -708.54 -744.45 -836.27 -966.67 -1000.64 -1003.83
746.52 746.20 659.88 537.31 514.61 434.21 365.92 349.70 338.28 364.85 400.30 465.49 482.44 215.62 208.33 141.85 78.81 25.63 30.24 0.19 0.50 -11.90 2.45 5.74 -0.77 -7.31 255.53 241.44 250.81 254.63 282.73 283.55 281.97 298.37 325.02 327.80 316.00 296.36 288.65 81.83 78.80 71.69 69.74 85.67 93.55 87.07 100.27 118.86 131.95 106.50 92.97 67.29 -83.30 -94.81 -90.78 -108.35 -100.39 -110.72 -126.61 -131.29 -129.28 -122.65 -122.36 -125.79 -126.07 -148.82 -147.38 -153.54 -162.64 -159.59 -177.60 -183.41 -188.02 -180.94 -181.51 -182.15 -178.58 -182.73 -245.60 -258.45 -256.53 -260.19 -249.62 -248.95 -254.79 -248.41 -244.09 -235.33 -237.95 -239.48 -248.17 -291.56 -287.30 -287.19 -289.03 -289.12 -289.11 -291.39 -296.42 -288.74 -304.26 -303.61 -295.49 -299.76 -693.34 -691.94 -696.49 -698.47 -707.05 -711.25 -720.31 -724.37 -732.70 -821.80 -878.99 -923.53 -1082.68 -706.06 -734.30 -718.94 -686.53 -630.45 -604.09 -585.36 -579.72 -557.51 -571.89 -589.66 -587.56 -626.82 -655.98 -711.74 -729.86 -933.78 -930.49 -926.28
799.25 794.79 704.85 569.33 515.03 502.92 454.20 410.48 392.22 428.28 451.79 522.86 576.66 1037.93 1024.04 987.09 917.22 866.46 837.88 824.03 812.09 813.10 817.53 844.67 837.03 819.40 280.18 252.89 253.35 272.53 289.92 308.58 309.52 336.32 347.66 343.90 322.44 316.08 294.68 156.08 143.80 130.06 129.44 149.23 166.60 168.27 175.91 183.36 186.19 167.87 126.42 108.38 -37.16 -46.80 -59.27 -50.60 -53.82 -59.45 -75.97 -90.74 -95.61 -79.26 -73.02 -74.27 -81.82 -95.07 -96.59 -101.46 -98.58 -111.57 -124.03 -129.63 -133.58 -134.42 -131.47 -129.18 -137.61 -142.00 -202.24 -207.41 -192.70 -193.33 -194.66 -193.60 -188.79 -189.20 -177.71 -180.04 -181.56 -179.54 -184.71 -185.47 -187.45 -191.79 -194.03 -191.09 -195.30 -197.85 -204.14 -208.62 -208.62 -204.15 -207.62 -210.33 -191.69 -193.33 -193.53 -197.39 -200.31 -191.24 -207.70 -206.88 -215.85 -223.81 -234.69 -330.73 -397.98 -578.85 -667.37 -673.72 -617.97 -589.27 -550.99 -519.03 -517.42 -512.22 -514.80 -539.48 -523.90 -563.59 -582.28 -648.35 -712.27 -792.45 -848.88 -850.91
718.28 719.19 716.81 558.76 486.56 466.37 426.66 408.42 389.69 419.17 464.56 523.26 539.68 1037.39 1014.60 992.63 958.49 917.62 903.77 861.45 850.28 853.28 846.63 860.73 874.77 855.81 300.68 264.99 262.32 278.34 303.77 340.03 347.81 359.88 371.47 348.37 324.12 308.65 314.16 165.84 156.53 141.52 146.89 171.87 182.19 175.76 186.22 186.24 179.14 138.18 107.70 98.72 -50.45 -58.98 -70.83 -69.10 -63.42 -66.36 -75.02 -97.46 -100.15 -100.60 -94.62 -83.49 -90.95 -110.12 -109.67 -102.11 -106.06 -107.95 -122.50 -132.88 -131.38 -135.23 -140.94 -135.56 -141.63 -141.13 -197.24 -192.51 -190.50 -185.78 -185.13 -185.59 -179.29 -179.54 -180.31 -178.51 -171.39 -183.72 -186.98 -190.59 -187.94 -193.66 -196.80 -194.39 -198.15 -207.20 -198.42 -200.32 -205.43 -198.67 -210.08 -204.02 -190.22 -188.50 -187.59 -188.20 -196.10 -200.15 -193.12 -196.93 -197.08 -206.10 -236.06 -252.65 -357.27 -377.71 -635.39 -597.06 -590.27 -519.27 -494.67 -484.46 -469.35 -461.52 -480.65 -478.75 -503.13 -500.29 -553.68 -610.41 -645.76 -757.25 -778.85 -772.38
625.59 622.37 641.07 481.42 451.83 447.34 416.90 376.22 383.47 411.80 457.30 497.59 535.58 989.23 999.36 993.20 979.35 959.57 931.00 901.85 913.71 926.19 905.67 901.42 873.56 867.85 321.30 299.84 274.07 292.62 343.93 381.14 387.81 382.90 361.77 325.55 308.69 301.57 322.22 187.17 169.27 171.53 170.07 173.73 173.90 165.35 170.30 163.17 153.75 129.63 98.49 96.14 -68.77 -69.05 -79.24 -72.67 -62.92 -63.64 -82.43 -97.91 -106.97 -104.63 -93.65 -96.93 -107.84 -128.01 -124.80 -121.18 -110.72 -115.98 -125.14 -133.05 -131.50 -126.55 -132.83 -133.81 -135.67 -131.87 -202.26 -196.84 -178.60 -180.70 -176.28 -174.80 -171.36 -174.39 -168.63 -174.23 -171.74 -177.70 -180.51 -185.81 -190.24 -189.76 -197.20 -196.88 -203.55 -203.13 -202.65 -202.09 -209.37 -203.72 -200.67 -210.59 -194.01 -192.38 -195.59 -192.29 -194.21 -197.47 -195.80 -192.98 -197.03 -196.28 -218.11 -235.16 -253.35 -316.18 -421.40 -508.64 -514.31 -500.27 -481.23 -445.67 -454.99 -441.64 -433.37 -438.75 -460.71 -473.29 -492.88 -521.73 -577.57 -630.04 -701.44 -703.47
590.81 596.17 526.46 443.31 429.86 427.63 401.97 383.36 377.78 393.73 445.29 478.15 501.36 975.29 989.59 1000.58 985.02 971.21 998.98 1002.41 1004.69 961.26 961.82 929.89 903.97 901.28 363.27 335.32 350.24 365.45 420.52 415.89 409.99 379.90 347.23 299.44 289.74 300.76 312.31 177.15 164.33 161.74 163.00 156.27 165.48 157.91 148.00 126.32 121.32 106.64 97.10 81.80 -64.59 -76.31 -85.26 -75.27 -84.61 -88.54 -90.24 -101.87 -105.03 -106.05 -111.42 -110.05 -119.88 -128.85 -133.42 -129.47 -127.15 -121.88 -127.39 -131.16 -127.83 -125.04 -124.95 -121.85 -129.26 -133.69 -196.92 -186.65 -178.73 -174.00 -166.52 -162.83 -171.08 -169.59 -171.86 -169.67 -171.79 -175.24 -180.27 -182.11 -194.44 -194.29 -198.82 -205.53 -199.21 -200.31 -203.47 -205.65 -210.42 -203.38 -202.75 -211.22 -188.72 -197.16 -196.61 -193.44 -198.41 -194.15 -196.53 -193.76 -193.74 -190.00 -190.82 -218.42 -248.72 -312.29 -371.21 -501.45 -480.78 -453.12 -432.22 -425.79 -420.15 -416.54 -423.47 -421.45 -445.65 -463.22 -468.37 -510.92 -556.51 -630.29 -636.52 -634.25
590.12 595.32 527.25 436.17 415.25 400.69 389.11 377.98 364.66 386.83 421.00 479.30 492.93 956.45 947.51 956.25 984.56 1010.72 1032.53 1051.58 1024.07 965.68 962.41 944.22 932.64 934.53 404.56 386.87 382.98 444.13 436.15 432.65 387.97 373.52 322.53 278.48 268.96 276.55 304.36 162.64 149.98 145.67 129.84 145.92 148.55 152.41 131.48 111.67 94.82 93.28 88.61 79.88 -71.27 -74.80 -82.47 -94.51 -102.49 -101.83 -109.65 -105.04 -108.53 -105.49 -104.42 -115.55 -122.33 -126.06 -139.03 -132.78 -129.37 -130.65 -132.15 -126.10 -125.78 -110.30 -109.01 -113.60 -120.81 -115.81 -184.36 -179.76 -174.01 -169.13 -170.62 -166.28 -163.11 -164.08 -168.60 -174.73 -181.18 -184.24 -183.13 -188.97 -189.97 -199.46 -198.67 -199.03 -199.20 -195.39 -199.74 -200.07 -208.34 -213.12 -208.91 -206.41 -189.10 -194.29 -189.66 -194.56 -195.25 -190.54 -196.15 -197.29 -196.59 -191.44 -193.93 -208.72 -235.36 -231.70 -362.24 -405.74 -453.32 -419.86 -409.05 -385.19 -393.05 -391.68 -404.77 -420.06 -424.21 -440.38 -456.01 -499.35 -524.03 -573.81 -592.77 -589.46
580.80 576.90 505.02 403.31 404.20 371.59 364.83 363.96 371.88 399.53 410.64 453.33 464.43 915.19 922.30 919.13 988.50 1027.69 1037.81 1049.41 1013.78 985.09 965.96 925.75 917.18 939.53 410.09 414.92 435.56 455.04 470.69 420.18 349.59 335.45 293.17 259.27 254.34 255.98 252.43 127.04 112.48 117.22 102.81 119.13 127.08 122.06 109.36 84.27 78.42 71.96 73.01 67.99 -68.42 -77.45 -84.59 -94.88 -94.72 -104.40 -112.36 -103.63 -96.06 -108.98 -112.15 -122.20 -111.26 -115.00 -120.04 -128.76 -120.44 -114.27 -115.53 -120.64 -112.14 -104.02 -104.97 -101.16 -113.67 -103.79 -169.29 -174.43 -170.76 -167.53 -169.83 -168.41 -169.12 -175.78 -175.95 -177.91 -181.74 -189.02 -188.27 -200.47 -197.08 -197.23 -197.90 -193.91 -198.46 -201.89 -196.39 -204.86 -204.94 -206.09 -209.03 -207.99 -192.18 -186.03 -190.42 -188.13 -195.89 -192.46 -193.93 -188.54 -192.17 -195.67 -189.95 -204.41 -217.67 -232.87 -278.66 -330.76 -417.97 -381.07 -376.51 -365.18 -362.23 -366.59 -373.66 -403.27 -411.21 -432.26 -453.75 -479.56 -498.10 -533.50 -557.26 -556.26
581.54 586.14 517.92 400.34 368.69 367.76 363.10 350.43 360.91 387.74 397.79 411.82 406.15 883.29 885.31 919.05 943.46 1010.04 1020.75 1003.52 981.90 961.58 926.41 908.15 889.37 904.95 405.48 409.55 427.35 459.77 472.87 455.10 403.57 317.06 293.87 258.38 248.91 238.98 251.48 114.51 112.99 101.73 103.47 102.09 114.23 96.75 86.07 83.95 69.91 63.38 62.06 65.09 -71.53 -83.86 -94.61 -86.72 -90.22 -93.84 -100.90 -92.73 -93.80 -100.17 -104.21 -109.26 -107.03 -102.58 -117.51 -121.39 -107.11 -102.23 -105.19 -99.57 -93.82 -96.28 -97.27 -96.26 -95.92 -103.78 -163.90 -165.77 -172.67 -166.79 -171.51 -167.31 -170.93 -175.80 -179.40 -179.87 -187.45 -191.45 -199.87 -197.12 -199.31 -201.62 -193.89 -194.95 -202.15 -195.91 -200.19 -205.72 -204.17 -205.89 -211.79 -204.42 -191.81 -185.78 -193.43 -193.93 -193.30 -196.59 -194.70 -195.56 -199.96 -186.91 -196.84 -198.01 -215.70 -221.07 -276.57 -319.75 -362.28 -353.38 -329.21 -331.70 -343.76 -352.47 -375.00 -384.01 -406.72 -426.58 -457.09 -480.37 -508.47 -564.75 -546.02 -545.82
641.66 637.49 524.52 400.87 390.74 377.38 379.98 379.02 366.75 348.77 361.47 372.20 381.18 839.06 868.88 895.99 929.80 946.14 932.00 919.35 908.06 906.98 879.40 863.83 852.44 887.56 376.88 397.79 416.20 436.74 476.71 445.73 377.18 320.20 297.18 262.51 252.31 241.56 240.31 99.32 90.80 80.84 84.02 89.96 91.51 87.59 74.10 63.89 69.15 60.79 62.14 64.42 -85.40 -91.02 -87.81 -75.99 -68.08 -71.71 -82.48 -93.54 -76.82 -88.84 -95.94 -85.03 -88.70 -108.69 -114.10 -112.19 -105.48 -100.87 -83.72 -94.84 -94.38 -99.36 -92.28 -96.58 -99.17 -102.87 -164.88 -170.14 -166.73 -170.38 -173.06 -177.35 -177.05 -182.43 -180.85 -183.01 -191.34 -196.74 -201.61 -203.99 -199.54 -197.80 -199.35 -198.19 -196.75 -198.52 -209.34 -209.00 -213.99 -206.55 -207.58 -208.61 -189.79 -194.29 -196.05 -192.44 -193.42 -197.10 -194.88 -196.33 -190.97 -199.24 -192.67 -193.38 -197.24 -215.09 -241.79 -270.97 -306.61 -301.14 -313.20 -293.63 -298.18 -306.34 -322.96 -370.03 -387.67 -434.62 -448.92 -487.58 -533.68 -583.55 -579.39 -582.45
602.34 591.99 523.15 406.87 401.12 412.23 427.61 401.45 375.30 363.09 348.56 356.64 354.75 825.13 856.59 872.90 885.31 881.19 884.32 888.17 888.89 877.26 839.78 832.50 835.56 858.33 368.36 382.34 370.38 406.55 443.12 426.54 382.52 321.35 295.64 272.92 277.18 241.13 241.84 105.75 100.71 88.07 84.84 85.13 75.09 72.61 69.73 63.64 62.31 62.18 59.59 69.08 -84.23 -86.09 -81.69 -77.34 -62.44 -68.58 -69.61 -76.25 -65.51 -71.05 -72.73 -74.66 -85.18 -97.08 -104.28 -101.68 -93.29 -84.92 -85.75 -78.24 -86.08 -97.51 -94.60 -93.23 -102.03 -107.28 -165.82 -167.42 -173.78 -169.11 -172.68 -185.70 -187.01 -181.73 -184.25 -181.87 -182.96 -198.24 -202.53 -205.30 -205.81 -198.63 -203.71 -206.67 -209.50 -208.89 -203.66 -210.00 -208.16 -202.54 -206.88 -207.82 -196.15 -192.92 -192.92 -187.25 -198.95 -194.85 -195.52 -193.81 -192.30 -201.57 -195.21 -195.42 -195.39 -193.79 -233.63 -269.33 -296.81 -290.31 -262.09 -280.70 -267.65 -285.26 -305.87 -321.11 -387.32 -410.75 -441.47 -539.67 -547.14 -587.77 -637.85 -634.83
631.43 626.59 649.22 466.28 444.64 458.69 444.76 434.41 383.58 359.80 357.73 347.01 352.66 816.26 852.00 857.07 867.84 867.52 859.98 871.41 902.39 888.69 850.17 831.12 815.16 834.37 335.67 334.65 332.75 377.03 426.48 397.17 397.35 349.01 308.33 315.57 342.05 302.77 280.75 138.33 135.52 119.42 99.47 98.80 87.54 84.36 83.48 77.89 73.92 71.12 89.98 81.25 -67.61 -80.96 -73.06 -67.29 -60.23 -52.45 -48.21 -57.46 -70.31 -60.97 -58.44 -62.53 -79.36 -90.05 -97.61 -93.82 -94.48 -78.92 -78.76 -74.26 -80.57 -93.51 -94.69 -98.33 -106.49 -107.94 -178.43 -173.71 -177.74 -179.66 -182.16 -189.25 -196.09 -193.77 -185.52 -177.71 -186.70 -190.26 -205.94 -206.70 -200.11 -202.04 -209.89 -205.26 -207.65 -210.55 -208.14 -203.27 -207.75 -207.73 -209.52 -206.04 -192.44 -189.30 -196.53 -192.96 -193.00 -193.65 -191.68 -194.01 -198.69 -193.45 -195.07 -192.70 -196.45 -188.52 -226.27 -255.03 -265.33 -235.22 -247.54 -231.90 -258.37 -248.95 -281.68 -312.81 -366.97 -403.42 -474.47 -541.62 -596.20 -621.61 -651.09 -648.11
699.31 699.07 690.79 509.07 463.34 479.82 472.04 425.64 380.97 368.75 344.08 332.50 337.87 807.34 825.36 821.39 837.07 841.48 856.03 885.86 909.40 914.15 864.29 825.58 814.15 805.67 306.96 312.47 315.91 362.06 399.09 415.35 391.09 366.18 343.64 343.61 350.50 342.11 326.71 170.82 167.15 139.78 117.10 103.48 94.29 89.83 94.51 89.92 85.90 83.65 94.43 108.99 -39.10 -43.31 -43.66 -49.16 -45.51 -34.03 -34.99 -49.84 -58.56 -59.61 -43.37 -47.21 -78.32 -81.65 -73.39 -70.47 -80.42 -70.96 -79.89 -75.84 -86.27 -90.04 -99.58 -109.62 -111.89 -113.73 -180.45 -184.34 -173.74 -185.02 -190.33 -199.07 -195.87 -189.91 -192.93 -188.58 -186.85 -195.01 -200.78 -207.69 -202.47 -203.49 -205.91 -203.79 -205.20 -203.05 -207.26 -201.40 -198.67 -200.68 -204.70 -206.49 -190.88 -190.60 -190.94 -186.29 -190.53 -191.71 -193.95 -199.74 -190.33 -192.71 -192.06 -194.82 -194.21 -183.13 -201.14 -213.17 -203.63 -205.71 -216.30 -225.86 -224.13 -226.84 -249.80 -278.54 -336.64 -386.12 -476.49 -523.86 -585.24 -625.07 -636.93 -629.05
733.55 735.77 637.64 523.13 535.20 477.64 464.57 413.21 382.11 355.05 331.85 328.91 328.27 798.33 811.28 809.29 801.40 832.20 849.30 876.98 903.59 904.56 893.09 854.58 822.94 800.89 293.06 299.26 312.64 355.28 387.28 410.20 405.49 394.21 394.95 392.74 397.38 373.35 348.53 190.92 183.80 151.33 111.21 102.90 106.51 113.16 101.57 100.66 95.73 93.99 105.51 116.35 -14.25 -17.88 -35.31 -41.43 -28.31 -31.77 -26.56 -36.34 -40.09 -36.51 -37.79 -47.36 -48.96 -67.92 -71.56 -76.56 -74.19 -80.87 -77.43 -78.73 -86.71 -96.03 -100.99 -110.42 -109.23 -105.60 -183.04 -187.37 -194.78 -190.27 -199.53 -201.55 -200.03 -207.48 -195.86 -198.22 -191.43 -203.19 -203.58 -206.84 -200.39 -200.21 -200.83 -197.02 -198.79 -201.96 -201.55 -205.06 -200.91 -203.61 -200.05 -203.20 -189.04 -187.68 -186.77 -200.43 -195.37 -194.38 -197.62 -192.63 -193.54 -191.52 -195.45 -196.67 -189.71 -170.84 -167.99 -193.41 -185.45 -180.26 -188.61 -189.51 -193.63 -197.05 -220.37 -257.23 -301.05 -334.95 -425.27 -513.79 -533.17 -593.22 -599.45 -598.76
714.67 712.28 608.96 575.00 566.64 504.19 443.90 403.00 363.32 356.89 333.15 318.61 304.29 62.20 53.03 53.59 61.00 82.54 108.51 141.35 144.24 163.89 131.98 116.27 84.88 75.50 60.42 73.62 112.10 140.63 150.75 157.58 148.85 144.71 157.19 176.21 173.08 161.46 152.71 303.40 268.32 234.48 213.88 201.60 201.03 210.62 200.36 190.25 174.34 173.10 181.97 192.69 20.80 22.70 16.36 20.11 14.30 16.23 21.39 16.75 18.02 11.31 11.31 -0.24 -0.48 -79.75 -77.47 -86.62 -90.15 -89.36 -100.25 -93.12 -106.54 -113.15 -116.42 -127.55 -125.46 -118.90 -162.52 -166.29 -163.67 -178.33 -179.96 -191.17 -188.14 -189.61 -180.32 -184.09 -182.40 -187.61 -186.10 -192.00 -187.97 -184.67 -193.78 -190.42 -194.33 -197.00 -199.69 -199.60 -196.47 -199.13 -197.82 -202.72 -232.59 -224.73 -234.26 -232.58 -235.21 -235.37 -235.44 -232.50 -237.44 -233.31 -230.49 -232.75 -232.53 -177.22 -176.21 -176.17 -173.17 -174.40 -173.27 -174.53 -174.89 -181.57 -201.57 -235.48 -248.01 -283.01 -384.38 -481.02 -512.91 -540.75 -546.31 -554.60
765.39 769.56 738.79 612.65 628.56 561.34 501.46 439.46 396.60 371.48 352.63 338.19 313.99 66.91 61.78 53.43 46.37 56.89 84.27 115.66 126.76 128.06 114.90 81.28 76.13 68.40 58.27 99.63 105.29 131.53 147.00 133.87 125.27 120.59 128.87 163.86 172.54 167.49 163.73 321.02 304.04 259.32 234.26 215.80 234.55 244.36 232.16 213.46 202.00 201.77 184.95 199.55 20.39 30.71 18.21 10.08 19.13 12.81 12.03 8.75 13.69 18.87 21.56 24.08 7.11 -62.06 -63.37 -81.99 -81.06 -95.02 -91.58 -94.73 -96.51 -103.42 -112.80 -121.34 -123.37 -121.40 -157.13 -158.78 -169.34 -162.57 -176.79 -179.07 -190.11 -191.20 -189.76 -190.62 -191.53 -179.24 -182.96 -184.09 -185.45 -194.45 -201.46 -197.76 -196.82 -199.71 -195.36 -207.23 -201.33 -200.88 -195.85 -199.71 -237.11 -237.58 -240.08 -232.43 -240.22 -235.57 -241.03 -241.12 -234.77 -229.14 -236.76 -240.92 -235.83 -171.73 -174.62 -177.80 -175.50 -174.58 -175.77 -178.77 -172.26 -178.99 -180.93 -207.39 -240.23 -272.00 -366.08 -434.28 -434.90 -486.89 -494.70 -494.15
877.68 867.35 766.67 664.37 645.86 574.79 515.04 462.20 410.66 390.08 387.17 362.87 346.81 78.98 59.04 44.22 49.07 58.50 85.76 90.82 94.25 85.24 96.66 75.01 67.89 55.32 64.89 88.57 103.55 107.24 106.99 109.83 102.83 107.36 122.67 137.09 140.43 149.74 158.68 328.27 318.35 279.97 241.47 240.00 238.35 252.58 248.18 233.73 217.64 223.15 200.10 206.82 31.18 25.72 19.29 10.02 20.56 7.85 9.71 4.57 0.55 17.42 21.58 30.79 18.25 -53.33 -62.11 -75.24 -78.96 -91.52 -93.20 -96.14 -108.04 -101.42 -121.75 -128.79 -128.38 -124.32 -155.70 -161.11 -169.09 -175.18 -173.53 -177.79 -186.01 -185.57 -184.79 -183.12 -179.78 -176.99 -175.07 -183.19 -188.98 -195.87 -198.41 -191.67 -193.18 -196.86 -201.30 -196.85 -200.14 -199.34 -198.22 -195.71 -236.11 -240.28 -231.28 -235.14 -232.28 -241.14 -234.67 -234.14 -238.17 -241.51 -233.09 -231.50 -241.43 -173.97 -169.02 -168.50 -171.54 -176.03 -170.25 -174.48 -175.01 -170.96 -174.90 -190.84 -201.70 -268.69 -299.57 -392.36 -391.32 -430.59 -445.28 -445.47
844.14 848.87 848.30 675.36 660.45 614.28 532.88 490.43 450.79 421.01 401.21 368.43 349.17 75.13 58.51 45.79 43.47 64.67 73.48 87.70 82.98 70.99 65.21 59.26 55.36 59.81 59.22 100.27 96.61 105.48 96.20 72.23 71.15 99.97 94.69 94.60 97.42 114.20 144.14 321.94 333.11 298.78 275.00 264.33 254.16 258.40 252.99 238.72 239.14 221.80 221.09 204.65 23.58 16.53 8.24 12.62 12.25 5.58 0.28 -9.67 -13.58 -8.30 5.14 15.44 14.52 -54.79 -64.20 -85.38 -85.12 -92.71 -98.44 -103.63 -104.92 -111.52 -121.94 -120.38 -129.41 -133.39 -171.27 -168.77 -164.29 -180.64 -175.55 -176.89 -172.97 -181.28 -186.30 -178.44 -174.24 -183.23 -179.65 -190.49 -196.02 -193.25 -192.51 -192.31 -186.60 -200.72 -198.19 -194.44 -200.46 -192.96 -201.51 -193.13 -231.91 -230.59 -236.13 -235.36 -236.99 -230.07 -236.24 -234.00 -234.69 -238.30 -237.41 -234.94 -237.85 -176.56 -175.76 -170.15 -168.68 -172.66 -173.00 -169.55 -171.63 -171.84 -170.65 -174.81 -189.70 -204.70 -231.30 -329.29 -341.21 -393.65 -383.50 -393.59
823.66 824.78 743.56 698.87 655.58 594.65 505.27 451.64 436.96 413.87 387.01 373.72 352.24 84.14 65.76 59.55 57.64 49.71 61.41 65.81 53.59 59.73 60.46 47.86 54.73 67.39 71.83 95.68 110.41 90.18 70.78 59.69 63.91 80.72 80.33 71.90 76.20 86.37 136.33 321.63 334.80 304.83 281.71 266.48 254.83 250.76 238.27 235.12 229.73 220.67 211.45 205.42 8.68 8.56 2.88 -4.12 -2.89 -8.31 -15.60 -13.81 -10.31 -15.56 5.35 5.66 4.96 -56.20 -79.03 -85.21 -100.22 -90.86 -102.38 -110.96 -108.93 -105.78 -108.50 -119.70 -126.52 -138.52 -171.07 -170.01 -183.07 -185.09 -180.98 -180.34 -175.54 -181.23 -178.11 -170.45 -177.76 -180.56 -183.79 -195.82 -193.74 -191.88 -190.07 -188.18 -188.33 -194.72 -200.35 -200.76 -194.43 -198.73 -189.91 -198.62 -232.17 -233.72 -234.08 -235.80 -236.38 -236.50 -237.88 -232.46 -242.43 -238.40 -237.58 -234.45 -237.91 -176.77 -171.88 -164.71 -168.06 -168.14 -166.22 -164.25 -167.37 -174.43 -175.84 -168.31 -179.57 -176.78 -179.49 -244.21 -274.10 -307.86 -340.52 -334.36
819.09 813.93 736.95 646.28 630.03 545.74 444.92 406.97 379.66 378.83 377.22 344.12 343.46 64.16 85.41 58.96 50.63 42.33 41.58 39.02 45.04 46.07 47.87 42.81 61.19 59.80 76.62 90.17 94.90 88.42 69.49 38.91 43.51 58.14 56.83 61.22 84.46 89.16 127.61 326.68 319.10 307.62 270.91 260.70 250.20 245.23 236.76 226.44 223.72 211.03 207.27 191.53 6.76 3.42 5.98 -3.47 3.24 -4.08 -4.55 -8.74 -16.74 -25.55 -10.33 6.70 5.62 -58.62 -69.32 -86.11 -88.02 -102.71 -100.65 -101.67 -101.90 -113.84 -103.79 -119.42 -127.49 -133.29 -179.20 -169.13 -176.89 -178.83 -183.86 -183.21 -182.93 -180.79 -173.46 -178.15 -171.68 -173.25 -186.18 -196.25 -194.55 -194.02 -190.63 -185.12 -197.41 -194.52 -196.73 -194.47 -196.68 -195.69 -188.79 -190.23 -223.95 -232.00 -235.67 -235.17 -233.71 -230.16 -235.44 -241.78 -238.27 -232.48 -229.53 -234.49 -236.32 -165.68 -169.01 -162.25 -157.18 -162.82 -165.72 -159.14 -161.57 -165.85 -169.30 -178.07 -172.78 -174.76 -177.70 -195.07 -205.46 -242.85 -271.21 -271.15
738.10 741.90 688.52 593.46 527.64 483.91 425.35 396.11 378.71 349.09 326.86 329.46 334.41 99.36 97.98 85.31 61.40 45.34 41.17 43.37 46.13 38.61 26.75 41.31 49.76 56.46 39.99 75.52 67.23 69.00 49.46 43.42 33.70 43.67 48.28 72.38 88.78 123.21 127.51 306.00 303.53 271.70 260.18 247.00 234.95 228.01 215.48 217.72 217.88 211.51 194.31 185.69 9.61 13.63 10.20 13.56 10.62 17.22 5.77 0.16 -18.21 -24.85 -20.93 -5.87 3.59 -60.99 -59.93 -72.62 -86.52 -88.26 -92.08 -90.53 -93.98 -91.57 -101.16 -116.56 -131.35 -132.07 -168.36 -178.40 -178.27 -174.00 -185.69 -184.07 -178.54 -177.28 -174.30 -176.58 -177.98 -184.97 -185.20 -186.15 -179.94 -188.28 -188.10 -196.22 -194.62 -189.85 -193.64 -193.43 -185.38 -188.98 -189.55 -195.92 -227.27 -229.50 -241.20 -229.49 -238.60 -241.22 -232.43 -233.98 -239.39 -238.17 -234.68 -235.68 -233.31 -172.95 -171.95 -161.48 -157.84 -149.95 -154.34 -155.34 -159.91 -164.01 -161.60 -170.56 -178.42 -169.48 -177.33 -190.59 -183.50 -216.69 -221.50 -221.06
659.01 659.04 649.23 589.37 535.21 486.49 428.78 435.01 401.73 363.69 319.47 320.38 340.67 114.39 130.19 89.94 76.86 63.68 68.84 64.57 58.04 49.19 41.90 35.82 42.72 53.23 29.98 24.00 51.66 42.74 41.89 31.26 29.95 31.03 32.03 53.81 96.19 103.21 111.32 291.49 281.07 258.20 242.47 239.93 218.37 227.97 212.26 212.15 206.69 199.79 202.65 199.00 27.82 32.37 28.42 29.03 17.72 12.82 14.71 4.69 -11.70 -22.45 -26.94 -19.79 1.62 -69.99 -65.23 -74.69 -73.10 -78.67 -82.83 -85.98 -95.43 -97.17 -103.02 -110.46 -126.33 -131.96 -162.68 -163.54 -168.11 -176.81 -178.34 -170.49 -168.39 -173.84 -163.44 -173.57 -182.13 -183.55 -179.95 -180.54 -180.89 -181.76 -188.96 -189.04 -182.50 -178.29 -186.36 -181.84 -184.23 -184.53 -187.04 -191.60 -226.36 -235.19 -234.51 -234.57 -238.80 -234.68 -241.35 -234.55 -235.32 -236.85 -237.76 -230.32 -235.16 -173.24 -168.09 -160.71 -167.15 -152.95 -152.33 -147.15 -147.81 -162.39 -168.77 -168.37 -166.00 -174.05 -174.42 -176.41 -177.61 -193.90 -223.35 -219.82
577.98 579.81 621.68 563.71 553.70 519.48 492.19 485.00 451.99 378.76 324.47 344.12 384.28 159.45 148.25 126.87 84.05 80.47 91.41 96.69 76.83 66.46 37.15 36.42 28.62 36.30 8.71 14.35 29.14 36.07 32.26 31.06 23.03 27.88 26.01 35.17 67.70 97.27 105.93 286.10 271.63 262.21 235.82 228.37 224.93 219.20 217.74 200.86 205.07 213.66 210.44 201.07 36.41 41.03 31.33 25.37 14.77 18.59 18.52 8.88 -0.97 -15.57 -27.06 -33.24 -16.18 -67.53 -61.80 -69.42 -77.32 -78.44 -85.93 -90.24 -93.02 -94.00 -102.23 -112.04 -120.58 -119.83 -152.69 -152.69 -166.22 -160.81 -167.93 -165.61 -162.18 -157.97 -157.64 -176.79 -180.02 -181.80 -171.69 -181.39 -180.01 -182.66 -181.37 -182.48 -172.28 -176.70 -177.76 -179.34 -179.51 -180.15 -184.03 -189.84 -227.36 -232.81 -233.76 -229.22 -234.61 -237.54 -237.26 -232.52 -230.90 -240.47 -233.93 -228.54 -228.70 -171.19 -174.03 -172.86 -158.05 -147.95 -140.63 -139.49 -146.30 -151.43 -159.62 -170.83 -166.03 -172.57 -179.25 -176.40 -174.75 -189.41 -170.64 -173.03
648.29 647.19 590.84 558.99 554.78 557.24 540.33 511.41 502.76 438.35 388.76 376.66 402.74 166.87 157.40 134.80 104.53 83.39 104.60 119.33 94.59 74.41 51.20 38.05 30.12 31.64 8.58 4.32 9.52 23.30 30.31 33.36 19.11 22.12 24.18 29.11 64.18 84.95 97.35 280.06 271.85 247.36 241.93 230.13 226.73 218.48 219.09 222.91 226.60 218.83 227.16 222.87 45.61 37.59 41.80 28.73 17.62 14.53 3.28 8.30 -0.36 2.26 -16.47 -25.81 -35.63 -77.67 -70.16 -66.50 -70.15 -80.72 -87.15 -95.95 -97.02 -99.77 -109.53 -120.75 -117.02 -113.03 -140.25 -139.67 -146.10 -150.98 -149.61 -158.44 -156.61 -160.14 -165.85 -174.42 -179.31 -170.36 -168.35 -173.66 -171.87 -170.27 -179.98 -176.44 -180.39 -172.58 -182.03 -174.36 -180.64 -188.40 -190.02 -189.67 -231.14 -233.47 -229.75 -232.04 -230.24 -224.52 -231.85 -232.71 -234.01 -232.32 -234.09 -227.96 -230.83 -175.71 -170.65 -165.78 -157.05 -152.30 -152.76 -143.92 -143.43 -158.43 -164.38 -165.27 -170.24 -171.07 -175.66 -175.05 -178.57 -166.82 -168.21 -172.79
641.58 643.22 605.48 548.83 542.02 562.02 550.64 533.06 489.33 493.96 411.90 403.50 413.87 165.47 147.66 114.63 93.90 89.42 113.41 137.41 109.18 90.75 69.19 52.54 43.86 31.55 10.79 2.97 3.75 5.51 13.53 9.37 5.51 12.58 26.34 25.67 61.13 75.98 104.36 291.36 283.11 268.85 256.10 256.37 235.40 248.30 244.28 244.92 229.73 236.97 227.62 223.59 45.32 34.43 34.81 22.03 7.47 1.36 -4.74 -8.48 -0.91 4.36 -10.46 -30.68 -45.61 -85.90 -78.00 -69.61 -68.81 -74.71 -78.39 -91.11 -104.17 -102.70 -108.54 -113.98 -109.03 -108.90 -138.42 -147.42 -147.00 -152.62 -153.12 -145.10 -156.74 -163.65 -170.17 -167.74 -176.91 -177.19 -166.39 -169.86 -164.91 -166.91 -174.97 -176.12 -175.63 -172.81 -169.99 -177.89 -183.05 -179.01 -189.20 -189.38 -228.67 -234.92 -231.63 -228.04 -232.50 -222.79 -223.86 -227.78 -234.10 -235.40 -239.55 -233.19 -233.10 -166.99 -165.74 -164.34 -151.87 -147.23 -150.35 -136.13 -141.71 -149.14 -156.57 -163.56 -174.69 -175.65 -172.26 -175.06 -176.54 -170.16 -171.77 -173.99
620.87 621.77 587.26 523.42 522.14 550.14 567.99 552.98 552.35 503.06 460.29 430.63 459.62 181.03 153.07 116.93 108.75 106.72 153.43 161.02 131.56 113.66 75.08 52.59 52.04 50.64 20.04 24.48 7.00 -4.54 7.63 0.57 2.70 16.90 22.28 43.89 82.92 93.48 94.00 292.70 296.96 281.53 275.41 258.12 266.81 270.71 278.24 255.21 240.77 233.96 235.97 227.60 36.68 28.35 14.63 7.79 11.33 -3.60 -19.42 -21.47 -18.50 -9.37 -19.44 -35.69 -46.17 -98.03 -81.94 -65.56 -70.61 -66.93 -77.84 -82.29 -96.32 -97.08 -94.21 -99.44 -95.55 -94.77 -133.10 -141.72 -144.82 -145.04 -150.91 -156.54 -165.03 -161.72 -169.56 -174.02 -168.63 -163.47 -163.07 -164.57 -170.27 -163.89 -169.04 -168.00 -166.02 -165.31 -169.67 -170.71 -176.14 -181.06 -186.10 -191.41 -228.05 -231.40 -230.78 -236.57 -224.43 -239.46 -226.48 -226.36 -228.45 -227.49 -234.62 -230.42 -226.71 -164.29 -164.98 -149.32 -150.10 -144.60 -141.54 -140.33 -149.51 -152.36 -158.37 -167.61 -167.56 -172.42 -173.28 -178.01 -173.18 -169.17 -164.82 -165.91
532.55 532.89 485.51 449.86 440.02 450.77 482.54 478.48 499.69 450.33 408.15 415.99 400.14 562.54 518.63 487.91 449.99 486.15 528.28 520.45 501.97 458.80 438.59 420.46 397.89 386.19 116.06 113.20 88.57 78.66 65.99 71.08 76.34 101.57 107.12 136.07 164.05 158.55 174.77 377.70 391.35 387.10 385.99 367.28 370.95 383.76 378.43 373.31 347.00 333.21 336.83 336.23 41.88 20.86 8.42 8.52 -2.35 -7.36 -26.80 -23.77 -26.26 -17.07 -23.30 -42.54 -40.39 -101.69 -81.78 -77.48 -73.72 -71.67 -77.39 -72.83 -92.33 -93.82 -90.93 -95.42 -99.07 -100.91 -126.32 -132.60 -139.57 -141.52 -142.14 -151.62 -161.12 -156.84 -163.25 -161.97 -160.49 -159.95 -157.47 -152.34 -147.73 -144.65 -146.93 -147.25 -150.26 -147.10 -150.71 -154.74 -164.02 -168.38 -175.24 -172.10 -174.09 -186.82 -183.75 -188.07 -189.67 -179.57 -178.97 -175.18 -180.74 -181.29 -182.20 -179.29 -180.94 -168.27 -151.72 -153.98 -147.54 -146.06 -134.80 -137.15 -140.14 -145.22 -156.92 -161.95 -166.84 -175.26 -173.31 -166.18 -166.18 -168.16 -164.69 -169.36
515.81 510.53 509.82 426.00 431.89 447.45 468.14 478.66 493.07 468.69 438.81 444.44 425.10 562.62 523.00 497.64 485.49 537.78 575.39 575.79 545.11 502.03 441.64 444.66 422.15 411.05 116.49 111.18 90.78 64.30 66.76 58.09 70.61 83.71 110.60 130.41 155.99 164.32 173.37 365.43 370.80 378.76 359.29 372.09 363.66 375.35 385.24 365.37 339.98 337.13 342.18 339.85 52.27 27.72 21.58 2.89 -9.30 -18.40 -27.07 -32.18 -42.42 -30.66 -34.36 -52.68 -52.66 -104.55 -97.31 -86.43 -82.83 -73.71 -77.14 -78.18 -82.77 -84.83 -89.60 -84.39 -101.97 -102.03 -128.99 -133.99 -139.21 -147.53 -147.62 -150.39 -154.80 -164.30 -156.18 -148.69 -156.30 -159.58 -155.10 -151.40 -145.63 -140.36 -134.01 -139.15 -144.84 -141.16 -145.11 -158.09 -163.12 -161.93 -169.93 -170.08 -172.34 -177.49 -187.38 -185.78 -185.22 -173.68 -178.06 -174.22 -175.94 -177.28 -181.68 -178.21 -175.02 -156.23 -156.00 -148.63 -140.95 -141.20 -132.64 -138.94 -137.34 -143.42 -149.48 -152.00 -158.30 -164.59 -168.89 -169.96 -170.10 -167.10 -178.06 -177.46
492.83 493.06 469.70 439.56 429.68 438.91 450.35 462.67 475.60 477.20 456.22 449.68 435.97 606.36 609.06 555.62 557.61 550.61 618.07 625.88 580.92 570.69 503.61 480.81 438.02 420.46 128.22 117.90 88.76 72.61 67.97 61.88 58.37 81.25 100.77 121.81 147.15 159.97 169.13 351.44 330.85 353.52 343.53 353.92 368.16 367.65 358.07 353.71 332.23 337.63 333.92 340.40 50.30 45.04 29.60 16.42 6.55 -3.64 -11.92 -29.86 -40.99 -41.57 -48.91 -54.17 -46.20 -107.22 -111.00 -98.48 -82.63 -76.48 -64.67 -70.74 -76.90 -77.87 -83.48 -94.27 -96.45 -101.10 -122.71 -134.27 -142.54 -142.89 -148.09 -149.50 -145.70 -147.72 -145.51 -147.62 -150.96 -156.42 -144.47 -143.97 -143.70 -142.55 -142.26 -147.90 -141.12 -146.60 -148.12 -152.85 -157.25 -161.26 -156.78 -163.63 -170.01 -177.75 -173.97 -179.14 -178.20 -182.66 -175.52 -174.09 -168.62 -173.37 -171.17 -173.33 -171.93 -154.26 -156.26 -155.26 -145.13 -144.64 -137.30 -137.05 -141.69 -137.89 -148.36 -152.54 -152.93 -154.83 -156.96 -166.91 -166.36 -168.15 -156.74 -159.04
486.33 484.83 460.14 434.66 432.12 442.10 448.00 449.12 447.82 450.45 442.92 438.96 449.95 625.15 616.35 604.88 597.75 623.43 639.08 639.91 636.49 588.41 538.79 484.40 425.81 423.44 126.09 103.41 90.28 79.78 73.83 68.06 55.16 71.14 78.55 114.14 129.79 149.63 135.32 322.69 319.28 328.07 324.14 344.31 337.06 338.77 347.37 341.63 319.88 327.75 327.88 331.64 53.37 44.53 34.11 27.56 11.15 1.37 0.74 -8.37 -20.14 -50.71 -50.32 -43.79 -51.07 -120.98 -119.28 -115.35 -93.97 -85.80 -68.76 -74.73 -69.54 -76.20 -85.98 -92.35 -101.26 -105.07 -129.93 -135.74 -139.69 -139.38 -142.23 -144.54 -145.24 -142.71 -148.78 -144.33 -140.80 -142.28 -141.24 -151.13 -137.93 -129.30 -139.76 -138.08 -144.50 -140.08 -151.87 -142.60 -148.52 -155.49 -155.31 -163.23 -169.84 -171.49 -169.32 -172.03 -177.33 -167.01 -176.64 -167.72 -169.15 -167.40 -166.43 -171.98 -173.99 -153.34 -158.19 -156.87 -140.39 -144.99 -146.47 -142.27 -149.33 -138.60 -145.03 -145.75 -154.58 -154.67 -160.77 -160.10 -166.93 -166.65 -153.85 -156.57
465.71 463.75 465.31 427.07 426.60 440.33 450.15 445.76 441.51 439.79 433.53 438.53 439.90 629.91 637.54 630.38 629.08 642.50 649.41 631.78 626.86 584.17 518.29 487.89 432.93 409.10 121.20 105.36 100.41 105.69 100.77 81.28 56.19 61.61 77.16 105.36 115.61 113.79 112.27 303.41 298.80 304.71 301.27 302.27 315.10 314.91 330.57 325.37 322.01 308.90 312.72 312.51 40.34 43.22 36.22 28.83 12.12 15.94 8.26 -6.57 -17.19 -22.63 -29.45 -40.38 -47.25 -141.07 -119.53 -114.16 -103.74 -83.72 -72.30 -71.47 -71.54 -80.74 -90.24 -89.57 -106.68 -115.81 -128.79 -134.09 -140.13 -142.15 -145.06 -139.74 -138.00 -138.58 -139.16 -139.81 -139.15 -137.03 -132.65 -140.81 -133.87 -141.31 -139.26 -133.72 -135.77 -141.92 -147.17 -141.76 -154.71 -154.70 -150.94 -159.85 -168.93 -176.89 -169.96 -168.15 -169.69 -167.63 -172.38 -172.19 -170.52 -166.05 -169.84 -170.57 -165.40 -159.81 -158.06 -164.69 -160.12 -150.73 -150.64 -155.35 -148.91 -144.70 -142.67 -147.97 -144.51 -147.26 -147.26 -153.59 -158.33 -148.37 -143.03 -153.16
