2381.27 2386.65 2346.04 1885.64 1848.96 1747.21 1755.33 1810.83 1763.15 1770.10 1741.28 1740.30 1692.12 940.42 920.85 905.12 889.19 883.28 866.63 873.82 909.70 935.68 929.08 923.49 925.18 924.69 -62.05 -92.41 -91.58 -102.55 -96.54 -93.18 -111.81 -117.70 -124.50 -123.62 -111.71 -125.18 -148.46 -318.26 -335.37 -340.87 -339.60 -343.16 -335.96 -328.63 -328.88 -331.23 -322.03 -318.96 -319.34 -325.57 -443.65 -450.67 -452.06 -452.24 -446.91 -448.73 -447.87 -451.05 -453.00 -452.74 -465.69 -461.67 -465.68 -678.85 -678.60 -681.42 -683.19 -675.63 -680.72 -680.85 -685.14 -687.25 -686.05 -691.19 -686.25 -687.55 -637.82 -650.35 -659.60 -664.38 -666.67 -656.43 -657.18 -656.21 -656.58 -649.23 -661.45 -660.50 -667.19 -807.72 -810.89 -819.98 -852.75 -888.13 -920.65 -1021.06 -1238.67 -1489.26 -1713.00 -2118.19 -2199.56 -2303.44 -2294.31 -2354.55 -2410.44 -2427.59 -2458.72 -2472.08 -2486.24 -2483.08 -2482.33 -2485.79 -2479.45 -2486.64 -2493.95 -1974.30 -1983.09 -1989.34 -2011.18 -2008.11 -2027.20 -2024.20 -2014.36 -2008.76 -2010.58 -2023.45 -2021.88 -2028.65 -2044.99 -2062.64 -2077.38 -2094.66 -2104.95 -2108.82
2337.46 2336.14 2231.55 2010.72 1875.34 1813.42 1836.87 1882.48 1874.65 1801.56 1767.15 1755.81 1709.15 950.01 938.55 936.78 914.42 906.10 886.26 883.21 918.30 943.49 947.49 939.09 936.33 941.37 -64.25 -76.80 -93.58 -94.27 -92.65 -99.26 -110.24 -131.75 -129.46 -130.80 -124.97 -144.27 -155.40 -331.30 -338.73 -341.32 -341.02 -342.53 -329.80 -322.91 -317.70 -319.12 -320.49 -313.13 -315.63 -319.13 -444.81 -446.91 -454.04 -453.50 -439.56 -442.96 -450.20 -443.56 -455.80 -456.92 -460.53 -454.20 -464.14 -677.36 -674.17 -680.44 -672.88 -683.90 -678.31 -683.06 -683.94 -692.31 -686.93 -685.65 -695.57 -688.39 -640.14 -654.90 -655.14 -660.33 -647.03 -645.54 -644.38 -649.29 -646.79 -641.62 -646.46 -652.35 -664.32 -799.73 -800.48 -807.64 -819.72 -847.13 -913.15 -973.84 -1152.37 -1385.52 -1512.01 -1909.83 -2197.80 -2295.62 -2310.32 -2373.34 -2425.07 -2422.99 -2459.54 -2481.67 -2493.23 -2485.94 -2490.21 -2493.45 -2484.90 -2497.88 -2503.96 -1994.31 -2001.88 -2011.36 -2018.28 -2031.85 -2031.57 -2027.65 -2025.49 -2023.33 -2017.64 -2024.92 -2026.67 -2033.43 -2048.71 -2057.03 -2062.60 -2087.70 -2090.51 -2093.80
2259.04 2260.58 2145.19 2024.90 1978.76 1899.61 1891.43 1944.91 1911.74 1903.80 1862.21 1768.70 1690.30 969.12 977.00 955.43 930.39 897.73 883.47 894.15 938.35 944.86 958.01 957.96 958.73 948.07 -52.21 -57.10 -74.73 -88.56 -97.72 -96.74 -121.15 -131.05 -154.08 -131.78 -148.51 -159.64 -159.88 -333.42 -344.98 -347.34 -339.56 -336.26 -331.84 -323.43 -306.51 -310.39 -317.35 -317.72 -316.50 -326.40 -438.78 -449.63 -454.71 -449.11 -444.89 -437.43 -439.39 -444.97 -453.33 -450.05 -461.02 -454.40 -462.37 -681.43 -678.64 -677.31 -678.21 -686.97 -682.58 -679.22 -683.11 -681.67 -688.98 -686.08 -685.71 -684.61 -635.66 -651.30 -660.04 -651.20 -644.15 -644.39 -646.66 -642.73 -642.63 -646.28 -638.66 -648.96 -648.53 -790.35 -782.78 -796.44 -808.30 -851.09 -865.94 -967.94 -1134.90 -1223.29 -1323.16 -1846.88 -2203.97 -2278.63 -2308.50 -2364.21 -2394.05 -2439.45 -2466.58 -2491.03 -2503.20 -2502.45 -2500.90 -2500.80 -2510.29 -2516.71 -2519.42 -2002.73 -2017.39 -2029.77 -2034.70 -2036.49 -2042.74 -2039.24 -2039.29 -2030.00 -2020.33 -2032.45 -2030.98 -2040.05 -2042.05 -2051.49 -2059.34 -2087.68 -2084.40 -2093.26
2199.27 2195.76 2124.81 2027.53 1984.05 1981.80 1978.34 1953.90 1971.50 1944.34 1911.75 1784.94 1729.55 1010.02 1009.90 980.35 955.46 896.37 886.38 927.61 945.43 975.90 981.67 979.49 966.62 948.75 -43.35 -52.20 -66.84 -85.67 -90.95 -111.47 -132.60 -155.15 -154.87 -161.52 -165.37 -167.88 -164.15 -336.82 -352.06 -345.35 -346.68 -337.69 -329.86 -313.51 -299.22 -301.67 -300.04 -304.46 -324.72 -321.90 -441.16 -445.95 -449.01 -433.39 -430.78 -435.03 -436.30 -435.41 -441.69 -446.39 -449.21 -447.44 -459.62 -674.98 -673.42 -677.30 -676.54 -682.22 -682.73 -680.63 -688.77 -685.62 -685.33 -688.50 -680.64 -685.77 -642.41 -646.02 -647.53 -643.54 -635.25 -639.04 -646.41 -637.38 -639.27 -634.83 -634.78 -639.22 -639.66 -775.43 -780.74 -792.02 -800.14 -807.62 -826.73 -855.90 -945.09 -1126.05 -1393.70 -1543.95 -2238.33 -2262.24 -2263.48 -2345.91 -2386.92 -2438.31 -2468.56 -2497.40 -2498.66 -2509.31 -2515.46 -2515.72 -2520.63 -2521.43 -2528.93 -2009.47 -2035.16 -2041.93 -2043.65 -2042.04 -2045.15 -2038.23 -2033.18 -2031.03 -2024.67 -2031.22 -2031.30 -2036.37 -2049.57 -2051.62 -2063.74 -2073.54 -2085.59 -2077.74
2181.02 2184.12 2126.60 2021.67 1988.64 1988.75 1993.75 1988.72 1985.61 1952.57 1895.25 1850.68 1752.05 1035.11 1008.88 960.95 937.86 902.23 910.13 953.26 978.09 983.46 991.53 975.45 963.00 940.72 -40.93 -50.21 -68.96 -78.59 -94.61 -93.03 -132.36 -157.44 -158.68 -173.49 -172.57 -176.19 -181.12 -347.10 -345.40 -354.44 -342.88 -335.37 -330.29 -314.65 -298.44 -294.14 -292.20 -305.76 -315.77 -316.70 -433.16 -433.29 -432.55 -430.74 -426.89 -428.50 -427.91 -432.52 -429.11 -441.66 -442.10 -451.77 -446.81 -672.39 -672.13 -675.75 -675.05 -682.98 -682.29 -676.32 -681.22 -683.27 -681.78 -683.86 -685.48 -682.97 -638.72 -643.87 -643.56 -635.83 -637.24 -637.72 -638.81 -640.03 -640.85 -634.45 -636.51 -632.16 -639.97 -770.67 -773.87 -780.70 -789.72 -802.75 -815.08 -828.91 -933.07 -1085.07 -1178.38 -1529.29 -1866.95 -2267.61 -2251.12 -2329.55 -2377.02 -2404.39 -2462.12 -2489.55 -2500.78 -2511.37 -2513.51 -2514.97 -2517.95 -2534.64 -2534.58 -2034.73 -2042.41 -2042.02 -2043.72 -2048.16 -2042.89 -2037.93 -2032.35 -2035.24 -2035.74 -2028.96 -2031.76 -2036.48 -2041.73 -2049.21 -2063.93 -2075.75 -2080.58 -2084.67
2156.45 2157.14 2157.99 1963.23 1963.57 1986.77 1985.45 1992.71 1995.79 1971.76 1949.78 1886.43 1817.03 1048.55 995.65 946.00 925.46 914.39 936.05 969.31 987.28 972.02 980.06 964.25 945.08 934.32 -43.68 -48.33 -56.79 -68.46 -90.96 -101.89 -133.29 -134.62 -147.79 -162.14 -176.18 -168.92 -163.47 -337.26 -338.83 -343.95 -339.47 -341.91 -321.16 -309.85 -295.56 -290.20 -288.34 -297.76 -309.20 -316.78 -429.68 -438.58 -431.58 -435.31 -426.15 -430.99 -424.07 -432.53 -437.47 -439.07 -441.43 -444.63 -444.35 -663.01 -671.94 -669.46 -678.28 -678.08 -679.78 -682.61 -677.85 -690.02 -682.51 -682.95 -682.68 -688.88 -638.39 -639.30 -638.06 -639.53 -636.10 -636.42 -635.06 -634.93 -634.94 -633.28 -634.03 -639.53 -640.05 -772.05 -774.98 -779.54 -779.10 -781.26 -806.48 -829.15 -863.09 -969.01 -1161.21 -1475.96 -1615.87 -2019.03 -2257.52 -2313.66 -2350.68 -2414.16 -2433.26 -2470.39 -2498.02 -2505.28 -2515.36 -2518.80 -2516.36 -2533.78 -2540.64 -2027.52 -2044.60 -2040.03 -2049.36 -2050.33 -2049.71 -2042.29 -2040.77 -2039.47 -2040.57 -2033.90 -2030.68 -2040.47 -2044.67 -2050.93 -2063.50 -2081.49 -2085.84 -2082.14
2135.64 2133.90 2060.43 1978.79 1953.62 1972.31 1982.83 1986.69 1986.86 1999.54 1996.45 1947.19 1822.84 1046.98 1006.86 953.34 926.00 938.54 984.03 994.57 990.25 978.98 960.48 935.43 925.24 911.86 -55.32 -57.33 -53.61 -69.58 -103.34 -100.92 -115.58 -123.60 -137.04 -159.67 -172.32 -161.19 -162.52 -328.60 -323.76 -324.39 -337.22 -330.59 -331.84 -310.35 -291.70 -303.81 -298.54 -308.64 -306.77 -312.92 -433.02 -436.21 -444.81 -443.35 -446.27 -428.99 -429.12 -433.37 -434.76 -439.92 -445.13 -436.99 -446.40 -658.65 -666.44 -666.93 -670.42 -676.04 -674.88 -676.71 -682.84 -685.07 -685.23 -678.77 -685.64 -688.89 -628.57 -633.56 -631.10 -634.89 -634.90 -636.56 -631.22 -640.85 -636.83 -640.43 -634.11 -636.64 -637.75 -770.80 -770.71 -770.72 -777.26 -777.19 -789.75 -799.84 -823.57 -934.99 -1111.82 -1233.93 -1566.72 -1787.36 -2086.26 -2300.82 -2321.21 -2376.40 -2427.36 -2462.13 -2481.88 -2499.45 -2502.92 -2515.91 -2516.34 -2527.20 -2540.18 -2024.88 -2029.85 -2039.98 -2050.37 -2051.46 -2047.56 -2047.12 -2043.43 -2042.46 -2036.31 -2034.83 -2033.13 -2037.97 -2038.32 -2056.64 -2063.36 -2072.75 -2082.79 -2081.64
2132.38 2137.32 2044.24 1993.54 1900.24 1875.84 1923.88 1940.85 1978.19 1985.52 2002.88 1932.62 1858.67 1056.39 1026.85 979.26 980.95 990.37 1010.93 985.28 982.24 967.89 952.51 922.38 900.49 900.88 -76.10 -72.55 -73.20 -86.83 -109.40 -104.29 -109.27 -125.27 -135.49 -144.91 -171.42 -169.59 -144.42 -316.60 -302.38 -312.76 -326.75 -327.75 -316.38 -317.92 -317.41 -316.82 -314.44 -319.39 -310.47 -316.97 -433.77 -439.60 -446.70 -454.97 -446.32 -436.15 -431.18 -431.28 -441.12 -441.75 -444.20 -444.09 -437.82 -663.07 -668.30 -671.08 -669.36 -676.42 -673.35 -676.88 -680.67 -682.43 -677.38 -679.96 -681.15 -686.43 -638.75 -636.77 -635.58 -637.06 -631.52 -632.25 -638.83 -639.58 -639.94 -632.28 -640.18 -636.12 -632.73 -771.22 -768.67 -771.75 -771.63 -770.55 -778.24 -789.64 -817.70 -842.77 -984.99 -1078.73 -1388.73 -1695.59 -1960.78 -2163.82 -2295.70 -2321.68 -2397.38 -2426.03 -2476.34 -2502.65 -2506.97 -2513.91 -2523.64 -2527.56 -2531.10 -2026.67 -2027.26 -2037.87 -2042.78 -2047.53 -2041.21 -2046.67 -2041.57 -2037.39 -2041.53 -2039.16 -2033.83 -2041.71 -2048.44 -2061.43 -2062.70 -2072.83 -2088.14 -2083.00
963.22 965.52 983.25 780.56 761.17 750.73 807.99 853.69 878.41 893.46 910.17 851.65 784.42 1343.47 1249.33 1286.87 1244.44 1226.50 1211.65 1172.45 1162.77 1144.22 1136.54 1091.12 1094.69 1088.97 -91.59 -71.54 -72.35 -101.96 -112.72 -112.41 -119.58 -123.84 -146.12 -151.51 -167.59 -160.60 -145.41 -301.93 -301.02 -299.86 -301.14 -310.53 -313.38 -315.07 -322.57 -316.51 -327.65 -325.84 -324.87 -320.87 -444.02 -454.18 -472.01 -463.92 -456.67 -456.05 -449.76 -450.71 -446.10 -450.35 -456.11 -456.63 -452.37 -585.77 -588.23 -587.16 -586.55 -596.32 -598.58 -597.39 -597.31 -596.03 -599.01 -601.75 -603.48 -601.49 -712.51 -707.66 -713.66 -711.42 -707.31 -711.45 -716.51 -711.05 -709.77 -713.71 -716.99 -708.15 -711.49 -578.02 -574.79 -575.15 -578.47 -581.89 -581.88 -594.51 -611.64 -624.46 -681.36 -818.70 -1078.59 -1297.04 -2136.52 -2315.82 -2355.19 -2463.04 -2495.55 -2550.59 -2567.18 -2613.92 -2640.85 -2645.40 -2647.90 -2651.45 -2660.20 -2012.36 -2016.53 -2022.10 -2028.21 -2028.83 -2031.82 -2038.93 -2038.31 -2039.79 -2032.56 -2034.90 -2037.30 -2042.08 -2041.84 -2048.77 -2063.87 -2084.64 -2087.85 -2082.90
932.17 930.75 844.91 758.59 704.44 744.46 798.87 843.27 868.18 876.23 884.08 895.58 858.07 1430.53 1361.47 1316.21 1300.88 1274.00 1196.24 1151.42 1157.93 1133.23 1103.74 1093.93 1087.72 1082.01 -103.97 -90.78 -95.77 -100.37 -132.02 -128.15 -139.42 -164.05 -155.82 -157.79 -156.24 -148.43 -142.92 -305.32 -291.31 -294.39 -310.30 -304.23 -301.39 -313.04 -327.66 -333.78 -337.59 -334.70 -327.52 -330.15 -449.31 -457.11 -469.64 -467.83 -466.47 -459.53 -450.29 -455.87 -454.20 -461.10 -465.94 -461.53 -456.82 -592.79 -597.08 -593.63 -596.54 -597.24 -604.17 -594.85 -590.84 -602.78 -600.57 -594.66 -599.61 -602.24 -706.01 -709.70 -710.80 -711.16 -717.42 -715.76 -710.55 -715.16 -714.66 -709.13 -712.04 -714.37 -716.06 -574.08 -573.52 -576.95 -577.12 -576.94 -576.90 -587.16 -589.94 -648.93 -702.94 -746.66 -962.36 -1339.29 -1986.48 -2199.97 -2265.90 -2373.08 -2490.91 -2509.61 -2553.77 -2574.43 -2614.38 -2624.95 -2648.61 -2642.31 -2650.81 -2002.88 -2004.81 -2012.13 -2024.15 -2020.33 -2031.12 -2031.92 -2033.22 -2034.73 -2036.23 -2038.57 -2040.35 -2034.21 -2047.65 -2055.72 -2068.64 -2094.41 -2088.16 -2087.60
920.23 916.96 828.32 737.62 703.40 753.14 793.26 841.61 842.86 859.02 872.28 862.80 887.03 1509.68 1408.91 1386.55 1317.74 1260.08 1181.50 1176.68 1176.12 1144.46 1139.23 1116.52 1103.59 1075.40 -111.18 -116.61 -119.76 -132.20 -142.92 -148.64 -159.63 -159.81 -170.68 -156.99 -154.51 -142.58 -133.33 -294.46 -282.85 -283.82 -293.09 -296.67 -307.48 -326.34 -326.45 -342.83 -340.30 -343.11 -333.13 -341.27 -458.69 -460.24 -465.99 -472.49 -469.13 -467.50 -463.45 -458.27 -461.72 -459.66 -471.62 -475.62 -472.81 -594.43 -598.83 -598.63 -597.71 -591.40 -603.11 -602.09 -601.10 -598.84 -602.35 -600.32 -600.68 -602.44 -703.31 -714.50 -710.13 -710.32 -711.92 -714.04 -715.31 -713.68 -714.03 -710.81 -711.19 -711.43 -713.39 -575.99 -568.41 -573.21 -571.18 -577.47 -578.95 -581.71 -588.01 -623.92 -696.09 -765.82 -985.03 -1306.11 -1910.55 -1990.53 -2156.52 -2242.01 -2418.66 -2477.51 -2521.79 -2571.90 -2591.49 -2603.68 -2612.81 -2631.95 -2629.80 -1994.20 -2005.81 -2009.81 -2014.77 -2016.91 -2029.43 -2027.79 -2032.54 -2035.37 -2035.31 -2038.40 -2039.79 -2041.25 -2052.39 -2066.08 -2069.24 -2082.63 -2095.35 -2092.02
846.04 847.87 856.64 661.63 638.33 694.91 753.66 775.46 801.10 805.63 831.87 858.59 867.48 1485.24 1440.99 1411.90 1339.02 1278.77 1214.18 1214.61 1181.68 1154.77 1138.75 1122.01 1105.65 1079.59 -136.06 -131.19 -125.13 -131.95 -151.98 -154.15 -166.09 -166.98 -157.56 -145.76 -134.29 -126.02 -127.30 -273.81 -277.58 -276.78 -287.73 -294.50 -308.40 -310.25 -344.36 -347.79 -350.16 -342.31 -345.11 -346.82 -472.52 -465.45 -464.98 -468.91 -466.22 -468.54 -471.58 -465.52 -465.47 -471.36 -467.06 -476.66 -475.18 -601.83 -598.85 -593.68 -597.04 -595.88 -605.91 -602.61 -603.37 -604.40 -602.87 -596.22 -596.43 -606.49 -710.42 -711.20 -717.30 -708.55 -707.25 -710.67 -716.06 -709.54 -712.35 -711.98 -712.73 -708.39 -715.75 -575.54 -574.00 -580.39 -574.69 -571.32 -582.40 -569.65 -580.88 -635.63 -669.16 -746.91 -901.15 -925.34 -1588.12 -2000.45 -2067.74 -2142.71 -2306.61 -2433.70 -2449.64 -2518.73 -2563.93 -2575.07 -2606.79 -2609.68 -2624.30 -1990.59 -1990.81 -2001.70 -2016.89 -2016.78 -2028.04 -2031.92 -2038.43 -2045.70 -2036.02 -2039.32 -2046.13 -2057.86 -2057.60 -2078.81 -2076.95 -2095.66 -2097.73 -2099.44
815.03 820.38 754.33 649.44 630.56 634.20 676.57 708.60 759.32 785.78 804.78 808.26 829.95 1430.53 1363.17 1352.49 1371.40 1306.26 1289.60 1235.80 1186.88 1129.81 1118.78 1107.14 1104.28 1076.33 -134.83 -137.96 -140.04 -141.52 -133.91 -144.43 -163.35 -168.40 -149.08 -130.37 -125.57 -114.10 -111.91 -275.16 -273.22 -268.44 -284.25 -297.72 -319.18 -325.92 -346.25 -344.84 -346.53 -336.57 -344.67 -344.07 -470.91 -467.37 -467.74 -461.36 -467.96 -466.34 -472.95 -470.76 -470.09 -463.76 -469.70 -468.14 -472.06 -600.20 -599.71 -597.13 -605.97 -601.98 -601.48 -604.18 -604.42 -606.41 -608.64 -606.59 -605.11 -600.47 -715.58 -712.80 -712.06 -711.53 -707.51 -710.04 -710.71 -709.41 -711.74 -707.70 -716.23 -712.21 -713.92 -578.21 -575.19 -573.68 -579.50 -575.80 -577.59 -577.71 -572.37 -587.02 -638.76 -704.66 -742.43 -1009.46 -1625.57 -1918.24 -1975.25 -2152.31 -2265.17 -2307.47 -2401.66 -2481.86 -2506.69 -2555.61 -2570.34 -2578.42 -2608.15 -1984.68 -1987.13 -2001.26 -2004.05 -2016.69 -2027.89 -2030.42 -2040.04 -2048.08 -2047.26 -2052.85 -2055.27 -2062.59 -2073.47 -2072.18 -2081.98 -2104.19 -2109.35 -2119.24
818.95 824.72 768.22 664.85 639.24 606.55 623.88 646.97 687.38 709.95 714.23 709.85 697.45 1309.69 1266.51 1326.64 1355.19 1345.74 1300.05 1246.82 1175.47 1155.38 1118.17 1094.30 1084.81 1077.15 -134.63 -126.48 -125.12 -116.57 -120.03 -142.06 -165.80 -150.27 -130.73 -113.52 -113.91 -103.40 -102.06 -280.59 -279.45 -278.23 -283.74 -319.28 -322.83 -336.22 -349.78 -350.54 -344.84 -332.90 -333.41 -347.98 -474.26 -466.06 -463.27 -451.52 -455.16 -460.86 -474.64 -468.12 -471.34 -467.62 -466.05 -464.29 -467.75 -597.38 -597.22 -602.45 -601.54 -607.83 -605.47 -597.41 -603.48 -605.67 -601.98 -605.12 -604.09 -603.05 -707.59 -710.79 -710.49 -711.79 -709.97 -713.53 -709.49 -715.50 -709.30 -711.47 -704.38 -708.90 -710.27 -579.86 -576.95 -582.06 -577.83 -573.54 -580.92 -576.91 -581.12 -590.60 -611.90 -658.37 -738.29 -1077.86 -1588.79 -1861.52 -2008.16 -2160.14 -2208.19 -2278.76 -2341.32 -2404.03 -2437.05 -2521.85 -2555.29 -2563.08 -2608.20 -1965.69 -1982.33 -1998.91 -2015.50 -2023.02 -2024.65 -2035.54 -2040.51 -2049.00 -2046.82 -2051.92 -2057.12 -2070.76 -2077.54 -2090.04 -2088.44 -2110.08 -2122.35 -2124.98
891.01 891.37 804.13 696.59 686.60 620.28 595.31 627.13 640.98 649.38 632.59 628.71 627.41 1229.53 1213.67 1266.37 1343.70 1331.09 1290.32 1246.60 1185.59 1145.72 1118.61 1103.40 1085.08 1076.45 -109.19 -113.03 -102.03 -114.53 -121.83 -143.22 -146.32 -139.45 -131.75 -110.65 -112.69 -99.28 -113.03 -290.34 -299.31 -298.47 -319.09 -314.92 -325.18 -339.74 -346.14 -343.74 -339.75 -327.00 -329.77 -322.12 -453.04 -450.07 -450.90 -446.68 -454.28 -463.64 -465.32 -468.07 -468.39 -466.43 -464.76 -465.78 -467.92 -601.49 -604.75 -598.85 -608.05 -601.85 -604.34 -598.06 -592.44 -604.66 -605.01 -600.45 -604.89 -605.58 -712.50 -712.01 -711.30 -713.63 -712.07 -714.17 -715.31 -714.65 -705.58 -715.86 -708.52 -715.36 -709.34 -573.40 -569.69 -577.02 -578.35 -575.13 -583.18 -582.43 -587.78 -599.85 -642.46 -702.92 -732.72 -907.64 -1494.98 -1846.83 -1953.25 -2084.64 -2123.98 -2202.69 -2264.68 -2314.80 -2427.17 -2479.91 -2514.21 -2573.60 -2608.62 -1966.38 -1985.22 -1996.91 -2022.97 -2033.41 -2037.30 -2042.89 -2043.48 -2048.70 -2060.55 -2065.61 -2073.92 -2075.81 -2091.11 -2100.06 -2106.57 -2119.59 -2134.27 -2127.14
896.02 894.24 823.86 747.98 684.08 622.92 592.37 612.80 615.56 631.20 628.75 600.43 587.11 1187.97 1203.66 1254.97 1308.67 1322.19 1291.85 1240.83 1218.49 1159.40 1120.72 1117.69 1104.99 1094.76 -104.75 -97.17 -96.03 -107.05 -138.54 -138.02 -131.03 -125.59 -105.25 -110.65 -102.32 -118.95 -123.65 -321.12 -319.59 -311.32 -320.38 -324.13 -329.38 -342.91 -349.19 -341.14 -332.96 -326.00 -325.00 -323.37 -441.43 -448.30 -442.36 -439.28 -435.97 -451.76 -461.30 -460.89 -464.72 -463.15 -469.24 -470.91 -475.59 -600.61 -604.69 -604.69 -598.85 -605.12 -601.21 -594.11 -596.65 -601.07 -604.88 -600.05 -603.90 -600.30 -714.16 -715.82 -708.74 -706.64 -708.25 -708.76 -716.84 -709.82 -711.63 -717.67 -712.09 -710.57 -711.58 -575.02 -576.01 -573.64 -580.11 -571.14 -578.61 -577.27 -600.63 -628.10 -668.59 -722.71 -737.24 -873.18 -1420.39 -1619.79 -1825.84 -1929.39 -2077.70 -2121.75 -2204.23 -2288.83 -2370.56 -2445.41 -2497.87 -2578.64 -2613.02 -1970.17 -1991.07 -2004.67 -2030.99 -2026.02 -2035.90 -2045.71 -2055.04 -2056.87 -2071.26 -2068.89 -2080.44 -2095.28 -2089.69 -2102.94 -2104.94 -2126.37 -2144.69 -2141.73
888.15 887.95 890.55 704.89 690.29 637.52 593.59 591.89 589.46 625.39 625.52 604.13 589.91 1164.79 1172.63 1219.28 1289.60 1310.19 1279.49 1256.74 1232.57 1143.24 1128.00 1111.26 1115.42 1111.07 -85.18 -100.21 -109.08 -126.09 -134.72 -125.13 -118.38 -101.33 -103.38 -100.16 -111.49 -114.95 -132.77 -322.38 -325.98 -330.34 -335.15 -335.54 -345.80 -353.33 -338.10 -324.98 -327.62 -323.26 -319.41 -308.66 -434.83 -436.11 -439.85 -438.02 -432.45 -440.00 -450.70 -457.14 -462.26 -473.93 -469.17 -465.12 -464.72 -601.07 -603.18 -604.95 -603.42 -596.93 -600.75 -597.37 -596.64 -605.23 -607.27 -602.06 -601.49 -605.93 -712.43 -704.06 -708.25 -715.70 -709.75 -705.05 -713.37 -713.77 -713.56 -710.86 -718.05 -716.62 -710.97 -573.41 -576.83 -574.81 -578.39 -572.54 -577.13 -583.54 -596.22 -618.43 -651.29 -659.55 -698.54 -887.81 -1466.48 -1674.57 -1849.99 -1886.80 -1930.65 -2043.42 -2113.08 -2207.90 -2258.55 -2422.99 -2447.35 -2551.66 -2597.28 -1967.35 -2004.56 -2007.16 -2023.11 -2032.46 -2033.71 -2044.25 -2050.97 -2061.24 -2071.19 -2075.51 -2083.60 -2092.70 -2093.78 -2104.72 -2119.97 -2146.34 -2153.80 -2153.75
884.42 891.77 815.87 711.81 669.57 630.62 591.61 559.87 576.97 583.02 615.10 601.41 570.05 1151.17 1161.74 1220.63 1235.12 1270.47 1279.64 1225.77 1192.68 1137.63 1132.15 1105.27 1106.20 1100.78 -91.93 -113.18 -130.34 -127.15 -116.01 -105.38 -97.65 -104.65 -86.38 -94.31 -118.87 -122.11 -147.53 -331.33 -346.89 -341.01 -342.95 -346.32 -344.57 -343.37 -330.19 -320.61 -317.35 -319.96 -311.13 -301.05 -426.48 -426.21 -432.27 -434.74 -437.17 -446.80 -445.74 -453.53 -463.83 -469.34 -473.82 -469.38 -469.99 -599.93 -599.54 -595.31 -598.33 -600.16 -600.04 -600.21 -594.88 -599.83 -596.84 -605.37 -599.40 -601.76 -708.25 -704.26 -710.85 -713.55 -714.86 -713.20 -715.06 -706.56 -710.38 -709.79 -714.54 -714.77 -710.24 -577.04 -578.50 -574.18 -578.11 -570.56 -581.04 -590.89 -588.48 -603.78 -640.34 -653.25 -657.06 -881.02 -1462.77 -1612.99 -1749.03 -1872.18 -1892.73 -1965.50 -2063.38 -2092.94 -2257.32 -2351.95 -2455.56 -2500.82 -2557.59 -1969.92 -2006.43 -2014.20 -2029.52 -2032.84 -2033.18 -2043.61 -2050.33 -2057.01 -2055.28 -2072.45 -2082.36 -2096.07 -2100.49 -2115.06 -2124.77 -2146.74 -2156.54 -2152.57
897.82 895.21 818.14 703.36 638.73 596.40 562.88 554.41 554.75 573.79 591.50 572.64 556.50 1132.41 1158.00 1191.93 1232.63 1255.96 1257.27 1223.12 1166.89 1154.03 1124.57 1116.17 1100.30 1087.06 -99.57 -119.78 -118.41 -112.00 -106.73 -91.66 -87.92 -91.01 -89.92 -95.64 -116.10 -145.07 -149.47 -325.24 -334.36 -333.52 -337.99 -342.44 -341.11 -331.79 -322.62 -308.09 -302.12 -305.68 -300.88 -310.75 -429.66 -429.24 -434.59 -435.32 -447.38 -451.16 -456.85 -462.93 -473.09 -472.37 -468.88 -465.85 -462.46 -588.88 -589.76 -595.33 -599.88 -597.46 -598.42 -596.46 -599.49 -600.25 -601.79 -594.06 -601.29 -601.97 -704.89 -713.51 -715.49 -708.31 -709.47 -711.42 -714.26 -714.34 -715.47 -710.83 -710.56 -708.65 -709.64 -571.99 -575.22 -571.84 -581.26 -570.44 -575.14 -574.78 -576.68 -583.72 -588.75 -637.35 -662.01 -838.10 -1380.85 -1648.27 -1686.80 -1802.46 -1871.60 -1930.70 -1967.83 -2120.06 -2164.53 -2349.00 -2434.23 -2468.02 -2530.80 -1995.32 -2007.57 -2020.26 -2020.99 -2023.12 -2030.68 -2035.84 -2039.65 -2050.99 -2061.10 -2071.64 -2081.25 -2085.54 -2098.99 -2105.42 -2118.99 -2136.08 -2152.92 -2150.56
885.68 879.94 796.66 703.82 635.54 552.05 548.41 544.04 569.99 574.34 560.59 565.34 533.02 1132.14 1140.85 1213.32 1230.74 1257.10 1252.62 1229.11 1208.08 1162.77 1151.70 1130.33 1120.90 1096.60 -104.72 -102.10 -106.79 -100.95 -85.53 -77.39 -74.60 -70.98 -81.24 -92.75 -114.46 -116.42 -133.77 -313.66 -319.90 -322.26 -325.42 -334.46 -332.97 -329.84 -314.39 -303.68 -295.90 -290.72 -296.92 -303.27 -444.13 -442.45 -447.29 -435.77 -448.36 -454.93 -460.67 -466.78 -460.98 -468.65 -461.37 -463.73 -455.83 -585.94 -588.93 -596.91 -603.88 -610.56 -600.48 -597.21 -592.00 -593.63 -587.80 -593.53 -595.95 -603.97 -712.90 -708.80 -711.91 -713.57 -712.78 -710.31 -708.78 -711.20 -713.90 -707.36 -713.07 -715.41 -717.51 -577.79 -576.69 -571.29 -577.50 -577.36 -578.42 -575.76 -573.74 -579.24 -605.21 -627.48 -691.42 -726.47 -1184.33 -1444.08 -1724.36 -1746.65 -1837.73 -1853.26 -1911.80 -2079.03 -2151.93 -2341.94 -2413.61 -2455.29 -2486.84 -1948.02 -1981.79 -1993.10 -1995.59 -2016.25 -2014.93 -2032.28 -2029.96 -2036.78 -2054.17 -2071.43 -2083.65 -2082.57 -2098.21 -2112.85 -2119.72 -2138.11 -2148.81 -2149.09
2032.15 2030.70 1959.40 1841.40 1807.22 1761.13 1737.27 1712.40 1744.93 1734.44 1743.32 1728.24 1713.07 1693.35 1721.18 1784.26 1811.55 1841.50 1831.08 1805.23 1803.06 1771.29 1748.99 1738.36 1711.61 1694.21 370.94 358.39 355.44 347.46 365.71 390.47 383.41 380.87 374.46 358.94 340.33 350.91 332.48 -136.04 -148.18 -156.88 -159.86 -167.97 -175.54 -167.57 -153.03 -143.55 -121.31 -119.46 -127.29 -134.58 -237.99 -237.20 -250.75 -243.93 -254.27 -251.16 -262.90 -261.83 -252.63 -249.25 -250.76 -242.88 -260.50 -393.65 -400.79 -403.34 -409.85 -400.59 -408.28 -394.49 -390.03 -389.01 -385.31 -394.28 -399.81 -403.61 -455.01 -461.18 -464.96 -461.70 -470.19 -464.16 -465.09 -462.78 -464.13 -463.13 -464.16 -463.16 -463.17 -741.87 -733.07 -737.45 -733.67 -736.28 -738.89 -730.94 -738.28 -742.84 -736.95 -781.85 -861.41 -877.51 -929.23 -1139.84 -1279.08 -1381.75 -1566.24 -1606.57 -1634.15 -1726.75 -1968.19 -2081.15 -2133.23 -2209.02 -2255.28 -1899.44 -1944.26 -1959.08 -1962.83 -1984.66 -2005.37 -2017.76 -2020.85 -2031.77 -2039.85 -2061.89 -2073.04 -2083.15 -2089.59 -2101.85 -2114.44 -2123.66 -2142.73 -2143.89
1996.29 1994.72 1904.99 1797.49 1774.94 1773.68 1736.24 1727.84 1703.06 1715.19 1701.23 1714.92 1714.73 1700.08 1715.56 1744.89 1785.07 1789.98 1820.87 1804.01 1800.36 1797.84 1786.26 1757.50 1734.39 1703.33 374.44 374.25 371.33 369.30 371.04 381.80 378.28 381.15 372.13 349.19 342.32 339.28 318.24 -137.60 -157.05 -161.40 -168.09 -167.17 -169.53 -164.45 -165.21 -149.30 -132.50 -132.42 -129.94 -131.66 -222.06 -235.94 -232.84 -236.61 -243.67 -246.76 -259.95 -246.97 -240.81 -239.18 -241.22 -252.11 -252.63 -401.89 -407.77 -399.52 -401.13 -393.82 -389.82 -398.47 -391.06 -390.10 -387.82 -392.59 -404.82 -403.74 -462.54 -461.17 -464.41 -466.47 -465.19 -467.97 -466.85 -465.78 -462.17 -457.24 -467.15 -458.25 -459.80 -735.55 -736.83 -741.31 -738.92 -731.67 -733.90 -737.74 -731.90 -740.38 -741.16 -742.17 -808.03 -867.12 -818.53 -1076.71 -1136.22 -1280.77 -1339.11 -1466.42 -1610.31 -1716.59 -1872.02 -2013.57 -2103.89 -2165.60 -2207.25 -1851.20 -1900.69 -1907.74 -1950.07 -1932.80 -1957.63 -1963.50 -1995.28 -2000.01 -2013.25 -2048.46 -2064.09 -2069.84 -2092.30 -2095.03 -2105.75 -2126.95 -2134.40 -2127.78
1998.38 1995.06 1903.89 1773.17 1761.02 1746.11 1743.85 1723.23 1712.85 1704.15 1696.53 1689.04 1687.78 1675.07 1689.84 1700.66 1719.06 1776.86 1774.38 1788.98 1799.03 1800.52 1792.42 1774.42 1749.95 1712.32 373.97 374.92 377.01 388.65 390.21 384.76 372.89 370.29 353.43 333.73 316.99 319.00 318.44 -156.15 -170.58 -171.55 -171.77 -162.71 -150.59 -150.21 -158.12 -152.65 -134.01 -120.04 -127.30 -126.10 -218.59 -216.71 -225.78 -230.72 -230.93 -236.73 -250.39 -231.87 -230.72 -232.03 -237.07 -247.32 -252.97 -397.67 -396.96 -396.18 -389.99 -390.31 -385.93 -389.35 -390.38 -379.70 -383.59 -399.64 -398.53 -401.45 -460.59 -456.59 -458.46 -470.52 -460.56 -463.67 -459.51 -463.29 -470.43 -472.59 -468.22 -463.75 -464.33 -735.47 -733.68 -730.61 -741.90 -734.57 -741.33 -737.14 -734.18 -737.73 -738.29 -741.39 -740.96 -788.99 -700.30 -845.80 -983.76 -999.78 -1217.27 -1376.65 -1514.38 -1600.10 -1787.15 -1931.08 -2064.28 -2106.13 -2185.15 -1777.31 -1824.21 -1853.43 -1852.47 -1843.60 -1856.20 -1883.79 -1890.23 -1943.79 -1988.74 -2009.17 -2044.79 -2048.01 -2064.46 -2080.82 -2085.83 -2105.86 -2114.27 -2117.48
2079.97 2075.70 1944.58 1783.88 1760.59 1746.92 1744.05 1735.30 1717.12 1707.82 1704.20 1691.37 1697.40 1692.14 1681.31 1692.40 1681.17 1714.79 1728.87 1774.25 1780.84 1787.81 1783.10 1772.69 1779.43 1741.69 411.13 399.05 398.07 400.81 394.67 381.31 362.78 360.62 338.65 320.58 304.44 311.19 300.72 -155.52 -166.49 -175.46 -168.04 -160.93 -148.33 -143.14 -141.05 -130.97 -128.62 -124.04 -118.90 -124.38 -213.69 -218.11 -212.47 -220.68 -224.46 -224.62 -229.05 -223.62 -217.47 -219.18 -233.34 -239.81 -242.63 -396.71 -397.39 -380.89 -375.77 -386.41 -389.13 -376.72 -383.19 -385.07 -393.28 -392.80 -397.67 -392.38 -452.00 -453.29 -457.36 -461.30 -464.00 -459.76 -462.52 -460.20 -459.29 -464.90 -464.73 -464.74 -467.13 -738.78 -734.66 -736.06 -730.10 -733.41 -734.59 -738.15 -735.59 -737.48 -735.48 -743.08 -734.58 -751.94 -658.36 -662.45 -850.01 -925.42 -1036.20 -1209.67 -1302.14 -1447.65 -1739.99 -1834.51 -1932.88 -1996.89 -2111.36 -1726.67 -1763.00 -1764.93 -1770.12 -1821.36 -1834.71 -1869.42 -1875.04 -1896.49 -1931.33 -1955.31 -2012.63 -2040.09 -2051.83 -2064.97 -2085.45 -2099.86 -2097.45 -2102.27
2030.13 2025.90 1951.00 1791.20 1776.48 1768.48 1784.66 1744.59 1753.66 1725.65 1726.65 1711.27 1701.70 1707.51 1698.46 1678.52 1668.50 1694.73 1722.40 1701.37 1749.13 1762.46 1789.05 1783.07 1788.54 1765.66 417.05 403.76 402.87 391.87 372.99 366.40 359.35 341.85 330.75 316.41 299.58 303.03 286.38 -164.36 -162.35 -159.90 -170.51 -167.80 -156.10 -138.79 -127.93 -115.91 -113.94 -114.41 -101.73 -118.28 -206.59 -208.50 -204.62 -204.90 -214.15 -213.61 -222.30 -220.29 -215.16 -215.99 -217.96 -233.22 -244.86 -386.77 -388.38 -384.78 -375.10 -372.72 -376.48 -375.23 -377.48 -375.77 -385.17 -392.14 -386.74 -395.32 -450.06 -452.62 -452.65 -456.17 -457.61 -464.56 -456.67 -460.89 -465.41 -465.39 -466.11 -463.76 -466.40 -734.40 -735.90 -740.52 -743.64 -737.20 -739.52 -736.40 -733.83 -738.58 -728.95 -736.33 -743.47 -754.59 -660.63 -661.98 -663.34 -772.85 -954.01 -1015.69 -1213.95 -1455.30 -1551.12 -1761.97 -1893.06 -1937.15 -1987.73 -1543.99 -1652.48 -1739.54 -1720.29 -1750.44 -1727.62 -1787.66 -1815.83 -1866.93 -1864.77 -1910.55 -1997.24 -2014.12 -2011.86 -2043.12 -2052.23 -2071.90 -2076.13 -2072.38
2117.75 2117.46 2076.69 1797.35 1800.24 1814.56 1826.23 1807.30 1759.41 1754.80 1756.52 1726.56 1730.54 1740.07 1724.21 1680.23 1664.60 1692.92 1703.71 1696.10 1698.50 1726.86 1755.01 1773.33 1780.17 1776.51 449.37 419.07 405.01 390.73 366.65 340.58 333.56 335.29 308.60 303.65 283.50 281.89 288.93 -159.91 -140.87 -153.16 -163.13 -167.65 -159.40 -140.45 -107.62 -104.90 -102.02 -102.59 -101.21 -101.90 -193.30 -199.65 -193.22 -203.42 -197.49 -212.72 -209.51 -215.16 -209.75 -210.48 -218.84 -224.95 -228.98 -378.60 -375.20 -379.76 -369.41 -376.03 -370.73 -375.59 -364.86 -374.49 -376.98 -379.34 -382.85 -388.68 -443.33 -445.04 -452.22 -456.68 -457.42 -457.43 -456.13 -461.57 -461.27 -461.24 -459.59 -458.87 -465.81 -730.30 -738.92 -731.90 -737.10 -742.06 -732.14 -734.90 -742.03 -735.62 -733.15 -742.19 -742.47 -744.07 -658.11 -650.64 -664.87 -664.51 -769.68 -999.51 -1154.68 -1463.18 -1601.06 -1657.36 -1824.93 -1885.67 -1905.19 -1505.75 -1535.06 -1605.96 -1627.03 -1636.75 -1659.76 -1708.67 -1715.32 -1773.51 -1820.99 -1824.81 -1925.67 -1976.07 -2004.81 -2023.32 -2015.70 -2037.83 -2044.34 -2044.00
2048.30 2050.57 1956.40 1836.23 1811.42 1845.40 1892.08 1882.21 1820.06 1784.20 1760.72 1757.63 1747.92 1736.13 1719.07 1683.16 1666.66 1671.26 1681.99 1676.07 1685.98 1726.93 1739.27 1753.67 1759.90 1780.13 462.40 435.92 408.91 393.87 373.50 347.39 329.29 319.73 309.98 292.72 281.64 293.40 297.66 -141.33 -141.37 -136.80 -152.82 -157.92 -152.20 -146.51 -104.07 -83.36 -93.56 -89.18 -95.91 -101.01 -197.40 -196.22 -193.81 -207.27 -206.55 -207.99 -212.70 -218.73 -212.03 -208.59 -215.65 -218.15 -219.11 -362.97 -370.76 -366.06 -377.11 -371.79 -375.79 -371.86 -379.25 -369.71 -383.23 -377.14 -386.61 -383.71 -430.32 -439.97 -456.73 -456.39 -452.87 -455.93 -448.82 -456.33 -455.36 -454.84 -464.85 -466.00 -466.17 -732.56 -738.23 -737.81 -736.72 -737.30 -738.85 -739.70 -736.53 -734.60 -738.25 -733.08 -738.84 -743.45 -648.21 -652.16 -649.70 -660.83 -755.75 -845.18 -1245.87 -1443.95 -1597.93 -1613.09 -1714.16 -1829.02 -1836.55 -1392.58 -1394.38 -1392.10 -1471.02 -1505.92 -1542.42 -1601.74 -1645.68 -1712.79 -1740.52 -1799.25 -1844.82 -1900.08 -1926.89 -1937.17 -1974.74 -2008.72 -1999.53 -1994.42
2051.36 2055.64 1940.85 1814.09 1855.29 1908.39 1938.75 1943.72 1867.59 1839.07 1787.72 1778.42 1772.46 1738.72 1739.12 1713.77 1677.47 1663.91 1658.47 1653.63 1664.19 1687.54 1711.52 1727.30 1756.85 1770.88 470.97 442.42 443.44 417.80 387.56 340.70 333.19 322.97 302.56 291.26 281.41 295.43 306.95 -125.45 -118.68 -130.00 -146.53 -155.74 -151.81 -129.02 -99.48 -82.18 -91.00 -90.09 -97.64 -98.95 -204.72 -210.59 -201.95 -214.08 -221.09 -224.16 -227.91 -216.36 -214.64 -217.89 -213.86 -219.02 -214.66 -365.92 -358.57 -369.28 -363.59 -373.32 -372.39 -372.70 -369.72 -376.16 -379.25 -391.90 -396.28 -388.37 -449.77 -443.15 -454.64 -450.98 -448.85 -450.01 -458.27 -454.41 -451.47 -457.36 -453.97 -460.37 -455.55 -729.29 -735.08 -738.75 -736.08 -735.16 -738.67 -735.71 -740.95 -738.45 -735.89 -735.18 -739.04 -741.03 -640.76 -649.08 -645.41 -644.88 -656.19 -797.39 -978.49 -1332.84 -1444.97 -1544.80 -1685.63 -1756.10 -1750.11 -1332.41 -1322.03 -1369.47 -1391.06 -1426.65 -1489.11 -1496.83 -1517.23 -1604.47 -1695.51 -1723.73 -1753.26 -1769.36 -1825.10 -1891.88 -1900.81 -1950.85 -1954.31 -1952.02
2176.71 2166.51 2022.80 1858.96 1930.54 1983.95 1968.75 1974.91 1927.14 1849.89 1816.92 1807.86 1784.39 1754.53 1728.79 1726.06 1715.20 1699.62 1666.39 1666.02 1648.28 1666.05 1684.32 1718.39 1730.28 1761.49 448.56 450.54 424.02 409.34 406.11 370.30 339.73 326.64 309.27 294.69 283.47 287.19 303.01 -120.60 -109.85 -115.26 -131.67 -139.56 -139.66 -110.16 -95.72 -84.91 -90.35 -100.80 -104.58 -114.35 -202.78 -212.53 -221.48 -222.66 -230.76 -237.76 -230.49 -223.65 -221.48 -219.06 -224.54 -213.98 -221.51 -363.20 -365.71 -369.27 -361.82 -376.50 -383.68 -383.28 -389.83 -388.92 -388.92 -401.75 -406.81 -402.03 -448.21 -450.15 -455.50 -454.42 -453.24 -458.04 -448.66 -453.42 -458.28 -453.45 -453.87 -457.18 -464.66 -733.53 -738.39 -737.05 -731.35 -737.26 -735.72 -741.48 -733.99 -736.59 -738.00 -732.14 -735.16 -741.45 -646.90 -644.11 -644.11 -647.14 -652.53 -747.10 -899.85 -1165.43 -1271.86 -1402.17 -1524.30 -1612.93 -1729.52 -1264.92 -1285.48 -1310.54 -1353.25 -1359.99 -1386.85 -1407.23 -1467.19 -1469.63 -1522.29 -1559.19 -1612.43 -1725.56 -1784.35 -1830.49 -1850.26 -1852.12 -1902.15 -1894.02
2146.03 2146.78 2021.21 1929.58 1920.23 2005.28 2007.29 2014.01 1953.30 1885.69 1832.73 1837.49 1808.03 1742.04 1721.99 1731.14 1721.80 1703.28 1692.37 1672.97 1647.16 1664.80 1656.30 1696.98 1709.78 1729.66 422.14 424.89 425.54 403.99 397.08 374.43 327.35 323.89 308.20 290.15 278.41 286.36 301.40 -125.38 -102.07 -109.22 -121.10 -124.11 -112.29 -103.19 -93.03 -81.78 -86.97 -98.29 -105.53 -124.04 -216.73 -232.63 -234.03 -232.10 -236.83 -249.43 -241.47 -230.99 -232.91 -228.87 -235.08 -243.06 -247.07 -386.34 -379.78 -372.83 -379.47 -391.44 -400.43 -403.30 -395.37 -389.21 -407.96 -404.91 -405.11 -404.80 -455.97 -460.50 -456.61 -458.02 -451.54 -454.56 -449.06 -451.17 -449.55 -458.12 -458.84 -461.43 -461.15 -736.64 -734.65 -738.47 -734.04 -738.69 -735.95 -735.44 -731.91 -741.64 -738.58 -732.20 -740.43 -738.57 -640.13 -642.15 -644.84 -648.35 -659.31 -665.30 -815.56 -998.56 -1067.20 -1224.78 -1453.63 -1593.21 -1685.93 -1227.60 -1205.68 -1244.89 -1246.63 -1269.58 -1275.11 -1318.75 -1328.31 -1372.69 -1447.48 -1468.95 -1576.04 -1606.45 -1683.12 -1790.51 -1794.89 -1845.77 -1827.60 -1830.27
2184.88 2177.50 2239.30 1936.60 1986.94 2023.40 2075.11 2062.77 2015.12 1899.53 1835.90 1815.65 1791.00 1738.33 1713.16 1704.23 1713.42 1720.59 1708.84 1688.42 1680.70 1655.28 1655.53 1664.73 1701.08 1707.46 400.77 422.35 394.08 388.25 370.26 372.01 318.88 289.54 292.63 277.78 289.50 287.55 311.83 -129.08 -107.63 -97.01 -104.44 -106.43 -101.36 -94.21 -81.32 -82.11 -85.15 -110.50 -123.51 -137.15 -223.93 -235.73 -227.30 -221.43 -224.68 -241.04 -252.40 -241.21 -234.36 -241.49 -249.68 -253.53 -259.72 -395.37 -394.11 -389.05 -391.94 -399.19 -399.09 -402.12 -409.08 -404.04 -401.36 -406.62 -407.52 -412.64 -457.98 -465.89 -459.60 -460.87 -456.05 -456.48 -458.07 -451.98 -464.88 -461.18 -460.35 -459.95 -465.90 -732.91 -738.62 -734.67 -730.32 -733.92 -729.88 -737.68 -735.88 -735.49 -732.43 -735.67 -733.37 -738.91 -643.85 -643.14 -636.53 -644.60 -652.32 -657.50 -692.10 -899.51 -1015.11 -1261.43 -1459.84 -1622.60 -1644.63 -1154.13 -1155.09 -1169.24 -1178.84 -1160.97 -1164.40 -1225.49 -1204.33 -1251.03 -1319.37 -1366.62 -1488.56 -1522.34 -1570.95 -1635.51 -1703.13 -1742.08 -1763.00 -1761.91
2433.40 2432.30 2226.89 2076.40 2031.89 2084.35 2116.75 2105.21 2050.47 1950.77 1854.75 1836.08 1762.57 1722.06 1704.36 1692.55 1692.73 1700.40 1706.19 1699.50 1672.91 1650.66 1642.67 1651.57 1666.03 1693.76 392.24 395.52 362.68 362.43 345.89 311.16 301.14 281.00 287.83 284.89 296.13 303.41 319.36 -121.13 -108.71 -91.28 -95.86 -81.64 -76.07 -76.48 -80.42 -82.71 -95.78 -105.54 -120.25 -128.10 -225.79 -223.67 -212.02 -219.69 -232.94 -237.00 -247.80 -247.42 -248.13 -248.06 -247.42 -249.45 -268.15 -405.61 -398.14 -383.64 -392.49 -394.63 -405.41 -401.03 -405.84 -403.09 -409.12 -410.96 -405.79 -413.32 -460.89 -469.33 -470.32 -465.36 -464.29 -466.23 -467.63 -463.00 -459.79 -465.10 -466.26 -472.03 -465.96 -738.96 -734.54 -735.47 -729.24 -734.95 -732.54 -732.75 -739.15 -740.66 -736.79 -735.35 -732.71 -738.79 -642.73 -637.00 -642.48 -643.38 -646.96 -657.62 -770.42 -867.97 -1101.11 -1301.66 -1491.88 -1607.27 -1600.28 -1141.29 -1110.12 -1085.80 -1086.31 -1116.98 -1073.50 -1104.88 -1168.43 -1169.23 -1181.31 -1289.42 -1341.35 -1401.40 -1493.01 -1521.85 -1604.68 -1692.21 -1682.47 -1675.96
1302.69 1301.94 1201.73 970.27 926.14 956.32 979.58 967.18 901.46 780.89 711.54 633.53 564.49 18.23 -2.47 -26.18 -22.62 -21.28 -26.61 -35.66 -34.77 -50.89 -61.48 -60.83 -43.22 -23.94 366.70 364.90 352.75 328.51 312.40 297.39 290.71 293.13 288.95 292.44 313.59 325.97 338.42 259.05 290.43 310.37 302.85 306.15 316.61 309.58 305.17 300.56 290.02 276.05 258.80 248.96 -146.22 -137.47 -132.52 -146.57 -153.55 -170.37 -168.74 -165.33 -174.85 -171.55 -165.67 -175.92 -187.81 -211.64 -209.08 -210.83 -201.84 -205.77 -201.39 -213.54 -215.75 -209.58 -209.14 -202.87 -204.09 -212.92 -379.72 -372.52 -374.41 -378.69 -379.35 -371.56 -377.76 -378.18 -378.60 -375.30 -378.70 -378.70 -377.50 -576.24 -574.61 -575.14 -568.04 -564.61 -566.96 -567.91 -571.07 -571.06 -571.29 -566.21 -567.91 -567.49 -887.25 -890.02 -888.65 -890.93 -893.10 -908.93 -1044.46 -1187.84 -1424.95 -1570.68 -1732.75 -1808.22 -1819.82 -1099.31 -1056.35 -1049.39 -1034.33 -1025.25 -1039.50 -1044.99 -1040.28 -1027.50 -1028.01 -1114.37 -1199.45 -1248.39 -1341.99 -1463.04 -1466.46 -1599.49 -1598.46 -1597.79
1477.33 1474.95 1275.36 1011.63 1009.87 1046.53 1013.34 951.51 855.08 817.59 699.21 621.51 561.95 9.62 1.24 -13.87 -27.68 -36.11 -46.05 -49.25 -52.33 -71.74 -78.24 -66.57 -49.24 -44.82 358.70 352.04 338.21 320.84 308.52 287.34 293.57 300.25 305.07 312.64 322.23 340.90 361.54 305.89 298.30 314.79 312.13 316.09 318.24 315.73 300.05 300.38 294.89 278.55 255.62 259.18 -142.81 -129.14 -127.21 -138.18 -150.67 -149.62 -161.94 -154.43 -172.15 -170.91 -158.81 -164.51 -180.06 -207.89 -210.76 -213.12 -216.64 -211.73 -206.15 -212.78 -209.13 -207.49 -202.19 -202.48 -199.60 -214.24 -365.17 -373.58 -371.79 -377.28 -377.51 -374.17 -370.17 -369.57 -375.87 -363.92 -376.87 -379.49 -379.39 -566.71 -571.20 -570.49 -567.69 -562.57 -568.98 -570.38 -568.66 -573.39 -571.45 -570.74 -569.99 -569.61 -888.18 -891.48 -888.08 -891.07 -900.08 -903.07 -1025.54 -1265.81 -1496.80 -1535.10 -1686.16 -1724.47 -1787.22 -1055.65 -1040.97 -1029.10 -1035.11 -995.13 -974.89 -966.90 -970.86 -999.44 -1008.17 -1001.81 -1044.58 -1162.75 -1278.26 -1343.31 -1406.22 -1432.87 -1513.71 -1510.94
1461.78 1466.24 1250.07 1139.11 1085.34 1077.20 1026.63 935.58 882.11 745.08 680.05 593.06 593.57 22.45 -3.23 -4.90 -23.85 -27.53 -51.64 -58.58 -65.99 -62.28 -69.89 -79.44 -77.06 -67.69 338.02 330.22 327.01 304.66 300.96 298.37 306.83 314.47 307.24 349.36 347.49 373.58 388.21 321.59 321.38 331.11 317.34 315.60 318.25 313.71 298.34 288.96 282.50 277.69 268.91 252.30 -134.01 -134.09 -127.88 -137.63 -144.87 -140.67 -133.73 -147.90 -157.75 -162.13 -156.10 -158.45 -173.72 -204.24 -195.47 -202.28 -208.74 -210.99 -221.95 -213.14 -205.30 -200.18 -194.74 -199.12 -193.09 -192.03 -362.21 -362.57 -363.77 -373.22 -368.09 -369.00 -375.37 -375.91 -372.63 -372.76 -372.35 -373.85 -378.45 -568.20 -569.14 -566.76 -572.60 -558.77 -566.75 -562.32 -569.12 -572.54 -563.31 -577.94 -570.02 -575.36 -886.34 -895.04 -889.15 -893.25 -898.11 -912.87 -913.79 -1228.71 -1456.65 -1511.97 -1621.81 -1749.38 -1762.39 -1047.17 -1021.60 -994.44 -985.87 -980.17 -930.66 -937.01 -894.71 -912.61 -917.78 -940.86 -1006.42 -1032.99 -1124.99 -1326.56 -1327.59 -1425.80 -1435.25 -1433.08
1367.06 1366.57 1378.65 1039.44 1064.63 1006.69 896.05 873.41 836.44 806.10 685.38 677.87 617.56 86.11 47.75 20.30 6.36 -21.43 -35.11 -48.71 -46.40 -64.63 -72.69 -73.15 -80.21 -72.62 318.06 315.09 309.32 300.50 294.25 296.96 320.56 342.57 358.05 377.75 360.97 389.23 414.14 354.77 337.32 319.31 317.92 311.93 307.37 299.30 276.50 276.58 276.85 278.42 273.54 264.24 -135.72 -120.59 -123.91 -121.89 -132.33 -137.14 -129.16 -138.44 -146.18 -155.38 -152.86 -148.48 -154.17 -179.47 -189.91 -197.05 -200.34 -211.31 -218.06 -211.04 -206.73 -195.17 -197.44 -190.71 -180.04 -188.27 -352.85 -355.71 -364.35 -363.69 -366.42 -373.11 -364.78 -373.84 -373.09 -374.00 -369.84 -375.63 -375.69 -570.58 -564.63 -571.53 -563.99 -566.99 -568.71 -568.06 -578.87 -567.23 -571.76 -568.94 -565.20 -572.38 -893.93 -889.74 -888.35 -896.30 -902.82 -910.50 -931.17 -1293.52 -1521.81 -1540.56 -1604.27 -1730.41 -1743.72 -1013.45 -999.58 -979.53 -935.19 -897.51 -871.94 -879.32 -853.73 -843.87 -850.05 -850.79 -923.81 -955.01 -1024.01 -1137.38 -1236.07 -1311.03 -1363.75 -1359.86
1309.02 1311.58 1175.01 1013.69 949.80 914.33 797.52 834.98 890.01 894.14 827.83 710.93 695.28 113.05 91.55 58.81 46.43 5.42 -12.14 -27.35 -48.31 -46.08 -47.09 -76.98 -81.30 -81.46 300.80 306.32 295.93 297.78 299.78 310.36 327.01 355.22 359.41 397.30 394.83 408.10 419.32 351.92 327.56 316.73 310.85 310.14 300.38 282.02 277.70 277.21 273.31 279.85 280.94 277.87 -128.05 -120.33 -106.73 -116.14 -121.60 -125.51 -117.06 -128.58 -141.20 -145.94 -156.64 -150.58 -153.15 -178.27 -176.40 -186.99 -195.51 -208.08 -213.81 -211.22 -199.39 -201.69 -184.21 -186.12 -184.44 -189.87 -350.25 -351.46 -356.01 -361.87 -370.47 -367.78 -371.91 -381.56 -374.76 -378.50 -372.59 -372.18 -375.60 -568.38 -575.72 -566.72 -565.39 -572.42 -573.55 -571.29 -574.02 -571.20 -572.68 -571.13 -572.58 -569.95 -888.65 -898.67 -893.33 -900.12 -909.80 -918.22 -945.37 -1180.63 -1429.28 -1539.76 -1653.12 -1707.95 -1718.09 -1001.91 -999.30 -934.70 -907.04 -887.18 -862.20 -815.85 -804.02 -808.09 -809.85 -834.83 -871.45 -886.10 -917.50 -1031.32 -1150.82 -1267.13 -1296.26 -1301.11
1297.66 1304.33 1122.54 952.26 831.17 768.90 791.30 811.35 892.52 892.63 828.76 753.68 715.56 125.94 85.73 64.95 67.12 49.75 32.13 -7.14 -21.60 -21.45 -29.58 -49.10 -71.60 -81.27 309.24 300.77 306.66 296.92 301.07 311.53 334.61 346.14 385.12 404.62 429.53 433.88 431.90 345.41 319.92 313.29 312.42 295.79 288.53 282.25 280.30 279.48 280.70 291.68 292.22 286.25 -133.34 -119.25 -111.59 -111.04 -115.41 -120.59 -127.14 -131.19 -135.19 -148.43 -153.77 -155.32 -159.66 -180.51 -179.46 -192.50 -204.36 -212.37 -215.58 -197.99 -182.94 -186.67 -180.19 -179.02 -181.80 -186.31 -347.06 -351.08 -348.23 -364.97 -367.28 -380.44 -376.61 -376.09 -377.84 -375.25 -377.60 -378.12 -373.02 -569.85 -574.04 -568.34 -566.52 -567.48 -573.49 -563.73 -572.36 -569.61 -570.24 -572.82 -569.34 -576.34 -889.40 -900.03 -901.51 -906.09 -904.95 -939.02 -968.34 -1098.23 -1340.20 -1581.61 -1661.97 -1675.22 -1708.79 -975.12 -956.66 -910.44 -886.52 -868.25 -819.74 -779.11 -754.45 -747.60 -763.35 -767.84 -812.90 -835.94 -902.71 -989.08 -1053.06 -1253.54 -1249.60 -1248.12
1114.53 1119.09 1157.51 835.99 818.20 758.73 724.81 776.05 857.19 861.27 805.14 793.07 773.51 176.64 147.36 97.67 110.73 92.61 54.52 30.11 16.02 13.49 -22.37 -46.11 -60.58 -54.08 317.33 307.10 312.82 313.73 315.69 325.31 349.46 351.44 384.95 419.56 441.19 433.50 429.46 339.99 318.14 305.51 302.90 296.12 287.32 284.76 292.76 293.53 304.82 304.33 296.71 289.84 -121.29 -120.09 -107.91 -105.42 -120.21 -125.05 -122.94 -138.24 -148.49 -150.76 -171.22 -173.06 -171.90 -194.50 -197.30 -193.91 -202.27 -200.79 -201.41 -198.75 -185.53 -180.23 -182.40 -173.95 -179.35 -183.73 -340.53 -356.20 -356.84 -365.90 -362.98 -371.73 -376.01 -379.37 -376.76 -378.11 -373.12 -379.80 -376.69 -564.17 -573.01 -572.72 -574.97 -569.41 -577.58 -572.48 -575.72 -572.00 -568.64 -563.63 -572.50 -577.49 -883.39 -890.62 -896.72 -909.60 -904.34 -938.60 -967.77 -1134.79 -1246.19 -1470.69 -1616.92 -1646.50 -1669.85 -962.12 -941.12 -898.24 -863.04 -848.35 -814.51 -763.63 -740.95 -735.14 -731.00 -719.45 -751.66 -795.59 -866.76 -961.91 -1047.25 -1144.70 -1203.67 -1203.55
1062.25 1065.40 925.75 840.99 779.55 725.85 701.33 760.65 797.57 784.63 777.02 786.35 797.78 208.70 165.68 114.43 120.61 114.23 53.72 27.98 16.45 -18.32 -30.74 -60.65 -47.60 -42.33 334.35 338.69 332.73 328.06 331.77 334.87 354.02 360.53 393.56 426.11 433.77 436.20 420.67 325.37 309.93 303.00 296.31 287.16 286.04 294.64 307.88 316.05 318.05 315.37 310.35 294.81 -117.29 -105.13 -109.04 -110.67 -122.86 -131.74 -139.03 -149.22 -152.98 -167.23 -167.77 -168.81 -173.51 -188.27 -195.73 -197.61 -188.49 -193.13 -193.38 -183.38 -189.71 -181.13 -172.89 -178.16 -187.48 -188.58 -355.10 -359.81 -365.04 -364.02 -375.16 -376.48 -374.89 -373.35 -374.74 -373.82 -371.82 -376.96 -376.55 -571.06 -570.03 -573.40 -569.12 -572.21 -566.13 -569.81 -568.50 -569.48 -570.83 -566.63 -578.63 -577.75 -893.63 -892.18 -884.78 -901.88 -902.73 -928.78 -1025.14 -1070.43 -1251.87 -1433.18 -1604.88 -1628.77 -1659.41 -955.48 -910.41 -875.68 -831.65 -814.19 -757.10 -710.35 -712.49 -688.20 -691.83 -716.71 -753.37 -788.57 -809.50 -933.92 -986.02 -1119.62 -1164.41 -1160.72
1052.42 1050.03 930.55 802.25 733.87 679.97 699.19 741.33 768.46 756.29 730.21 754.86 772.08 244.98 210.26 156.81 127.96 104.57 37.85 -11.77 -13.67 -35.58 -41.45 -45.63 -26.62 -11.01 351.86 338.80 345.05 353.35 346.13 347.76 360.59 376.06 394.27 419.79 437.05 429.89 409.81 318.08 308.83 305.36 295.90 289.60 296.68 304.93 313.79 324.45 341.43 325.00 318.77 306.56 -102.15 -102.97 -113.31 -117.49 -126.97 -131.20 -139.81 -156.41 -160.46 -158.16 -152.88 -156.16 -158.02 -186.89 -193.81 -194.92 -180.99 -188.68 -179.77 -190.00 -184.58 -182.45 -181.22 -184.09 -188.72 -194.59 -360.91 -363.13 -370.33 -366.45 -376.33 -380.25 -379.70 -370.31 -370.22 -368.77 -363.13 -365.77 -373.92 -570.60 -577.34 -565.88 -570.45 -571.72 -561.37 -566.73 -567.61 -566.98 -572.82 -574.67 -573.95 -572.19 -887.32 -889.32 -893.55 -901.46 -904.37 -914.18 -1004.30 -1154.82 -1275.57 -1362.04 -1563.07 -1591.86 -1627.84 -912.32 -875.35 -832.62 -804.32 -790.37 -721.70 -709.42 -672.43 -674.67 -673.91 -676.40 -721.25 -744.21 -786.89 -876.42 -909.30 -1122.00 -1118.32 -1121.09
1104.61 1109.41 978.90 818.13 744.27 674.94 667.72 683.13 709.68 702.91 703.45 716.30 760.92 231.20 204.58 146.93 140.66 110.63 42.04 -27.50 -23.57 -28.51 -22.49 -30.25 -18.43 -22.76 365.78 352.29 366.46 378.30 382.76 377.23 364.85 386.90 409.38 431.66 439.63 430.08 415.99 324.08 310.80 299.12 299.85 303.78 313.95 313.74 327.27 347.58 343.74 336.62 319.58 316.91 -93.52 -100.09 -108.15 -121.50 -127.06 -148.99 -150.10 -147.74 -153.84 -145.71 -146.36 -138.16 -153.08 -179.59 -177.78 -178.04 -167.24 -180.35 -184.47 -185.71 -189.35 -180.15 -187.77 -178.32 -191.32 -200.54 -368.00 -367.68 -365.70 -377.70 -378.89 -375.28 -376.59 -374.12 -364.26 -357.81 -354.75 -369.48 -375.16 -572.87 -571.70 -570.64 -561.80 -555.92 -558.24 -566.25 -567.53 -564.02 -571.41 -568.60 -572.89 -575.49 -886.41 -887.42 -893.70 -890.76 -905.82 -915.86 -978.32 -1129.41 -1198.82 -1332.44 -1459.37 -1488.11 -1551.69 -882.60 -858.58 -795.26 -773.61 -727.10 -681.48 -628.25 -637.52 -644.01 -637.09 -641.16 -678.76 -699.20 -756.64 -796.69 -886.50 -972.35 -1065.86 -1067.29
1066.52 1069.48 953.12 819.73 784.75 693.51 637.79 640.24 620.90 644.35 684.03 723.41 762.85 235.53 202.23 145.38 111.25 56.11 19.20 -4.93 -1.06 -14.35 9.33 -1.03 16.56 -7.88 374.33 358.76 372.61 395.47 409.52 408.30 393.81 405.06 429.60 448.55 439.44 423.03 418.56 315.54 315.57 311.74 313.60 313.95 319.79 331.89 338.92 361.46 360.92 354.97 341.07 324.19 -97.30 -100.87 -106.31 -119.47 -113.24 -123.07 -139.58 -146.79 -140.71 -144.65 -130.92 -141.05 -140.95 -165.66 -168.00 -171.96 -175.84 -175.85 -186.93 -199.72 -195.21 -203.06 -192.29 -192.71 -194.10 -196.41 -367.69 -373.92 -371.26 -370.63 -377.33 -376.07 -380.92 -373.65 -357.64 -348.63 -355.44 -363.17 -374.46 -561.69 -563.96 -559.75 -557.88 -558.40 -555.13 -563.45 -563.32 -570.33 -570.91 -571.22 -572.06 -567.87 -885.82 -890.48 -886.80 -890.31 -899.44 -914.65 -922.75 -1007.98 -1070.09 -1260.71 -1309.41 -1385.73 -1480.77 -773.83 -773.37 -780.69 -723.92 -697.73 -644.40 -625.88 -590.32 -607.69 -610.68 -631.29 -656.60 -698.73 -708.54 -744.45 -836.27 -966.67 -1000.64 -1003.83
1025.08 1024.77 938.44 815.87 793.17 712.78 644.48 628.26 616.84 643.42 678.86 744.06 761.00 240.16 232.87 166.39 103.35 50.17 54.78 24.73 25.03 12.64 26.99 30.28 23.77 17.23 390.64 376.54 385.92 389.73 417.84 418.66 417.08 433.48 460.13 462.91 451.11 431.47 423.75 332.39 329.35 322.24 320.29 336.23 344.11 337.62 350.83 369.41 382.51 357.05 343.52 317.85 -93.79 -105.31 -101.28 -118.85 -110.89 -121.21 -137.10 -141.78 -139.78 -133.14 -132.86 -136.29 -136.56 -166.25 -164.82 -170.98 -180.07 -177.02 -195.03 -200.84 -205.46 -198.37 -198.94 -199.58 -196.01 -200.16 -361.94 -374.80 -372.88 -376.53 -365.97 -365.29 -371.13 -364.76 -360.44 -351.67 -354.30 -355.82 -364.51 -561.67 -557.41 -557.31 -559.15 -559.23 -559.22 -561.50 -566.53 -558.85 -574.37 -573.72 -565.60 -569.87 -885.43 -884.03 -888.59 -890.57 -899.14 -903.34 -912.41 -916.46 -924.79 -1013.89 -1071.09 -1115.62 -1274.77 -706.06 -734.30 -718.94 -686.53 -630.45 -604.09 -585.36 -579.72 -557.51 -571.89 -589.66 -587.56 -626.82 -655.98 -711.74 -729.86 -933.78 -930.49 -926.28
1465.54 1461.08 1371.14 1235.62 1181.31 1169.21 1120.49 1076.77 1058.51 1094.57 1118.08 1189.15 1242.95 1824.42 1810.53 1773.59 1703.71 1652.95 1624.37 1610.52 1598.58 1599.60 1604.03 1631.17 1623.52 1605.90 379.66 352.37 352.83 372.01 389.40 408.05 408.99 435.80 447.13 443.38 421.91 415.56 394.16 362.56 350.28 336.54 335.92 355.71 373.08 374.75 382.39 389.84 392.67 374.35 332.90 314.85 14.05 4.42 -8.06 0.62 -2.60 -8.24 -24.76 -39.53 -44.39 -28.04 -21.81 -23.05 -30.60 -86.02 -87.55 -92.42 -89.53 -102.52 -114.99 -120.59 -124.53 -125.38 -122.42 -120.14 -128.57 -132.96 -225.04 -230.21 -215.50 -216.13 -217.45 -216.40 -211.59 -212.00 -200.51 -202.84 -204.36 -202.33 -207.51 -211.87 -213.85 -218.19 -220.42 -217.49 -221.70 -224.25 -230.53 -235.02 -235.02 -230.54 -234.01 -236.72 -217.29 -218.93 -219.13 -222.99 -225.91 -216.84 -233.30 -232.48 -241.45 -249.42 -260.29 -356.33 -423.58 -578.85 -667.37 -673.72 -617.97 -589.27 -550.99 -519.03 -517.42 -512.22 -514.80 -539.48 -523.90 -563.59 -582.28 -648.35 -712.27 -792.45 -848.88 -850.91
1384.57 1385.48 1383.10 1225.05 1152.85 1132.66 1092.95 1074.71 1055.98 1085.46 1130.85 1189.55 1205.97 1823.89 1801.10 1779.13 1744.99 1704.11 1690.27 1647.94 1636.78 1639.77 1633.13 1647.23 1661.26 1642.30 400.16 364.46 361.79 377.81 403.24 439.50 447.28 459.35 470.94 447.84 423.59 408.12 413.64 372.32 363.01 348.00 353.37 378.35 388.67 382.24 392.70 392.72 385.62 344.66 314.18 305.20 0.76 -7.77 -19.61 -17.89 -12.21 -15.14 -23.81 -46.24 -48.93 -49.39 -43.40 -32.28 -39.73 -101.07 -100.62 -93.06 -97.02 -98.91 -113.45 -123.84 -122.33 -126.18 -131.89 -126.51 -132.58 -132.08 -220.04 -215.31 -213.29 -208.57 -207.92 -208.38 -202.09 -202.34 -203.11 -201.30 -194.18 -206.52 -209.78 -216.98 -214.34 -220.05 -223.20 -220.79 -224.55 -233.60 -224.82 -226.71 -231.83 -225.06 -236.48 -230.42 -215.82 -214.10 -213.19 -213.80 -221.70 -225.75 -218.72 -222.53 -222.69 -231.70 -261.66 -278.25 -382.87 -377.71 -635.39 -597.06 -590.27 -519.27 -494.67 -484.46 -469.35 -461.52 -480.65 -478.75 -503.13 -500.29 -553.68 -610.41 -645.76 -757.25 -778.85 -772.38
1291.88 1288.66 1307.35 1147.71 1118.12 1113.63 1083.19 1042.51 1049.76 1078.09 1123.59 1163.88 1201.87 1775.72 1785.85 1779.70 1765.85 1746.06 1717.49 1688.34 1700.21 1712.68 1692.17 1687.92 1660.05 1654.34 420.77 399.31 373.55 392.10 443.40 480.61 487.28 482.38 461.24 425.03 408.16 401.05 421.69 393.65 375.75 378.01 376.55 380.21 380.38 371.82 376.78 369.65 360.23 336.11 304.97 302.62 -17.56 -17.83 -28.02 -21.45 -11.71 -12.42 -31.22 -46.70 -55.75 -53.42 -42.43 -45.71 -56.62 -118.96 -115.75 -112.13 -101.67 -106.93 -116.09 -124.00 -122.46 -117.50 -123.78 -124.76 -126.62 -122.82 -225.06 -219.63 -201.40 -203.49 -199.08 -197.59 -194.16 -197.19 -191.43 -197.03 -194.54 -200.49 -203.30 -212.20 -216.64 -216.15 -223.60 -223.28 -229.94 -229.53 -229.05 -228.48 -235.76 -230.12 -227.07 -236.98 -219.61 -217.98 -221.19 -217.89 -219.82 -223.08 -221.40 -218.58 -222.63 -221.88 -243.71 -260.76 -278.95 -316.18 -421.40 -508.64 -514.31 -500.27 -481.23 -445.67 -454.99 -441.64 -433.37 -438.75 -460.71 -473.29 -492.88 -521.73 -577.57 -630.04 -701.44 -703.47
1257.10 1262.46 1192.75 1109.59 1096.15 1093.92 1068.26 1049.65 1044.07 1060.02 1111.58 1144.44 1167.65 1761.78 1776.09 1787.07 1771.51 1757.71 1785.47 1788.90 1791.18 1747.75 1748.31 1716.39 1690.46 1687.78 462.74 434.79 449.72 464.92 519.99 515.36 509.47 479.37 446.70 398.92 389.22 400.24 411.78 383.62 370.81 368.22 369.48 362.75 371.96 364.39 354.48 332.80 327.80 313.12 303.58 288.28 -13.37 -25.09 -34.05 -24.05 -33.40 -37.33 -39.03 -50.65 -53.82 -54.83 -60.21 -58.84 -68.66 -119.80 -124.37 -120.42 -118.10 -112.84 -118.34 -122.12 -118.78 -115.99 -115.91 -112.80 -120.22 -124.64 -219.72 -209.45 -201.53 -196.80 -189.31 -185.63 -193.87 -192.38 -194.66 -192.46 -194.59 -198.04 -203.07 -208.50 -220.84 -220.69 -225.21 -231.92 -225.61 -226.70 -229.87 -232.04 -236.81 -229.78 -229.14 -237.62 -214.32 -222.76 -222.21 -219.04 -224.01 -219.75 -222.13 -219.36 -219.34 -215.60 -216.43 -244.03 -274.32 -312.29 -371.21 -501.45 -480.78 -453.12 -432.22 -425.79 -420.15 -416.54 -423.47 -421.45 -445.65 -463.22 -468.37 -510.92 -556.51 -630.29 -636.52 -634.25
1256.41 1261.60 1193.54 1102.46 1081.53 1066.97 1055.40 1044.27 1030.95 1053.12 1087.29 1145.59 1159.21 1742.94 1734.00 1742.75 1771.05 1797.21 1819.03 1838.08 1810.56 1752.17 1748.90 1730.71 1719.13 1721.03 504.04 486.34 482.45 543.61 535.63 532.12 487.44 472.99 422.00 377.96 368.44 376.02 403.83 369.12 356.46 352.15 336.32 352.40 355.03 358.88 337.96 318.15 301.30 299.75 295.09 286.35 -20.05 -23.58 -31.25 -43.30 -51.28 -50.62 -58.44 -53.83 -57.31 -54.28 -53.21 -64.34 -71.12 -117.01 -129.98 -123.73 -120.32 -121.60 -123.11 -117.05 -116.73 -101.25 -99.96 -104.55 -111.76 -106.77 -207.15 -202.56 -196.81 -191.92 -193.41 -189.07 -185.90 -186.87 -191.40 -197.52 -203.98 -207.04 -205.92 -215.37 -216.37 -225.86 -225.07 -225.42 -225.60 -221.78 -226.13 -226.47 -234.73 -239.52 -235.31 -232.81 -214.70 -219.89 -215.26 -220.16 -220.85 -216.15 -221.75 -222.89 -222.19 -217.04 -219.53 -234.32 -260.96 -231.70 -362.24 -405.74 -453.32 -419.86 -409.05 -385.19 -393.05 -391.68 -404.77 -420.06 -424.21 -440.38 -456.01 -499.35 -524.03 -573.81 -592.77 -589.46
1247.09 1243.19 1171.31 1069.60 1070.49 1037.88 1031.12 1030.24 1038.17 1065.82 1076.93 1119.61 1130.72 1701.68 1708.80 1705.62 1775.00 1814.18 1824.30 1835.90 1800.27 1771.58 1752.45 1712.24 1703.67 1726.02 509.56 514.40 535.04 554.52 570.16 519.65 449.06 434.92 392.64 358.74 353.81 355.46 351.90 333.51 318.96 323.70 309.29 325.61 333.56 328.54 315.84 290.75 284.90 278.43 279.48 274.47 -17.21 -26.23 -33.38 -43.67 -43.51 -53.18 -61.15 -52.42 -44.85 -57.77 -60.93 -70.99 -60.05 -105.96 -111.00 -119.72 -111.39 -105.22 -106.48 -111.60 -103.09 -94.98 -95.92 -92.12 -104.62 -94.74 -192.08 -197.23 -193.55 -190.33 -192.63 -191.20 -191.92 -198.58 -198.74 -200.70 -204.53 -211.81 -211.07 -226.87 -223.47 -223.62 -224.30 -220.31 -224.86 -228.29 -222.79 -231.25 -231.33 -232.48 -235.43 -234.38 -217.78 -211.64 -216.02 -213.73 -221.49 -218.06 -219.53 -214.14 -217.78 -221.27 -215.55 -230.01 -243.28 -232.87 -278.66 -330.76 -417.97 -381.07 -376.51 -365.18 -362.23 -366.59 -373.66 -403.27 -411.21 -432.26 -453.75 -479.56 -498.10 -533.50 -557.26 -556.26
1247.83 1252.43 1184.21 1066.63 1034.97 1034.05 1029.39 1016.72 1027.20 1054.03 1064.08 1078.11 1072.44 1669.78 1671.81 1705.54 1729.95 1796.54 1807.24 1790.01 1768.39 1748.08 1712.90 1694.64 1675.86 1691.44 504.96 509.03 526.83 559.24 572.34 554.58 503.05 416.54 393.34 357.85 348.38 338.45 350.95 320.99 319.47 308.21 309.95 308.57 320.71 303.23 292.55 290.43 276.39 269.86 268.54 271.57 -20.32 -32.64 -43.39 -35.51 -39.01 -42.62 -49.69 -41.52 -42.58 -48.96 -52.99 -58.05 -55.81 -93.53 -108.46 -112.35 -98.06 -93.18 -96.14 -90.52 -84.77 -87.23 -88.22 -87.21 -86.87 -94.74 -186.69 -188.57 -195.46 -189.58 -194.31 -190.10 -193.73 -198.60 -202.20 -202.66 -210.24 -214.25 -222.66 -223.51 -225.70 -228.01 -220.29 -221.34 -228.55 -222.30 -226.59 -232.12 -230.57 -232.29 -238.18 -230.81 -217.41 -211.38 -219.03 -219.53 -218.90 -222.19 -220.30 -221.16 -225.56 -212.51 -222.44 -223.61 -241.30 -221.07 -276.57 -319.75 -362.28 -353.38 -329.21 -331.70 -343.76 -352.47 -375.00 -384.01 -406.72 -426.58 -457.09 -480.37 -508.47 -564.75 -546.02 -545.82
1307.95 1303.77 1190.81 1067.16 1057.03 1043.67 1046.27 1045.31 1033.04 1015.06 1027.76 1038.49 1047.46 1625.55 1655.37 1682.48 1716.29 1732.63 1718.50 1705.84 1694.55 1693.47 1665.90 1650.32 1638.93 1674.05 476.35 497.26 515.68 536.21 576.19 545.20 476.65 419.67 396.65 361.99 351.79 341.03 339.78 305.80 297.28 287.32 290.50 296.44 297.99 294.07 280.58 270.37 275.62 267.27 268.62 270.90 -34.18 -39.80 -36.60 -24.78 -16.86 -20.50 -31.26 -42.32 -25.60 -37.62 -44.73 -33.81 -37.48 -99.64 -105.05 -103.14 -96.44 -91.83 -74.67 -85.79 -85.33 -90.31 -83.24 -87.53 -90.12 -93.82 -187.68 -192.93 -189.52 -193.18 -195.85 -200.14 -199.85 -205.22 -203.65 -205.81 -214.13 -219.54 -224.41 -230.39 -225.94 -224.20 -225.75 -224.58 -223.14 -224.91 -235.74 -235.39 -240.39 -232.95 -233.97 -235.01 -215.40 -219.89 -221.65 -218.04 -219.02 -222.70 -220.48 -221.93 -216.57 -224.84 -218.27 -218.98 -222.84 -215.09 -241.79 -270.97 -306.61 -301.14 -313.20 -293.63 -298.18 -306.34 -322.96 -370.03 -387.67 -434.62 -448.92 -487.58 -533.68 -583.55 -579.39 -582.45
1268.62 1258.28 1189.44 1073.16 1067.41 1078.51 1093.90 1067.74 1041.58 1029.37 1014.85 1022.93 1021.04 1611.62 1643.09 1659.39 1671.80 1667.68 1670.81 1674.67 1675.39 1663.76 1626.27 1618.99 1622.05 1644.83 467.83 481.82 469.86 506.03 542.59 526.02 481.99 420.83 395.11 372.39 376.66 340.61 341.32 312.23 307.19 294.55 291.32 291.61 281.57 279.09 276.20 270.11 268.79 268.66 266.07 275.56 -33.02 -34.88 -30.47 -26.12 -11.23 -17.37 -18.39 -25.04 -14.29 -19.83 -21.52 -23.45 -33.97 -88.04 -95.24 -92.63 -84.25 -75.87 -76.70 -69.19 -77.03 -88.46 -85.56 -84.18 -92.98 -98.23 -188.61 -190.21 -196.57 -191.90 -195.47 -208.50 -209.81 -204.53 -207.05 -204.67 -205.75 -221.04 -225.33 -231.69 -232.21 -225.03 -230.11 -233.06 -235.89 -235.28 -230.06 -236.39 -234.55 -228.93 -233.28 -234.21 -221.75 -218.52 -218.52 -212.86 -224.55 -220.45 -221.12 -219.41 -217.90 -227.17 -220.81 -221.02 -220.99 -193.79 -233.63 -269.33 -296.81 -290.31 -262.09 -280.70 -267.65 -285.26 -305.87 -321.11 -387.32 -410.75 -441.47 -539.67 -547.14 -587.77 -637.85 -634.83
1297.72 1292.88 1315.51 1132.57 1110.93 1124.98 1111.05 1100.70 1049.87 1026.09 1024.02 1013.30 1018.95 1602.75 1638.49 1643.57 1654.33 1654.01 1646.48 1657.90 1688.88 1675.18 1636.67 1617.62 1601.65 1620.87 435.14 434.13 432.23 476.51 525.95 496.64 496.83 448.48 407.81 415.05 441.52 402.25 380.23 344.81 342.00 325.90 305.95 305.27 294.02 290.84 289.96 284.37 280.40 277.60 296.45 287.73 -16.40 -29.74 -21.84 -16.07 -9.02 -1.24 3.00 -6.25 -19.10 -9.75 -7.22 -11.32 -28.14 -81.01 -88.57 -84.78 -85.44 -69.87 -69.71 -65.21 -71.52 -84.47 -85.65 -89.28 -97.44 -98.90 -201.23 -196.51 -200.53 -202.45 -204.96 -212.04 -218.88 -216.57 -208.32 -200.51 -209.50 -213.05 -228.74 -233.10 -226.51 -228.43 -236.29 -231.66 -234.05 -236.94 -234.53 -229.66 -234.14 -234.13 -235.91 -232.44 -218.05 -214.90 -222.13 -218.56 -218.61 -219.25 -217.28 -219.61 -224.29 -219.06 -220.67 -218.31 -222.05 -188.52 -226.27 -255.03 -265.33 -235.22 -247.54 -231.90 -258.37 -248.95 -281.68 -312.81 -366.97 -403.42 -474.47 -541.62 -596.20 -621.61 -651.09 -648.11
1365.60 1365.36 1357.08 1175.36 1129.63 1146.11 1138.33 1091.93 1047.26 1035.04 1010.37 998.79 1004.16 1593.84 1611.85 1607.89 1623.57 1627.98 1642.53 1672.35 1695.89 1700.64 1650.79 1612.08 1600.64 1592.17 406.44 411.94 415.38 461.54 498.56 514.83 490.57 465.65 443.11 443.08 449.98 441.58 426.19 377.30 373.63 346.26 323.58 309.95 300.77 296.30 300.99 296.40 292.38 290.13 300.91 315.47 12.11 7.91 7.55 2.05 5.71 17.18 16.23 1.37 -7.35 -8.40 7.85 4.01 -27.10 -72.61 -64.34 -61.42 -71.38 -61.91 -70.85 -66.80 -77.22 -80.99 -90.53 -100.57 -102.84 -104.69 -203.25 -207.14 -196.53 -207.82 -213.13 -221.87 -218.66 -212.71 -215.73 -211.38 -209.65 -217.81 -223.57 -234.09 -228.87 -229.88 -232.30 -230.19 -231.60 -229.44 -233.66 -227.79 -225.07 -227.07 -231.09 -232.88 -216.49 -216.20 -216.54 -211.89 -216.13 -217.31 -219.55 -225.35 -215.93 -218.31 -217.66 -220.42 -219.81 -183.13 -201.14 -213.17 -203.63 -205.71 -216.30 -225.86 -224.13 -226.84 -249.80 -278.54 -336.64 -386.12 -476.49 -523.86 -585.24 -625.07 -636.93 -629.05
1399.84 1402.06 1303.93 1189.41 1201.49 1143.93 1130.85 1079.50 1048.40 1021.34 998.14 995.20 994.56 1584.82 1597.78 1595.78 1587.89 1618.69 1635.80 1663.47 1690.08 1691.05 1679.58 1641.07 1609.43 1587.38 392.53 398.74 412.11 454.75 486.76 509.67 504.96 493.69 494.42 492.22 496.86 472.83 448.00 397.40 390.28 357.81 317.69 309.38 312.99 319.64 308.05 307.14 302.20 300.47 311.99 322.83 36.96 33.34 15.91 9.79 22.91 19.44 24.65 14.88 11.12 14.71 13.43 3.86 2.25 -58.87 -62.51 -67.51 -65.15 -71.83 -68.39 -69.68 -77.66 -86.98 -91.94 -101.37 -100.18 -96.55 -205.84 -210.17 -217.57 -213.07 -222.32 -224.34 -222.82 -230.27 -218.66 -221.01 -214.23 -225.99 -226.38 -233.23 -226.79 -226.61 -227.22 -223.42 -225.18 -228.36 -227.94 -231.46 -227.30 -230.00 -226.44 -229.60 -214.65 -213.28 -212.37 -226.03 -220.97 -219.98 -223.22 -218.23 -219.14 -217.13 -221.05 -222.27 -215.31 -170.84 -167.99 -193.41 -185.45 -180.26 -188.61 -189.51 -193.63 -197.05 -220.37 -257.23 -301.05 -334.95 -425.27 -513.79 -533.17 -593.22 -599.45 -598.76
842.33 839.94 736.62 702.66 694.30 631.85 571.56 530.66 490.98 484.55 460.81 446.27 431.95 228.59 219.41 219.98 227.38 248.92 274.89 307.73 310.63 330.28 298.37 282.66 251.26 241.88 175.46 188.65 227.13 255.66 265.78 272.61 263.88 259.74 272.22 291.25 288.12 276.50 267.74 408.83 373.76 339.92 319.32 307.03 306.46 316.05 305.79 295.69 279.77 278.53 287.40 298.12 60.97 62.87 56.52 60.28 54.46 56.40 61.56 56.91 58.18 51.48 51.47 39.92 39.68 -70.15 -67.87 -77.02 -80.55 -79.77 -90.66 -83.52 -96.95 -103.56 -106.83 -117.96 -115.87 -109.30 -182.93 -186.70 -184.08 -198.74 -200.37 -211.58 -208.55 -210.02 -200.73 -204.51 -202.81 -208.02 -206.51 -214.66 -210.62 -207.33 -216.44 -213.07 -216.98 -219.65 -222.34 -222.25 -219.13 -221.78 -220.48 -225.38 -327.78 -319.92 -329.45 -327.77 -330.39 -330.56 -330.63 -327.68 -332.63 -328.49 -325.68 -327.93 -327.71 -177.22 -176.21 -176.17 -173.17 -174.40 -173.27 -174.53 -174.89 -181.57 -201.57 -235.48 -248.01 -283.01 -384.38 -481.02 -512.91 -540.75 -546.31 -554.60
893.05 897.22 866.45 740.31 756.22 689.00 629.12 567.12 524.26 499.14 480.29 465.85 441.65 233.29 228.16 219.81 212.76 223.27 250.65 282.04 293.14 294.44 281.28 247.66 242.51 234.79 173.30 214.67 220.32 246.56 262.04 248.90 240.30 235.62 243.91 278.89 287.57 282.53 278.77 426.46 409.48 364.75 339.69 321.24 339.98 349.80 337.59 318.90 307.44 307.21 290.38 304.99 60.55 70.88 58.38 50.25 59.29 52.97 52.19 48.92 53.86 59.03 61.72 64.24 47.27 -52.47 -53.77 -72.39 -71.46 -85.42 -81.98 -85.13 -86.92 -93.82 -103.20 -111.74 -113.77 -111.80 -177.54 -179.19 -189.76 -182.98 -197.20 -199.49 -210.52 -211.61 -210.17 -211.03 -211.94 -199.65 -203.37 -206.74 -208.10 -217.10 -224.11 -220.41 -219.47 -222.36 -218.01 -229.88 -223.98 -223.53 -218.50 -222.37 -332.29 -332.77 -335.26 -327.62 -335.41 -330.76 -336.22 -336.30 -329.95 -324.33 -331.95 -336.10 -331.02 -171.73 -174.62 -177.80 -175.50 -174.58 -175.77 -178.77 -172.26 -178.99 -180.93 -207.39 -240.23 -272.00 -366.08 -434.28 -434.90 -486.89 -494.70 -494.15
1005.34 995.01 894.33 792.03 773.52 702.45 642.70 589.86 538.32 517.74 514.83 490.53 474.47 245.36 225.42 210.60 215.45 224.89 252.14 257.20 260.63 251.63 263.05 241.40 234.27 221.71 179.92 203.60 218.58 222.27 222.02 224.86 217.86 222.39 237.70 252.12 255.46 264.77 273.71 433.71 423.79 385.41 346.91 345.44 343.78 358.02 353.62 339.16 323.08 328.58 305.54 312.25 71.34 65.89 59.46 50.19 60.72 48.02 49.87 44.73 40.71 57.58 61.74 70.96 58.42 -43.73 -52.51 -65.64 -69.37 -81.93 -83.60 -86.55 -98.45 -91.82 -112.15 -119.20 -118.78 -114.72 -176.11 -181.52 -189.50 -195.59 -193.94 -198.20 -206.42 -205.98 -205.20 -203.53 -200.20 -197.40 -195.48 -205.84 -211.63 -218.52 -221.06 -214.32 -215.83 -219.52 -223.95 -219.51 -222.79 -221.99 -220.87 -218.36 -331.30 -335.47 -326.47 -330.32 -327.47 -336.33 -329.86 -329.32 -333.35 -336.69 -328.27 -326.69 -336.61 -173.97 -169.02 -168.50 -171.54 -176.03 -170.25 -174.48 -175.01 -170.96 -174.90 -190.84 -201.70 -268.69 -299.57 -392.36 -391.32 -430.59 -445.28 -445.47
971.80 976.53 975.96 803.02 788.11 741.94 660.54 618.09 578.45 548.67 528.87 496.09 476.83 241.52 224.90 212.18 209.85 231.05 239.86 254.08 249.36 237.38 231.60 225.65 221.74 226.19 174.26 215.30 211.64 220.51 211.24 187.26 186.19 215.00 209.72 209.63 212.45 229.23 259.18 427.38 438.55 404.22 380.44 369.77 359.60 363.84 358.43 344.16 344.57 327.24 326.53 310.09 63.75 56.69 48.41 52.78 52.42 45.75 40.44 30.49 26.59 31.86 45.30 55.60 54.68 -45.19 -54.60 -75.78 -75.52 -83.12 -88.84 -94.03 -95.32 -101.92 -112.34 -110.78 -119.82 -123.79 -191.68 -189.18 -184.70 -201.05 -195.96 -197.30 -193.38 -201.69 -206.71 -198.85 -194.65 -203.64 -200.06 -213.14 -218.67 -215.90 -215.17 -214.96 -209.25 -223.38 -220.85 -217.09 -223.11 -215.61 -224.16 -215.78 -327.10 -325.78 -331.32 -330.55 -332.18 -325.26 -331.42 -329.19 -329.88 -333.49 -332.60 -330.13 -333.04 -176.56 -175.76 -170.15 -168.68 -172.66 -173.00 -169.55 -171.63 -171.84 -170.65 -174.81 -189.70 -204.70 -231.30 -329.29 -341.21 -393.65 -383.50 -393.59
951.32 952.44 871.22 826.53 783.24 722.31 632.92 579.30 564.62 541.53 514.67 501.38 479.90 250.52 232.15 225.94 224.03 216.09 227.79 232.19 219.97 226.11 226.84 214.25 221.11 233.77 186.86 210.71 225.45 205.21 185.81 174.72 178.94 195.75 195.36 186.93 191.23 201.40 251.36 427.07 440.24 410.26 387.15 371.91 360.27 356.20 343.71 340.56 335.17 326.11 316.88 310.86 48.84 48.72 43.04 36.05 37.27 31.85 24.56 26.36 29.85 24.60 45.51 45.82 45.13 -46.60 -69.43 -75.61 -90.62 -81.26 -92.78 -101.36 -99.33 -96.18 -98.91 -110.11 -116.92 -128.92 -191.48 -190.42 -203.48 -205.50 -201.39 -200.75 -195.95 -201.65 -198.52 -190.86 -198.17 -200.97 -204.20 -218.48 -216.39 -214.53 -212.72 -210.83 -210.98 -217.37 -223.00 -223.41 -217.08 -221.38 -212.56 -221.28 -327.36 -328.91 -329.27 -330.98 -331.57 -331.69 -333.06 -327.65 -337.62 -333.59 -332.76 -329.63 -333.10 -176.77 -171.88 -164.71 -168.06 -168.14 -166.22 -164.25 -167.37 -174.43 -175.84 -168.31 -179.57 -176.78 -179.49 -244.21 -274.10 -307.86 -340.52 -334.36
946.75 941.59 864.61 773.94 757.69 673.40 572.58 534.63 507.32 506.49 504.87 471.78 471.12 230.55 251.79 225.34 217.02 208.71 207.97 205.40 211.43 212.45 214.25 209.20 227.57 226.18 191.66 205.20 209.93 203.45 184.52 153.94 158.54 173.18 171.86 176.25 199.50 204.19 242.64 432.12 424.54 413.06 376.35 366.14 355.64 350.66 342.20 331.88 329.16 316.47 312.70 296.97 46.92 43.58 46.14 36.70 43.40 36.09 35.61 31.43 23.43 14.61 29.83 46.86 45.78 -49.02 -59.72 -76.52 -78.42 -93.12 -91.05 -92.08 -92.30 -104.25 -94.19 -109.82 -117.89 -123.69 -199.61 -189.55 -197.30 -199.24 -204.27 -203.62 -203.35 -201.20 -193.87 -198.56 -192.09 -193.66 -206.59 -218.90 -217.21 -216.67 -213.28 -207.78 -220.06 -217.17 -219.38 -217.12 -219.34 -218.34 -211.45 -212.89 -319.13 -327.19 -330.86 -330.36 -328.89 -325.35 -330.63 -336.97 -333.46 -327.67 -324.72 -329.68 -331.51 -165.68 -169.01 -162.25 -157.18 -162.82 -165.72 -159.14 -161.57 -165.85 -169.30 -178.07 -172.78 -174.76 -177.70 -195.07 -205.46 -242.85 -271.21 -271.15
865.76 869.56 816.18 721.12 655.30 611.56 553.01 523.77 506.37 476.75 454.52 457.12 462.07 265.74 264.36 251.70 227.78 211.72 207.56 209.76 212.51 204.99 193.13 207.69 216.15 222.85 155.02 190.56 182.27 184.03 164.49 158.45 148.73 158.70 163.32 187.41 203.81 238.25 242.54 411.43 408.97 377.14 365.62 352.44 340.39 333.45 320.91 323.16 323.32 316.94 299.74 291.12 49.77 53.80 50.36 53.72 50.79 57.39 45.93 40.32 21.96 15.32 19.23 34.30 43.75 -51.40 -50.33 -63.03 -76.93 -78.67 -82.48 -80.94 -84.38 -81.98 -91.56 -106.96 -121.75 -122.48 -188.77 -198.81 -198.68 -194.41 -206.10 -204.48 -198.95 -197.69 -194.71 -196.99 -198.39 -205.39 -205.61 -208.80 -202.60 -210.93 -210.75 -218.87 -217.27 -212.50 -216.29 -216.08 -208.03 -211.63 -212.20 -218.57 -322.46 -324.68 -336.39 -324.67 -333.78 -336.40 -327.62 -329.17 -334.57 -333.35 -329.86 -330.87 -328.50 -172.95 -171.95 -161.48 -157.84 -149.95 -154.34 -155.34 -159.91 -164.01 -161.60 -170.56 -178.42 -169.48 -177.33 -190.59 -183.50 -216.69 -221.50 -221.06
786.67 786.70 776.89 717.02 662.87 614.15 556.44 562.67 529.39 491.35 447.13 448.04 468.33 280.77 296.57 256.32 243.24 230.06 235.22 230.95 224.42 215.57 208.28 202.20 209.10 219.62 145.01 139.03 166.69 157.78 156.92 146.29 144.98 146.06 147.06 168.84 211.23 218.24 226.35 396.92 386.51 363.64 347.91 345.36 323.81 333.41 317.70 317.59 312.13 305.23 308.08 304.43 67.98 72.53 68.58 69.20 57.88 52.98 54.87 44.86 28.47 17.71 13.22 20.38 41.79 -60.39 -55.63 -65.09 -63.50 -69.07 -73.23 -76.39 -85.83 -87.57 -93.42 -100.87 -116.74 -122.37 -183.09 -183.95 -188.52 -197.22 -198.75 -190.90 -188.80 -194.25 -183.85 -193.98 -202.54 -203.96 -200.36 -203.19 -203.54 -204.42 -211.61 -211.69 -205.16 -200.94 -209.01 -204.50 -206.88 -207.18 -209.70 -214.25 -321.55 -330.38 -329.69 -329.76 -333.99 -329.87 -336.54 -329.74 -330.51 -332.04 -332.95 -325.51 -330.34 -173.24 -168.09 -160.71 -167.15 -152.95 -152.33 -147.15 -147.81 -162.39 -168.77 -168.37 -166.00 -174.05 -174.42 -176.41 -177.61 -193.90 -223.35 -219.82
705.64 707.47 749.34 691.37 681.36 647.14 619.85 612.66 579.65 506.42 452.13 471.78 511.94 325.83 314.63 293.26 250.44 246.85 257.80 263.07 243.21 232.84 203.54 202.80 195.00 202.68 123.75 129.38 144.17 151.11 147.30 146.09 138.07 142.91 141.05 150.20 182.73 212.30 220.97 391.53 377.06 367.65 341.26 333.80 330.36 324.63 323.18 306.29 310.50 319.09 315.88 306.51 76.58 81.20 71.49 65.53 54.94 58.75 58.68 49.04 39.20 24.60 13.11 6.92 23.99 -57.93 -52.20 -59.82 -67.72 -68.85 -76.33 -80.65 -83.42 -84.40 -92.63 -102.44 -110.98 -110.24 -173.10 -173.10 -186.63 -181.22 -188.34 -186.02 -182.59 -178.39 -178.05 -197.20 -200.43 -202.21 -192.10 -204.04 -202.66 -205.31 -204.03 -205.13 -194.93 -199.35 -200.41 -201.99 -202.16 -202.80 -206.68 -212.49 -322.55 -328.00 -328.95 -324.40 -329.80 -332.73 -332.45 -327.71 -326.09 -335.66 -329.12 -323.73 -323.89 -171.19 -174.03 -172.86 -158.05 -147.95 -140.63 -139.49 -146.30 -151.43 -159.62 -170.83 -166.03 -172.57 -179.25 -176.40 -174.75 -189.41 -170.64 -173.03
775.95 774.85 718.50 686.65 682.44 684.90 667.99 639.07 630.42 566.00 516.42 504.32 530.40 333.26 323.78 301.18 270.91 249.77 270.98 285.71 260.97 240.79 217.59 204.44 196.50 198.03 123.62 119.36 124.55 138.33 145.34 148.39 134.15 137.15 139.21 144.15 179.22 199.98 212.38 385.49 377.29 352.80 347.36 335.56 332.17 323.92 324.53 328.34 332.04 324.27 332.59 328.31 85.77 77.76 81.97 68.90 57.79 54.70 43.45 48.47 39.80 42.42 23.69 14.35 4.53 -68.07 -60.56 -56.90 -60.55 -71.12 -77.56 -86.35 -87.42 -90.17 -99.94 -111.16 -107.43 -103.43 -160.66 -160.08 -166.51 -171.39 -170.02 -178.85 -177.02 -180.56 -186.26 -194.83 -199.72 -190.77 -188.76 -196.32 -194.52 -192.93 -202.63 -199.09 -203.04 -195.23 -204.68 -197.02 -203.29 -211.05 -212.68 -212.32 -326.33 -328.65 -324.93 -327.23 -325.43 -319.71 -327.03 -327.89 -329.19 -327.51 -329.28 -323.15 -326.02 -175.71 -170.65 -165.78 -157.05 -152.30 -152.76 -143.92 -143.43 -158.43 -164.38 -165.27 -170.24 -171.07 -175.66 -175.05 -178.57 -166.82 -168.21 -172.79
769.24 770.87 733.14 676.49 669.68 689.68 678.30 660.72 616.99 621.62 539.56 531.16 541.53 331.86 314.04 281.01 260.28 255.80 279.80 303.79 275.56 257.13 235.57 218.93 210.24 197.94 125.82 118.00 118.78 120.55 128.56 124.40 120.55 127.61 141.37 140.70 176.17 191.02 219.40 396.80 388.55 374.28 361.53 361.81 340.84 353.74 349.72 350.36 335.16 342.41 333.05 329.03 85.49 74.59 74.98 62.19 47.64 41.53 35.43 31.69 39.25 44.53 29.70 9.49 -5.44 -76.30 -68.40 -60.01 -59.22 -65.11 -68.79 -81.51 -94.57 -93.10 -98.94 -104.39 -99.43 -99.30 -158.83 -167.83 -167.41 -173.03 -173.53 -165.51 -177.15 -184.06 -190.58 -188.15 -197.32 -197.60 -186.80 -192.51 -187.56 -189.56 -197.62 -198.78 -198.28 -195.46 -192.64 -200.54 -205.70 -201.66 -211.85 -212.03 -323.86 -330.11 -326.82 -323.23 -327.69 -317.98 -319.05 -322.97 -329.29 -330.58 -334.74 -328.37 -328.29 -166.99 -165.74 -164.34 -151.87 -147.23 -150.35 -136.13 -141.71 -149.14 -156.57 -163.56 -174.69 -175.65 -172.26 -175.06 -176.54 -170.16 -171.77 -173.99
748.52 749.43 714.92 651.08 649.80 677.79 695.65 680.64 680.01 630.72 587.95 558.29 587.28 347.41 319.46 283.31 275.13 273.10 319.81 327.40 297.94 280.05 241.46 218.97 218.42 217.02 135.08 139.51 122.04 110.49 122.66 115.61 117.73 131.94 137.31 158.92 197.95 208.51 209.03 398.13 402.39 386.97 380.85 363.56 372.24 376.14 383.67 360.65 346.21 339.40 341.41 333.04 76.84 68.51 54.79 47.95 51.50 36.57 20.74 18.69 21.66 30.79 20.72 4.48 -6.01 -88.43 -72.35 -55.96 -61.01 -57.33 -68.25 -72.70 -86.72 -87.49 -84.61 -89.84 -85.95 -85.18 -153.51 -162.13 -165.23 -165.45 -171.32 -176.95 -185.44 -182.13 -189.97 -194.43 -189.04 -183.89 -183.48 -187.22 -192.93 -186.54 -191.69 -190.65 -188.68 -187.96 -192.32 -193.37 -198.79 -203.71 -208.75 -214.06 -323.23 -326.59 -325.97 -331.75 -319.62 -334.65 -321.67 -321.54 -323.64 -322.68 -329.80 -325.61 -321.89 -164.29 -164.98 -149.32 -150.10 -144.60 -141.54 -140.33 -149.51 -152.36 -158.37 -167.61 -167.56 -172.42 -173.28 -178.01 -173.18 -169.17 -164.82 -165.91
1012.59 1012.93 965.56 929.90 920.06 930.82 962.58 958.52 979.73 930.37 888.20 896.03 880.18 1169.45 1125.54 1094.82 1056.90 1093.06 1135.19 1127.36 1108.88 1065.71 1045.50 1027.37 1004.80 993.10 271.38 268.51 243.89 233.98 221.31 226.40 231.66 256.89 262.44 291.38 319.36 313.87 330.08 459.37 473.02 468.77 467.67 448.95 452.62 465.44 460.11 454.99 428.68 414.89 418.50 417.91 77.55 56.52 44.08 44.19 33.32 28.30 8.86 11.90 9.40 18.59 12.36 -6.88 -4.73 -86.25 -66.34 -62.03 -58.28 -56.23 -61.94 -57.39 -76.89 -78.37 -75.49 -79.98 -83.63 -85.47 -138.71 -144.99 -151.96 -153.92 -154.54 -164.02 -173.52 -169.23 -175.64 -174.36 -172.88 -172.35 -169.87 -159.55 -154.94 -151.86 -154.14 -154.46 -157.47 -154.31 -157.92 -161.95 -171.22 -175.59 -182.45 -179.30 -185.36 -198.09 -195.03 -199.35 -200.94 -190.84 -190.25 -186.45 -192.02 -192.57 -193.47 -190.57 -192.21 -168.27 -151.72 -153.98 -147.54 -146.06 -134.80 -137.15 -140.14 -145.22 -156.92 -161.95 -166.84 -175.26 -173.31 -166.18 -166.18 -168.16 -164.69 -169.36
995.86 990.57 989.86 906.04 911.94 927.49 948.19 958.71 973.11 948.74 918.85 924.48 905.14 1169.53 1129.90 1104.54 1092.40 1144.69 1182.29 1182.69 1152.02 1108.94 1048.55 1051.57 1029.06 1017.96 271.80 266.49 246.10 219.61 222.08 213.41 225.93 239.03 265.91 285.72 311.30 319.64 328.69 447.11 452.47 460.43 440.96 453.76 445.34 457.03 466.92 447.05 421.65 418.81 423.85 421.53 87.94 63.39 57.24 38.55 26.36 17.26 8.60 3.48 -6.76 5.00 1.30 -17.01 -17.00 -89.11 -81.87 -70.99 -67.39 -58.27 -61.70 -62.74 -67.33 -69.39 -74.16 -68.95 -86.53 -86.59 -141.39 -146.38 -151.60 -159.92 -160.01 -162.78 -167.19 -176.69 -168.58 -161.09 -168.69 -171.97 -167.49 -158.61 -152.84 -147.57 -141.22 -146.36 -152.05 -148.37 -152.32 -165.30 -170.33 -169.14 -177.14 -177.29 -183.62 -188.77 -198.65 -197.05 -196.50 -184.95 -189.33 -185.49 -187.22 -188.56 -192.96 -189.48 -186.29 -156.23 -156.00 -148.63 -140.95 -141.20 -132.64 -138.94 -137.34 -143.42 -149.48 -152.00 -158.30 -164.59 -168.89 -169.96 -170.10 -167.10 -178.06 -177.46
972.88 973.11 949.74 919.61 909.72 918.96 930.39 942.71 955.65 957.24 936.26 929.73 916.02 1213.27 1215.97 1162.53 1164.52 1157.52 1224.97 1232.79 1187.83 1177.60 1110.51 1087.72 1044.93 1027.37 283.54 273.22 244.07 227.92 223.29 217.19 213.69 236.56 256.09 277.13 302.46 315.29 324.45 433.11 412.52 435.19 425.21 435.59 449.83 449.32 439.74 435.39 413.91 419.30 415.59 422.07 85.97 80.70 65.26 52.08 42.22 32.03 23.75 5.80 -5.33 -5.91 -13.25 -18.51 -10.53 -91.78 -95.56 -83.04 -67.18 -61.03 -49.23 -55.30 -61.46 -62.43 -68.04 -78.83 -81.01 -85.66 -135.10 -146.66 -154.94 -155.28 -160.48 -161.90 -158.09 -160.11 -157.90 -160.01 -163.35 -168.82 -156.86 -151.17 -150.91 -149.76 -149.47 -155.11 -148.33 -153.81 -155.33 -160.06 -164.46 -168.47 -163.99 -170.84 -181.28 -189.02 -185.24 -190.42 -189.47 -193.94 -186.80 -185.36 -179.90 -184.64 -182.45 -184.60 -183.21 -154.26 -156.26 -155.26 -145.13 -144.64 -137.30 -137.05 -141.69 -137.89 -148.36 -152.54 -152.93 -154.83 -156.96 -166.91 -166.36 -168.15 -156.74 -159.04
966.37 964.88 940.19 914.71 912.16 922.15 928.05 929.17 927.86 930.50 922.97 919.01 929.99 1232.06 1223.26 1211.79 1204.66 1230.34 1245.99 1246.82 1243.39 1195.31 1145.70 1091.31 1032.71 1030.35 281.40 258.72 245.60 235.10 229.15 223.38 210.47 226.46 233.86 269.45 285.10 304.95 290.64 404.36 400.95 409.74 405.81 425.98 418.74 420.44 429.05 423.30 401.56 409.42 409.56 413.32 89.03 80.20 69.78 63.23 46.81 37.03 36.40 27.30 15.53 -15.05 -14.65 -8.12 -15.41 -105.54 -103.84 -99.91 -78.53 -70.36 -53.32 -59.29 -54.10 -60.76 -70.54 -76.91 -85.81 -89.63 -142.32 -148.13 -152.09 -151.77 -154.62 -156.94 -157.64 -155.11 -161.17 -156.72 -153.19 -154.67 -153.64 -158.34 -145.14 -136.51 -146.97 -145.28 -151.71 -147.29 -159.08 -149.81 -155.73 -162.70 -162.52 -170.43 -181.12 -182.77 -180.59 -183.30 -188.60 -178.28 -187.91 -178.99 -180.42 -178.67 -177.70 -183.25 -185.27 -153.34 -158.19 -156.87 -140.39 -144.99 -146.47 -142.27 -149.33 -138.60 -145.03 -145.75 -154.58 -154.67 -160.77 -160.10 -166.93 -166.65 -153.85 -156.57
945.75 943.79 945.35 907.12 906.64 920.38 930.20 925.80 921.55 919.83 913.57 918.57 919.95 1236.82 1244.44 1237.29 1235.99 1249.41 1256.32 1238.69 1233.76 1191.07 1125.20 1094.80 1039.84 1016.01 276.51 260.68 255.73 261.00 256.08 236.60 211.50 216.93 232.47 260.67 270.93 269.10 267.59 385.08 380.48 386.38 382.94 383.94 396.77 396.59 412.24 407.04 403.68 390.58 394.40 394.18 76.01 78.89 71.88 64.49 47.79 51.61 43.93 29.09 18.47 13.03 6.22 -4.72 -11.58 -125.63 -104.09 -98.72 -88.30 -68.28 -56.86 -56.02 -56.10 -65.30 -74.80 -74.13 -91.24 -100.37 -141.18 -146.48 -152.52 -154.55 -157.45 -152.13 -150.39 -150.97 -151.55 -152.21 -151.54 -149.43 -145.04 -148.02 -141.07 -148.52 -146.47 -140.93 -142.98 -149.12 -154.38 -148.97 -161.92 -161.91 -158.15 -167.06 -180.20 -188.16 -181.24 -179.43 -180.96 -178.90 -183.66 -183.46 -181.79 -177.32 -181.11 -181.84 -176.67 -159.81 -158.06 -164.69 -160.12 -150.73 -150.64 -155.35 -148.91 -144.70 -142.67 -147.97 -144.51 -147.26 -147.26 -153.59 -158.33 -148.37 -143.03 -153.16
933.60 933.30 920.76 903.67 903.02 910.82 921.65 922.36 924.25 916.78 911.50 911.91 932.95 1240.07 1240.03 1241.80 1247.87 1242.51 1249.62 1235.50 1207.67 1156.25 1128.01 1072.23 1044.55 1024.88 277.26 272.82 274.67 280.19 260.90 234.01 224.63 216.07 243.55 245.89 257.69 255.43 239.25 371.52 365.80 375.26 376.31 368.32 379.02 396.74 406.86 405.80 408.67 390.88 384.65 369.26 53.31 60.08 68.28 58.60 52.15 54.24 42.77 32.60 32.87 19.88 7.95 4.17 -22.52 -127.77 -108.02 -100.65 -91.49 -68.04 -61.67 -55.27 -61.28 -65.54 -78.53 -88.65 -91.36 -99.99 -147.27 -146.10 -155.04 -163.45 -167.62 -159.21 -166.39 -153.84 -153.93 -153.65 -151.19 -141.01 -142.14 -140.89 -138.26 -139.58 -143.66 -145.91 -149.70 -149.98 -155.14 -156.37 -162.26 -167.58 -162.43 -173.50 -183.07 -184.81 -185.11 -182.91 -186.35 -189.71 -185.39 -186.96 -178.47 -181.88 -186.24 -181.61 -188.09 -162.12 -168.37 -171.88 -159.50 -152.82 -152.51 -153.97 -151.74 -149.30 -141.08 -139.34 -140.41 -144.66 -142.95 -152.08 -144.94 -146.06 -139.82 -133.84
932.90 933.53 915.34 907.60 903.06 906.26 919.67 914.23 917.53 908.39 907.03 912.50 928.16 1241.33 1248.60 1245.47 1247.27 1249.85 1238.17 1221.54 1181.29 1158.24 1137.07 1110.86 1058.14 1021.76 295.09 290.44 284.13 286.54 249.67 243.30 219.36 213.51 218.80 225.98 229.30 228.37 215.28 358.06 354.59 360.53 365.02 357.14 368.70 396.21 403.56 410.77 406.48 396.82 382.33 382.69 46.71 51.20 65.49 58.90 46.79 35.12 38.55 37.42 32.89 14.17 -5.08 -14.83 -27.39 -133.30 -110.50 -96.43 -86.58 -68.78 -51.87 -55.13 -72.26 -72.93 -85.02 -88.93 -101.89 -109.85 -157.32 -152.33 -165.42 -172.13 -171.36 -172.42 -167.12 -160.73 -155.03 -145.25 -149.23 -142.13 -141.84 -142.78 -146.45 -147.08 -150.47 -141.66 -150.16 -152.22 -168.61 -169.08 -162.17 -176.56 -172.75 -184.80 -188.07 -191.40 -191.62 -188.05 -190.06 -191.01 -187.91 -189.44 -185.79 -184.49 -182.22 -189.51 -192.41 -169.03 -170.69 -165.52 -159.71 -156.78 -163.94 -169.55 -158.22 -155.94 -144.56 -145.35 -138.47 -137.36 -138.70 -145.49 -150.38 -147.11 -138.34 -144.75
941.83 940.70 933.30 897.64 901.09 913.80 912.51 904.67 903.12 906.62 907.39 918.60 932.11 1229.29 1230.82 1231.83 1229.65 1237.46 1238.81 1214.44 1189.42 1170.06 1158.34 1118.66 1091.42 1045.29 306.59 282.19 281.63 259.37 240.15 221.03 208.50 207.00 201.21 205.10 197.00 203.50 211.14 340.35 351.74 348.73 338.82 332.32 357.80 374.17 389.69 400.43 414.00 406.66 386.80 375.79 49.72 41.39 43.71 44.02 44.01 26.50 37.44 26.58 18.58 8.09 -6.78 -24.93 -39.11 -128.71 -110.03 -99.92 -86.80 -68.36 -79.14 -86.13 -88.29 -87.27 -92.27 -101.74 -109.53 -120.85 -168.04 -171.14 -170.62 -182.44 -189.18 -181.54 -177.78 -178.62 -166.63 -160.36 -154.87 -146.07 -146.86 -144.55 -155.49 -157.59 -156.49 -149.28 -150.33 -154.67 -166.61 -160.39 -178.50 -179.77 -187.14 -186.45 -191.87 -196.34 -192.05 -197.48 -194.23 -195.55 -191.72 -195.12 -193.69 -192.63 -191.10 -193.37 -195.83 -172.69 -173.23 -171.30 -161.23 -165.51 -159.60 -171.05 -170.33 -163.22 -151.63 -145.54 -144.81 -140.19 -141.57 -149.88 -152.78 -145.44 -145.80 -150.46
934.91 939.38 926.35 909.32 905.55 909.26 908.37 915.36 914.30 906.34 907.56 919.13 939.21 1238.42 1226.70 1220.81 1228.03 1230.62 1215.31 1194.79 1179.09 1181.69 1186.67 1130.09 1109.82 1064.44 286.16 256.50 250.39 241.27 221.11 208.59 209.51 223.42 217.57 201.29 192.13 193.95 190.18 342.79 344.81 336.40 329.00 337.26 343.37 372.74 384.89 403.14 405.87 402.17 380.44 382.93 46.21 41.83 36.82 31.05 31.72 23.81 17.13 23.41 16.80 -5.13 -15.39 -15.10 -24.66 -120.85 -109.90 -93.55 -88.56 -88.36 -101.72 -103.04 -90.76 -85.99 -100.60 -120.01 -121.93 -131.02 -176.04 -175.80 -174.21 -181.69 -190.42 -184.70 -183.75 -180.67 -174.27 -169.11 -162.95 -152.16 -151.16 -154.22 -153.83 -165.02 -158.80 -158.71 -156.63 -155.39 -166.53 -167.23 -172.49 -172.50 -180.01 -186.67 -193.72 -194.17 -194.27 -200.55 -198.90 -206.91 -199.15 -194.80 -188.65 -198.19 -194.63 -199.10 -200.22 -172.70 -174.00 -174.48 -170.25 -169.86 -173.73 -165.45 -159.98 -166.97 -160.49 -153.69 -139.42 -148.96 -143.88 -147.26 -157.36 -151.93 -154.42 -159.02
939.86 935.71 925.64 909.98 903.80 907.56 907.12 908.22 914.99 909.65 904.81 922.66 929.66 1230.34 1216.92 1209.44 1214.11 1222.25 1207.40 1191.18 1163.86 1152.36 1151.37 1132.64 1095.37 1058.37 276.38 239.19 248.64 254.56 243.51 239.65 233.56 238.23 222.81 214.36 199.68 201.95 190.63 333.90 353.39 343.35 327.80 311.63 315.59 335.81 389.56 389.84 404.98 389.74 380.95 376.65 55.40 48.59 33.08 23.89 24.10 18.80 9.00 22.52 13.07 -2.38 -4.47 -9.71 -13.33 -109.92 -116.48 -113.92 -105.98 -100.15 -117.95 -99.23 -92.48 -103.03 -104.46 -120.88 -123.19 -139.71 -184.72 -185.13 -183.13 -188.22 -194.82 -185.55 -185.01 -183.27 -178.18 -170.67 -167.64 -162.03 -163.81 -162.37 -163.11 -168.71 -162.35 -159.24 -153.22 -161.02 -156.64 -160.74 -168.13 -169.79 -170.08 -178.75 -188.72 -187.85 -197.19 -197.49 -201.46 -203.22 -197.77 -198.05 -197.86 -202.68 -194.22 -197.62 -198.59 -160.93 -168.97 -172.83 -173.26 -172.42 -174.61 -172.75 -167.20 -155.52 -160.28 -147.38 -150.58 -152.44 -148.67 -155.96 -154.11 -158.67 -164.39 -167.40
946.15 949.20 943.81 900.41 902.89 902.81 910.98 912.09 904.29 905.41 911.38 916.71 930.80 1228.39 1211.23 1206.84 1207.90 1194.95 1181.74 1169.64 1144.72 1122.24 1136.17 1130.96 1080.97 1009.22 272.14 263.32 279.92 267.20 263.70 250.06 250.25 238.05 231.11 218.74 228.84 217.97 193.45 329.53 347.66 355.50 322.72 315.88 304.38 325.81 372.91 381.63 382.65 375.30 360.42 371.40 50.09 48.78 32.97 32.76 21.77 12.99 13.05 7.15 8.09 2.08 -4.68 -8.84 -8.23 -110.54 -133.64 -126.78 -114.04 -108.24 -119.77 -111.81 -103.17 -102.91 -116.58 -117.47 -135.72 -140.52 -193.77 -194.25 -193.59 -187.34 -187.23 -188.64 -193.91 -189.29 -176.01 -172.89 -166.76 -164.55 -170.31 -172.40 -166.32 -175.62 -163.23 -161.31 -152.52 -158.53 -163.14 -171.25 -168.14 -171.26 -169.17 -178.16 -193.50 -193.47 -195.95 -197.22 -203.20 -196.65 -200.69 -202.42 -203.81 -201.09 -204.19 -200.07 -200.22 -178.47 -170.81 -174.55 -171.84 -177.07 -175.02 -173.51 -170.06 -166.07 -155.67 -152.02 -158.16 -152.71 -167.12 -156.55 -167.11 -166.85 -167.98 -169.37
949.54 955.94 929.23 909.97 902.29 899.76 903.55 900.00 902.50 904.10 909.48 915.42 923.29 1226.24 1214.82 1204.58 1205.65 1179.58 1175.74 1147.40 1124.89 1103.25 1075.67 1092.44 1037.44 1017.75 281.33 292.27 295.64 283.05 272.19 264.97 252.72 238.15 217.39 226.87 236.63 226.56 197.54 311.98 324.12 331.86 331.49 313.71 288.07 321.17 334.95 374.55 361.86 348.46 341.83 364.98 48.31 50.69 25.81 26.40 8.27 18.47 15.01 2.89 2.91 3.20 2.75 3.91 3.94 -110.11 -123.55 -132.19 -131.16 -128.53 -132.14 -131.99 -115.80 -112.85 -125.55 -125.86 -139.34 -143.61 -190.34 -193.02 -196.09 -183.71 -172.45 -178.05 -181.62 -191.81 -189.05 -179.58 -178.93 -178.70 -175.64 -180.21 -177.85 -174.78 -170.15 -157.28 -152.70 -164.55 -167.72 -179.15 -178.95 -174.19 -179.87 -175.95 -193.56 -190.56 -192.45 -195.68 -202.07 -205.27 -200.52 -201.85 -199.86 -203.26 -198.25 -202.31 -200.67 -172.62 -174.61 -169.53 -179.48 -176.40 -175.53 -165.75 -173.14 -164.88 -153.52 -158.04 -157.19 -162.70 -164.63 -166.05 -168.08 -168.45 -165.60 -169.45
208.04 197.37 187.92 163.11 171.59 157.20 160.73 153.56 160.03 159.34 173.24 177.77 183.25 182.99 169.33 165.44 151.85 134.70 125.31 109.78 77.19 28.01 17.64 9.41 -6.72 1.86 6.40 18.03 -9.77 -26.88 -52.56 -63.70 -75.79 -70.03 -80.26 -63.63 -60.11 -78.52 -117.38 -123.13 -120.88 -113.34 -106.47 -140.53 -142.72 -129.32 -115.41 -108.07 -95.53 -104.50 -103.74 -85.78 -76.62 -88.45 -99.30 -108.57 -96.27 -95.11 -101.19 -107.50 -116.39 -104.14 -98.72 -98.53 -92.89 -118.88 -140.38 -158.20 -153.39 -157.74 -160.73 -160.09 -152.16 -145.49 -146.66 -151.36 -161.48 -164.58 -167.32 -164.34 -160.45 -145.45 -146.23 -154.79 -161.58 -168.33 -173.91 -167.52 -168.18 -163.24 -167.14 -165.48 -162.57 -165.82 -159.00 -146.49 -144.69 -152.69 -160.10 -161.85 -161.17 -166.28 -161.94 -165.74 -171.80 -169.00 -170.49 -177.17 -173.88 -173.78 -175.87 -166.87 -176.73 -171.58 -176.64 -175.98 -174.95 -171.62 -174.60 -170.36 -172.17 -174.33 -165.68 -171.66 -168.88 -167.52 -164.46 -154.78 -163.29 -175.56 -169.45 -172.25 -167.49 -170.56 -176.71 -176.92
218.31 209.40 193.09 172.38 173.53 167.64 152.25 158.98 162.13 164.54 164.32 171.45 180.78 179.86 169.38 153.48 144.93 135.58 121.89 117.18 78.12 42.96 20.94 8.55 17.00 44.00 47.96 27.43 -9.57 -24.64 -53.86 -63.50 -75.45 -64.08 -43.61 -41.44 -45.57 -71.46 -97.57 -112.73 -115.11 -110.88 -116.76 -131.39 -159.37 -139.71 -144.79 -146.35 -149.03 -131.18 -125.65 -100.49 -83.54 -102.89 -115.44 -134.10 -111.34 -100.86 -82.92 -89.55 -92.21 -101.03 -91.23 -102.39 -102.52 -115.53 -138.05 -148.46 -160.79 -163.94 -166.12 -165.18 -157.88 -160.20 -164.25 -165.09 -170.60 -170.66 -167.55 -156.01 -133.99 -138.67 -138.37 -148.23 -157.11 -164.87 -171.61 -169.78 -170.39 -172.31 -165.83 -165.81 -171.47 -173.44 -157.83 -154.02 -148.34 -163.52 -166.23 -168.35 -170.60 -176.51 -174.72 -170.77 -175.13 -172.57 -171.57 -170.34 -174.84 -170.10 -170.94 -170.81 -174.56 -167.82 -169.79 -170.84 -171.36 -175.38 -170.34 -169.08 -172.05 -163.50 -170.34 -173.13 -164.54 -164.31 -164.88 -162.76 -167.03 -162.52 -169.59 -170.41 -171.34 -173.97 -165.38 -164.90
192.99 196.61 190.66 174.69 169.93 159.03 161.60 159.44 154.00 159.98 161.39 168.28 181.72 175.08 163.59 167.84 150.25 127.42 120.89 111.59 86.19 96.43 82.23 62.45 38.57 42.75 46.42 12.90 -2.03 -29.61 -57.63 -72.91 -74.61 -65.47 -34.37 -27.63 -43.73 -49.52 -80.21 -91.30 -89.02 -100.58 -101.84 -119.08 -149.61 -143.29 -154.80 -153.52 -155.88 -154.35 -147.60 -99.63 -111.49 -110.77 -138.10 -139.35 -113.62 -93.87 -87.67 -76.27 -82.66 -82.01 -91.55 -104.60 -105.62 -126.14 -133.68 -147.54 -152.37 -165.72 -163.23 -154.34 -153.36 -149.88 -147.96 -159.73 -165.15 -159.67 -164.78 -131.38 -130.95 -127.08 -133.41 -139.09 -156.25 -163.44 -167.27 -167.46 -172.25 -174.92 -166.91 -171.55 -175.52 -168.54 -161.38 -156.81 -157.23 -169.22 -166.45 -170.88 -173.30 -177.21 -175.51 -172.27 -176.13 -177.00 -175.26 -172.81 -183.65 -174.77 -170.50 -163.35 -166.16 -166.97 -173.40 -175.10 -169.52 -174.23 -178.69 -173.99 -165.31 -164.52 -168.22 -166.28 -165.92 -166.55 -162.82 -167.43 -163.33 -171.98 -173.60 -172.16 -173.30 -171.75 -169.43 -172.31
185.04 183.51 178.29 168.33 165.69 169.82 158.14 155.35 157.85 155.68 161.59 164.69 171.63 171.01 174.25 165.34 164.36 147.40 109.31 105.07 121.24 125.97 131.29 101.18 98.36 65.44 47.83 16.31 -11.46 -43.74 -50.88 -67.75 -48.11 -31.70 -11.12 -7.96 -20.95 -41.14 -66.69 -83.73 -83.25 -94.08 -98.57 -125.57 -139.01 -138.34 -137.41 -144.57 -148.14 -153.26 -158.96 -147.00 -129.67 -139.35 -152.10 -146.35 -130.90 -100.95 -88.26 -78.37 -83.79 -78.38 -86.62 -104.89 -109.07 -128.03 -139.23 -135.73 -141.80 -144.04 -147.19 -146.52 -138.05 -130.92 -144.35 -134.76 -144.13 -141.30 -131.49 -128.21 -122.40 -137.49 -137.21 -141.54 -140.03 -155.24 -160.55 -155.71 -163.16 -164.38 -165.25 -168.29 -174.77 -176.99 -169.80 -170.31 -164.97 -169.63 -173.02 -176.74 -167.69 -170.51 -173.73 -170.45 -170.40 -175.62 -176.57 -172.19 -168.65 -168.50 -172.20 -160.39 -161.85 -166.79 -171.16 -168.35 -170.17 -174.29 -178.73 -169.49 -172.06 -166.96 -165.90 -170.48 -171.56 -164.56 -161.15 -167.00 -168.74 -171.74 -166.38 -176.38 -177.53 -175.24 -172.55 -175.84
182.98 181.01 174.85 166.55 167.74 162.22 161.43 156.45 154.26 158.24 164.49 163.37 166.16 166.01 170.90 164.35 159.14 152.78 133.45 118.79 129.74 136.19 137.41 117.32 100.44 52.05 37.29 -0.47 -7.32 -35.31 -60.60 -56.25 -47.24 -34.49 -3.30 -3.60 -10.30 -37.45 -61.53 -61.52 -61.38 -90.54 -93.65 -124.53 -132.12 -123.49 -107.22 -111.48 -127.98 -150.94 -154.51 -154.16 -143.47 -135.39 -141.84 -155.36 -146.80 -130.84 -104.06 -90.22 -84.64 -76.34 -85.51 -98.25 -107.84 -119.28 -125.53 -126.52 -128.27 -122.99 -127.69 -121.92 -129.01 -126.94 -132.48 -128.98 -134.87 -124.96 -119.09 -119.11 -123.15 -131.77 -135.17 -140.41 -145.71 -147.17 -143.03 -142.69 -153.73 -161.26 -160.85 -172.54 -169.64 -174.28 -169.09 -173.66 -170.73 -170.19 -172.36 -172.40 -176.73 -171.36 -166.78 -169.01 -170.43 -176.30 -171.14 -167.37 -165.00 -161.65 -159.55 -159.14 -161.53 -162.62 -169.32 -175.59 -173.23 -173.27 -175.87 -167.89 -174.27 -173.52 -167.73 -169.26 -170.51 -168.82 -165.53 -170.69 -167.50 -170.97 -175.98 -173.93 -176.56 -184.19 -180.48 -177.42
178.62 190.25 177.94 154.20 158.34 160.47 154.91 159.07 157.88 154.63 158.56 160.40 162.79 167.82 169.38 164.97 154.26 152.92 141.92 135.44 141.22 151.62 157.85 121.58 107.25 69.65 28.44 1.37 -32.35 -40.60 -48.34 -36.03 -35.55 -23.12 -11.65 12.90 9.13 -20.30 -37.21 -50.13 -68.09 -80.32 -98.43 -113.62 -119.98 -97.24 -86.14 -103.23 -108.17 -128.27 -149.82 -127.19 -122.78 -126.51 -137.41 -159.24 -154.61 -139.25 -137.43 -97.48 -96.10 -74.14 -85.47 -95.11 -103.67 -106.81 -120.68 -112.17 -112.59 -116.83 -118.81 -116.49 -108.97 -108.78 -118.31 -118.47 -116.72 -122.52 -117.73 -128.00 -129.26 -133.09 -133.63 -139.82 -135.18 -132.80 -131.02 -133.87 -144.31 -163.47 -164.92 -167.25 -177.85 -176.80 -169.56 -168.51 -174.25 -170.86 -165.56 -167.88 -171.57 -162.69 -163.41 -165.82 -169.72 -173.07 -161.55 -161.55 -157.37 -159.84 -155.27 -163.62 -157.35 -159.93 -166.21 -172.39 -162.89 -172.50 -168.67 -175.93 -183.73 -173.80 -166.00 -167.22 -164.91 -172.81 -169.53 -168.63 -177.46 -167.46 -173.89 -174.60 -176.45 -177.22 -180.22 -174.66
182.61 181.76 168.30 166.63 158.03 156.65 155.18 151.91 156.50 159.72 160.91 164.95 162.16 169.16 167.87 166.16 158.74 155.79 145.83 147.30 144.06 152.02 142.87 122.08 109.10 82.88 41.47 3.71 -0.41 -33.70 -34.66 -27.66 5.57 -3.04 10.95 25.52 15.92 -2.54 -24.13 -34.36 -60.91 -83.88 -106.54 -113.80 -104.18 -88.86 -74.23 -97.54 -123.99 -125.53 -120.50 -105.62 -101.86 -99.43 -110.22 -141.59 -160.41 -155.14 -145.44 -129.28 -98.71 -86.73 -93.11 -95.43 -101.29 -103.46 -106.28 -111.28 -126.35 -115.66 -117.30 -111.94 -110.33 -124.92 -125.54 -128.03 -118.22 -122.77 -130.15 -137.32 -143.81 -142.58 -136.83 -143.56 -142.87 -135.01 -145.54 -147.54 -151.94 -153.60 -161.47 -168.12 -176.52 -171.38 -173.25 -167.64 -168.97 -170.46 -165.73 -165.35 -163.73 -159.56 -159.00 -161.35 -167.19 -160.48 -161.75 -158.37 -156.08 -160.12 -156.79 -161.67 -165.45 -161.99 -167.25 -165.18 -172.06 -172.20 -171.77 -169.72 -172.75 -175.29 -173.41 -169.91 -171.89 -167.66 -176.92 -166.65 -175.24 -172.65 -165.51 -176.10 -173.36 -175.76 -188.97 -187.76
181.51 181.38 169.67 167.79 166.82 157.49 157.31 158.97 155.18 150.80 153.23 162.99 161.05 155.60 158.55 155.33 161.24 153.04 149.11 156.15 158.64 153.66 148.30 130.51 107.84 96.59 59.13 15.71 -15.13 -16.44 8.42 3.92 19.90 51.06 49.83 38.57 36.09 20.60 1.76 -31.91 -57.86 -81.70 -101.32 -105.34 -88.17 -70.03 -81.92 -96.61 -100.57 -116.30 -110.45 -93.65 -89.47 -103.00 -116.41 -136.97 -156.91 -167.24 -162.36 -132.07 -107.83 -109.44 -109.58 -110.67 -112.93 -107.16 -121.45 -132.46 -130.88 -130.91 -129.28 -119.77 -111.70 -126.56 -140.50 -141.52 -138.21 -136.37 -132.02 -142.71 -138.33 -153.82 -152.78 -151.47 -145.04 -147.51 -143.23 -156.23 -156.37 -157.48 -157.60 -166.83 -173.84 -170.39 -165.91 -164.33 -160.90 -162.67 -161.75 -160.15 -158.82 -159.14 -157.86 -158.31 -153.75 -154.98 -157.68 -154.92 -155.18 -156.50 -155.45 -155.71 -168.24 -156.92 -166.32 -172.76 -166.38 -172.61 -177.17 -176.87 -177.61 -175.77 -168.80 -174.37 -172.73 -176.32 -175.57 -171.58 -174.40 -170.28 -172.24 -181.86 -182.54 -185.48 -190.68 -186.45
199.88 204.12 193.98 170.56 161.68 163.48 158.75 155.71 158.65 157.87 156.50 159.53 157.31 156.98 156.08 161.36 158.13 151.38 164.73 152.02 154.33 158.57 145.40 119.42 104.74 96.51 75.28 37.97 18.95 0.56 14.50 38.18 56.77 81.09 71.52 54.81 31.80 13.17 -1.96 -35.94 -59.92 -74.63 -73.95 -82.08 -67.51 -55.58 -72.02 -87.64 -98.48 -95.63 -72.44 -75.17 -87.95 -94.35 -122.88 -137.18 -150.79 -162.67 -160.57 -154.55 -134.02 -136.98 -123.05 -133.28 -133.48 -137.23 -132.19 -140.29 -148.37 -143.93 -144.64 -131.38 -128.71 -132.13 -157.25 -155.04 -152.14 -153.20 -153.99 -154.65 -158.82 -157.94 -162.37 -150.29 -149.00 -149.96 -155.53 -161.56 -167.09 -164.04 -164.63 -168.84 -166.22 -161.31 -159.72 -153.75 -152.96 -150.55 -155.63 -155.55 -150.48 -147.54 -149.95 -149.03 -151.85 -159.84 -152.92 -154.05 -155.27 -153.53 -155.84 -160.51 -160.92 -159.98 -166.98 -173.57 -175.13 -172.24 -173.04 -173.64 -173.10 -173.06 -172.09 -173.76 -175.54 -173.30 -176.86 -192.51 -194.46 -200.67 -202.59 -202.62 -189.85 -218.39 -221.33 -217.74
