32.47 32.63 29.10 19.22 4.34 -10.13 -18.94 -24.76 -31.80 -41.04 -51.03 -60.57 -70.68 -79.01 -81.23 -79.16 -77.75 -79.29 -82.76 -86.97 -90.46 -92.66 -96.44 -104.14 -116.09 -132.66 -150.09 -160.70 -164.88 -166.36 -166.31 -165.44 -162.86 -160.31 -160.36 -163.69 -168.51 -172.79 -176.79 -181.05 -183.80 -183.75 -181.06 -177.85 -176.64 -177.34 -178.18 -178.95 -180.52 -182.10 -186.99 -205.20 -233.57 -249.84 -252.35 -252.18 -252.29 -252.80 -254.22 -256.93 -265.73 -293.57 -350.10 -426.97 -507.03 -591.39 -681.45 -735.53 -753.83 -775.00 -812.91 -865.78 -914.27 -936.18 -942.78 -961.62 -1012.76 -1117.47 -1248.69 -1342.53 -1408.14 -1461.88 -1502.59 -1536.19 -1566.25 -1592.52 -1618.40 -1656.14 -1710.59 -1750.29 -1727.71 -1655.65 -1610.44 -1597.89 -1592.43 -1593.26 -1604.60 -1625.19 -1652.68 -1690.98 -1738.88 -1788.38 -1831.45 -1861.65 -1878.68 -1887.78 -1894.11 -1902.75 -1915.99 -1930.05 -1942.54 -1957.88 -1978.40 -2005.03 -2035.40 -2065.58 -2100.48 -2148.51 -2211.57 -2298.62 -2403.31 -2479.56 -2519.92 -2543.14 -2557.64 -2567.19 -2574.89 -2582.43 -2591.30 -2600.47 -2609.53 -2620.21 -2633.20 -2647.31 -2656.23 -2658.60
83.78 83.38 75.58 55.79 30.80 8.10 -6.92 -16.26 -25.87 -37.14 -46.68 -54.20 -63.86 -73.99 -77.42 -75.60 -75.20 -78.61 -84.08 -90.08 -95.13 -98.60 -102.94 -110.15 -120.28 -135.55 -153.42 -163.51 -164.72 -162.43 -159.78 -158.40 -156.36 -154.80 -156.89 -163.20 -169.88 -173.92 -176.11 -178.08 -179.32 -178.46 -175.56 -172.36 -170.60 -170.94 -172.42 -173.92 -175.68 -176.88 -179.12 -186.09 -195.97 -201.37 -201.61 -200.91 -200.67 -201.22 -203.00 -206.46 -215.51 -240.91 -292.54 -363.11 -435.99 -508.11 -573.15 -611.36 -635.59 -664.51 -699.93 -747.40 -796.74 -822.75 -830.24 -844.43 -896.09 -1017.79 -1175.84 -1284.74 -1356.63 -1416.26 -1458.47 -1492.78 -1528.96 -1565.55 -1599.32 -1643.71 -1710.59 -1765.95 -1739.09 -1643.17 -1584.01 -1570.41 -1564.48 -1562.35 -1570.90 -1591.27 -1620.48 -1659.32 -1706.97 -1754.69 -1794.89 -1826.51 -1848.13 -1860.77 -1869.01 -1878.06 -1890.50 -1904.88 -1918.61 -1933.35 -1949.92 -1969.84 -1994.15 -2021.40 -2053.60 -2097.99 -2162.02 -2258.75 -2379.45 -2469.79 -2519.82 -2547.97 -2564.94 -2577.16 -2586.62 -2596.23 -2607.90 -2619.84 -2630.92 -2642.23 -2655.08 -2668.87 -2677.56 -2679.81
158.13 151.64 127.93 87.08 47.28 15.80 -6.12 -19.62 -30.28 -40.28 -47.12 -52.64 -62.18 -73.15 -76.86 -75.41 -76.37 -82.00 -90.54 -99.48 -106.85 -111.88 -116.31 -122.21 -129.85 -142.11 -156.79 -162.96 -160.22 -155.04 -151.56 -151.18 -151.29 -152.48 -156.73 -163.67 -169.98 -173.20 -174.01 -174.60 -175.44 -174.67 -172.18 -169.57 -167.76 -167.82 -169.30 -170.83 -172.62 -173.86 -175.76 -180.60 -186.78 -190.04 -190.14 -189.36 -189.09 -189.78 -191.89 -197.73 -210.23 -234.19 -276.27 -331.48 -387.33 -438.21 -475.10 -496.89 -519.77 -549.71 -580.45 -619.52 -668.30 -702.59 -716.92 -732.60 -783.48 -908.02 -1074.11 -1186.82 -1257.49 -1314.51 -1349.29 -1372.95 -1403.09 -1446.29 -1500.94 -1571.14 -1655.81 -1720.65 -1696.81 -1600.73 -1543.46 -1534.53 -1533.45 -1533.88 -1542.66 -1562.88 -1592.85 -1631.92 -1678.77 -1724.49 -1761.63 -1793.24 -1818.37 -1835.70 -1847.31 -1857.21 -1869.53 -1883.77 -1897.71 -1912.03 -1927.09 -1944.49 -1965.33 -1988.41 -2015.68 -2055.66 -2117.88 -2214.21 -2335.54 -2430.27 -2485.40 -2517.71 -2538.60 -2555.06 -2567.78 -2579.88 -2593.34 -2607.57 -2621.90 -2634.94 -2647.43 -2660.03 -2667.82 -2669.45
234.12 219.93 176.02 110.37 55.85 17.84 -9.10 -25.54 -35.17 -41.32 -45.06 -50.06 -60.44 -71.99 -75.73 -74.87 -77.35 -85.15 -96.95 -109.63 -120.00 -126.04 -129.39 -133.16 -138.30 -147.16 -157.05 -158.74 -153.31 -146.64 -143.45 -145.27 -148.89 -153.45 -159.16 -165.01 -169.40 -171.26 -170.77 -170.04 -170.63 -170.83 -169.50 -167.08 -165.16 -165.36 -166.94 -168.41 -170.07 -171.45 -173.84 -179.04 -185.60 -189.06 -188.73 -187.25 -187.14 -188.51 -191.20 -199.89 -217.12 -240.60 -270.52 -303.07 -333.75 -361.53 -377.95 -386.15 -402.10 -430.99 -465.83 -508.00 -555.80 -593.57 -617.04 -640.54 -689.15 -806.04 -967.30 -1081.44 -1153.35 -1204.13 -1228.33 -1237.58 -1249.46 -1280.43 -1346.76 -1449.21 -1558.99 -1629.76 -1609.46 -1525.95 -1483.92 -1490.47 -1503.49 -1512.18 -1522.82 -1541.70 -1570.64 -1609.28 -1653.74 -1696.64 -1733.32 -1765.28 -1790.33 -1810.07 -1825.52 -1837.34 -1850.28 -1865.24 -1879.97 -1894.04 -1908.15 -1924.21 -1942.86 -1962.53 -1985.74 -2021.19 -2079.15 -2171.89 -2289.93 -2383.25 -2439.48 -2475.53 -2501.24 -2521.97 -2537.88 -2551.26 -2564.88 -2579.49 -2595.11 -2609.51 -2623.40 -2637.35 -2646.14 -2647.80
275.01 256.96 200.57 118.38 55.09 15.28 -12.17 -28.29 -36.33 -40.37 -43.24 -48.71 -59.03 -69.45 -72.58 -72.72 -76.91 -86.42 -100.30 -115.45 -127.53 -133.45 -135.07 -136.47 -139.91 -146.54 -152.91 -151.73 -145.14 -139.02 -138.00 -143.08 -149.83 -156.19 -162.00 -166.25 -168.28 -168.52 -167.38 -166.16 -166.34 -167.22 -166.70 -164.18 -162.00 -162.64 -165.48 -167.82 -169.27 -170.54 -173.33 -179.09 -186.05 -189.38 -187.91 -185.52 -185.61 -187.45 -190.57 -200.20 -219.24 -240.57 -257.98 -269.88 -278.21 -286.63 -291.27 -294.46 -306.39 -334.30 -375.67 -425.87 -473.58 -509.74 -537.41 -565.54 -610.82 -717.70 -870.42 -980.84 -1048.09 -1089.10 -1101.42 -1096.21 -1089.56 -1102.29 -1160.13 -1269.22 -1392.80 -1473.72 -1467.08 -1406.46 -1391.76 -1427.97 -1466.14 -1489.32 -1505.65 -1525.19 -1553.49 -1591.11 -1632.08 -1672.15 -1709.64 -1741.30 -1764.38 -1783.69 -1801.43 -1816.41 -1832.09 -1849.38 -1865.83 -1879.78 -1892.73 -1906.91 -1923.15 -1940.49 -1961.39 -1993.88 -2048.65 -2138.82 -2252.97 -2341.37 -2396.78 -2434.09 -2461.32 -2484.84 -2502.89 -2515.61 -2528.42 -2542.53 -2556.90 -2572.45 -2590.63 -2608.57 -2619.24 -2621.54
291.24 268.24 203.34 114.77 47.58 7.70 -17.04 -30.42 -37.42 -41.99 -45.40 -49.77 -57.43 -65.38 -67.95 -69.98 -77.24 -89.36 -104.37 -118.93 -129.06 -133.42 -133.80 -133.82 -136.73 -142.51 -146.92 -144.31 -137.84 -133.71 -136.24 -144.74 -153.07 -158.83 -162.43 -163.79 -163.46 -162.91 -162.21 -161.48 -161.72 -162.92 -162.80 -160.83 -159.35 -161.15 -165.62 -168.81 -170.18 -171.75 -174.81 -180.55 -187.10 -189.72 -187.17 -183.99 -184.16 -186.12 -188.95 -197.08 -213.49 -230.09 -238.41 -238.55 -235.60 -234.97 -235.16 -237.43 -247.29 -272.06 -312.10 -362.29 -409.03 -443.69 -470.40 -495.66 -536.73 -640.30 -790.87 -893.58 -947.30 -976.26 -979.72 -968.76 -957.73 -963.06 -1006.04 -1091.64 -1192.77 -1269.21 -1279.20 -1244.87 -1263.53 -1338.47 -1409.57 -1455.52 -1486.17 -1512.28 -1541.81 -1577.08 -1613.15 -1650.30 -1687.48 -1717.68 -1740.38 -1760.99 -1780.62 -1798.53 -1817.30 -1837.26 -1856.28 -1871.10 -1882.81 -1893.99 -1906.86 -1921.29 -1938.92 -1968.20 -2020.45 -2109.40 -2221.44 -2306.08 -2359.99 -2394.05 -2416.87 -2440.33 -2461.43 -2476.44 -2490.95 -2506.41 -2520.98 -2537.72 -2558.41 -2578.54 -2589.93 -2592.67
300.66 273.40 202.26 109.58 38.50 -1.78 -23.08 -33.88 -40.07 -44.83 -47.70 -48.84 -52.81 -60.00 -64.14 -68.83 -79.93 -95.53 -111.18 -122.74 -127.91 -128.73 -128.12 -128.66 -131.71 -136.61 -140.16 -137.60 -132.41 -130.63 -135.94 -146.30 -154.88 -158.74 -158.29 -155.78 -154.09 -154.41 -154.90 -154.93 -155.44 -156.91 -157.82 -157.71 -158.21 -161.83 -167.59 -171.30 -172.71 -174.38 -176.96 -181.37 -186.61 -188.79 -186.11 -182.45 -182.42 -184.47 -186.81 -192.35 -202.92 -212.74 -216.06 -213.11 -209.18 -208.57 -209.09 -210.65 -218.20 -238.64 -271.54 -312.78 -353.71 -386.58 -412.22 -435.81 -474.82 -577.05 -727.05 -823.55 -864.59 -884.03 -885.30 -876.97 -868.71 -870.65 -896.34 -947.87 -1012.65 -1071.84 -1092.36 -1083.70 -1126.83 -1222.60 -1316.68 -1394.64 -1456.06 -1497.68 -1530.26 -1563.89 -1597.04 -1631.76 -1667.22 -1695.90 -1719.30 -1743.58 -1766.61 -1786.60 -1807.25 -1829.77 -1851.02 -1866.33 -1876.76 -1885.19 -1894.40 -1905.67 -1919.96 -1944.53 -1992.55 -2079.44 -2190.61 -2274.15 -2326.22 -2356.52 -2372.25 -2389.86 -2412.91 -2434.83 -2454.75 -2472.71 -2488.28 -2504.41 -2523.73 -2543.94 -2556.85 -2560.93
306.82 277.68 202.43 104.67 30.79 -8.44 -27.31 -36.64 -41.10 -43.78 -44.45 -42.33 -44.33 -53.67 -62.65 -71.45 -85.63 -103.14 -117.62 -124.66 -123.55 -119.41 -118.12 -120.36 -123.29 -126.95 -131.33 -131.27 -128.66 -129.18 -135.50 -144.93 -152.01 -153.77 -150.46 -146.12 -144.63 -146.18 -147.85 -148.59 -149.07 -150.27 -152.50 -154.77 -157.46 -162.38 -168.57 -172.83 -174.79 -176.40 -177.79 -180.33 -184.32 -186.38 -184.36 -181.19 -181.29 -183.73 -185.75 -188.58 -193.18 -197.05 -198.41 -197.29 -196.72 -198.62 -200.52 -201.70 -206.93 -222.65 -247.67 -278.65 -312.28 -342.90 -367.81 -391.74 -430.40 -529.84 -677.44 -770.57 -803.43 -815.80 -815.92 -810.51 -805.15 -804.11 -813.56 -839.06 -882.65 -932.32 -953.39 -945.10 -978.72 -1064.90 -1171.85 -1293.97 -1405.24 -1473.91 -1514.66 -1550.41 -1583.62 -1617.21 -1652.16 -1681.09 -1704.79 -1731.76 -1758.68 -1780.76 -1802.88 -1827.15 -1848.49 -1862.79 -1872.45 -1879.66 -1886.33 -1895.08 -1906.88 -1926.82 -1968.37 -2049.07 -2156.35 -2237.56 -2287.89 -2319.69 -2334.76 -2347.23 -2368.29 -2394.05 -2417.98 -2436.68 -2451.13 -2465.48 -2483.51 -2504.55 -2519.65 -2525.01
313.13 282.32 203.55 102.65 28.77 -9.83 -28.59 -36.33 -37.36 -36.51 -34.92 -31.83 -34.59 -47.56 -62.83 -77.03 -93.18 -109.24 -119.31 -120.77 -113.86 -105.82 -105.01 -109.17 -111.63 -113.77 -119.09 -122.36 -123.00 -125.35 -131.47 -139.13 -144.60 -145.21 -141.58 -138.20 -137.98 -140.46 -143.28 -144.95 -145.65 -146.52 -149.29 -152.76 -156.95 -162.68 -168.51 -172.93 -175.54 -176.71 -176.85 -178.22 -181.68 -183.55 -182.12 -180.22 -181.08 -183.92 -185.87 -187.36 -189.08 -190.19 -191.03 -191.79 -193.37 -196.11 -198.24 -199.28 -203.11 -214.74 -232.99 -254.89 -280.37 -306.08 -327.96 -351.16 -389.90 -487.28 -632.95 -725.05 -754.31 -762.16 -761.90 -760.07 -758.05 -754.81 -754.09 -765.06 -797.80 -842.19 -852.24 -818.06 -820.41 -888.43 -1008.42 -1172.69 -1330.95 -1430.76 -1489.21 -1535.79 -1572.28 -1604.93 -1641.30 -1674.47 -1700.51 -1727.95 -1756.78 -1781.52 -1805.14 -1829.15 -1848.40 -1861.02 -1870.06 -1876.64 -1882.04 -1889.20 -1899.07 -1915.74 -1951.01 -2024.01 -2124.54 -2198.15 -2242.43 -2276.16 -2296.84 -2310.23 -2327.96 -2351.83 -2375.62 -2393.28 -2407.58 -2424.14 -2445.18 -2467.98 -2482.65 -2487.01
321.88 290.51 211.33 111.03 37.42 -3.18 -23.60 -29.36 -25.85 -21.12 -18.49 -17.40 -23.76 -41.37 -62.05 -80.73 -97.91 -110.73 -114.60 -109.52 -98.44 -90.01 -91.40 -97.79 -100.33 -101.23 -106.31 -111.44 -114.79 -118.63 -124.38 -130.98 -135.94 -136.91 -135.01 -134.82 -137.24 -140.97 -144.97 -147.29 -147.77 -148.03 -150.34 -154.07 -159.09 -164.86 -169.56 -173.79 -176.48 -176.54 -175.68 -176.50 -179.44 -180.93 -180.33 -179.98 -181.51 -183.95 -185.67 -187.10 -188.21 -188.59 -189.08 -190.44 -193.12 -196.22 -197.89 -198.59 -201.00 -208.00 -218.98 -232.50 -249.82 -268.66 -285.42 -306.39 -346.43 -444.67 -589.56 -680.97 -709.13 -715.76 -717.07 -718.71 -719.52 -716.32 -711.42 -713.03 -732.68 -762.74 -751.40 -690.96 -675.51 -738.43 -870.33 -1057.80 -1242.34 -1368.79 -1451.91 -1516.42 -1560.54 -1593.62 -1631.29 -1670.79 -1702.94 -1731.41 -1761.39 -1790.06 -1815.43 -1837.05 -1852.59 -1863.02 -1870.84 -1876.71 -1881.98 -1888.97 -1897.89 -1912.14 -1942.98 -2010.35 -2103.91 -2168.17 -2202.59 -2230.97 -2252.39 -2267.35 -2283.88 -2305.98 -2328.86 -2347.15 -2363.99 -2384.14 -2408.50 -2432.29 -2446.19 -2450.01
347.88 320.08 244.71 142.94 66.43 24.84 5.90 4.39 12.65 19.37 20.68 16.41 -0.81 -31.10 -58.74 -79.15 -96.20 -107.51 -107.49 -96.46 -82.11 -75.37 -80.09 -88.61 -91.47 -92.04 -96.60 -102.01 -106.92 -112.70 -119.38 -125.73 -130.70 -133.04 -133.95 -137.52 -143.04 -148.06 -152.99 -156.46 -156.86 -155.93 -157.22 -161.05 -166.32 -171.10 -173.84 -176.71 -178.19 -176.90 -175.60 -175.95 -177.32 -177.93 -178.70 -179.85 -181.55 -183.47 -185.14 -186.74 -187.59 -187.92 -188.50 -189.99 -193.29 -197.45 -199.30 -199.35 -200.26 -203.30 -207.97 -215.17 -226.08 -238.81 -252.35 -271.67 -310.64 -404.73 -541.16 -626.34 -651.12 -656.88 -660.44 -664.11 -666.23 -665.16 -660.40 -656.51 -661.65 -669.18 -634.28 -560.62 -545.65 -615.96 -759.69 -961.93 -1163.89 -1313.27 -1418.76 -1495.84 -1546.23 -1582.87 -1622.95 -1667.81 -1706.88 -1739.26 -1772.57 -1806.35 -1833.21 -1851.21 -1862.15 -1869.55 -1875.51 -1881.25 -1887.56 -1894.97 -1903.20 -1914.77 -1941.38 -2003.04 -2089.32 -2147.09 -2174.54 -2194.71 -2211.11 -2224.97 -2240.65 -2261.30 -2284.04 -2304.94 -2324.29 -2344.22 -2367.74 -2391.61 -2406.91 -2412.16
451.58 427.07 353.60 246.96 166.50 126.75 113.83 119.01 130.27 134.73 130.50 114.94 68.28 -3.56 -53.24 -76.08 -92.19 -103.26 -102.18 -88.10 -71.43 -64.99 -71.13 -80.11 -82.41 -82.92 -87.99 -94.21 -100.56 -108.55 -117.30 -124.84 -130.52 -134.28 -137.32 -142.52 -149.25 -155.06 -162.21 -170.56 -174.17 -173.53 -174.52 -178.11 -182.54 -185.66 -186.51 -186.85 -185.79 -183.24 -181.38 -179.42 -176.03 -174.03 -175.76 -178.23 -180.19 -181.76 -182.98 -184.32 -185.27 -186.08 -186.93 -188.43 -193.24 -201.19 -205.70 -205.87 -206.01 -207.30 -208.77 -212.04 -218.19 -226.63 -238.56 -255.27 -285.45 -355.22 -454.75 -516.64 -533.98 -538.43 -542.69 -546.57 -548.10 -546.80 -542.57 -538.22 -537.16 -532.03 -492.34 -431.12 -428.44 -505.80 -655.26 -864.20 -1081.66 -1257.05 -1385.06 -1471.08 -1525.79 -1568.34 -1614.47 -1666.68 -1714.12 -1754.42 -1793.74 -1830.50 -1856.20 -1870.33 -1877.64 -1882.45 -1886.72 -1892.67 -1900.10 -1907.74 -1914.70 -1922.26 -1942.63 -1994.67 -2069.12 -2119.99 -2144.09 -2159.46 -2170.95 -2181.85 -2194.89 -2212.04 -2233.38 -2256.01 -2276.74 -2295.44 -2317.17 -2340.62 -2357.09 -2363.47
632.60 604.19 526.49 419.90 338.54 296.61 285.60 294.36 305.69 306.14 294.58 263.89 175.23 39.83 -46.18 -75.19 -90.23 -99.63 -97.48 -83.05 -66.04 -58.35 -62.57 -69.63 -70.64 -71.52 -78.77 -87.65 -96.74 -106.49 -116.25 -124.78 -131.20 -135.51 -138.54 -142.61 -148.29 -154.41 -165.42 -181.88 -192.00 -194.77 -197.67 -201.01 -203.49 -204.46 -203.88 -202.33 -199.04 -195.89 -193.61 -187.46 -176.46 -170.51 -172.08 -174.97 -177.26 -178.50 -179.10 -180.15 -181.48 -182.64 -183.03 -184.58 -193.08 -207.91 -216.62 -217.25 -216.91 -217.79 -218.56 -219.86 -222.65 -227.73 -236.91 -249.21 -266.15 -296.27 -335.57 -362.14 -372.35 -376.24 -378.25 -378.71 -376.87 -372.54 -368.12 -366.53 -367.60 -365.31 -347.55 -327.78 -346.31 -420.33 -557.74 -748.72 -953.61 -1137.33 -1292.41 -1405.49 -1479.82 -1538.52 -1601.22 -1668.15 -1727.18 -1777.46 -1823.43 -1860.40 -1882.51 -1893.55 -1899.33 -1902.96 -1905.78 -1910.71 -1918.05 -1925.57 -1930.65 -1933.50 -1946.68 -1987.09 -2046.80 -2088.49 -2108.75 -2120.83 -2128.85 -2136.58 -2146.90 -2160.43 -2177.54 -2197.97 -2219.28 -2239.52 -2262.31 -2286.09 -2301.02 -2305.91
790.62 756.37 669.88 558.95 472.27 418.84 398.67 404.11 413.84 411.77 395.88 356.42 244.66 72.96 -35.56 -70.67 -86.43 -95.02 -92.44 -78.95 -62.54 -53.14 -54.70 -59.64 -60.00 -61.95 -71.50 -83.29 -95.02 -105.04 -113.31 -120.19 -125.93 -130.15 -132.26 -134.59 -139.15 -145.76 -159.90 -181.78 -196.72 -203.75 -209.50 -213.08 -214.00 -213.22 -211.58 -209.14 -205.05 -202.00 -199.77 -191.51 -176.99 -169.59 -170.84 -173.34 -175.15 -175.96 -176.37 -177.11 -178.07 -179.05 -179.43 -181.39 -192.64 -211.82 -222.58 -223.40 -222.94 -223.71 -224.77 -225.83 -226.93 -229.06 -234.15 -241.46 -249.18 -254.45 -256.86 -263.05 -270.35 -274.38 -274.58 -271.20 -265.87 -260.65 -257.04 -256.60 -259.37 -261.71 -262.72 -272.41 -302.53 -363.84 -474.33 -626.51 -787.19 -951.12 -1125.23 -1275.23 -1389.80 -1489.60 -1587.72 -1673.91 -1742.65 -1799.30 -1848.27 -1885.12 -1906.27 -1917.08 -1922.98 -1926.03 -1927.77 -1930.97 -1936.79 -1942.56 -1944.89 -1944.82 -1954.50 -1988.95 -2040.17 -2074.65 -2089.64 -2097.69 -2103.17 -2109.17 -2117.89 -2129.26 -2142.03 -2157.55 -2176.82 -2197.94 -2222.08 -2245.88 -2258.88 -2262.44
931.29 890.84 787.35 654.71 550.95 482.42 450.44 450.24 457.26 454.91 438.95 397.15 279.07 97.05 -19.34 -58.73 -77.24 -88.36 -87.49 -74.41 -57.03 -45.45 -45.24 -49.69 -51.14 -54.86 -66.57 -80.85 -93.39 -101.28 -105.94 -110.27 -115.50 -120.16 -122.21 -123.54 -127.52 -135.32 -151.99 -176.46 -193.78 -203.30 -210.37 -214.12 -214.07 -212.05 -210.19 -207.87 -203.53 -199.81 -197.25 -189.54 -176.07 -169.50 -170.61 -172.39 -172.99 -173.08 -173.51 -173.93 -174.36 -175.46 -176.61 -179.28 -191.29 -211.11 -222.12 -223.70 -223.93 -224.75 -226.11 -227.49 -227.97 -228.05 -229.74 -233.22 -236.35 -233.38 -225.87 -226.88 -233.16 -237.53 -237.78 -233.47 -227.94 -224.00 -221.35 -220.79 -223.07 -225.98 -231.37 -245.77 -271.74 -313.45 -387.90 -494.85 -612.75 -757.26 -939.69 -1115.14 -1275.19 -1435.89 -1580.04 -1684.44 -1759.21 -1818.01 -1866.30 -1902.69 -1925.85 -1938.97 -1945.46 -1947.90 -1949.13 -1951.24 -1955.12 -1958.64 -1958.40 -1956.83 -1966.17 -1999.70 -2048.53 -2079.43 -2090.32 -2094.94 -2098.46 -2103.18 -2110.11 -2119.40 -2129.51 -2141.47 -2157.43 -2176.50 -2198.78 -2220.66 -2233.23 -2237.24
1051.86 1008.54 890.24 730.64 606.48 531.58 500.88 500.80 502.65 497.26 481.28 437.58 311.27 117.91 -5.41 -46.97 -66.73 -80.05 -81.86 -69.52 -50.07 -36.11 -34.23 -38.28 -41.21 -47.36 -62.17 -79.07 -91.27 -96.63 -98.19 -101.38 -107.66 -113.66 -116.50 -117.26 -120.24 -129.36 -148.85 -175.43 -194.40 -204.31 -210.34 -212.76 -210.91 -207.58 -205.97 -204.51 -200.38 -196.01 -193.11 -186.06 -173.78 -167.86 -168.58 -169.44 -168.97 -168.66 -169.21 -169.75 -170.55 -172.40 -174.44 -177.77 -189.93 -209.22 -220.20 -222.59 -223.35 -224.20 -225.57 -227.11 -227.88 -227.69 -228.01 -229.62 -229.88 -222.55 -211.11 -209.48 -214.50 -218.97 -219.71 -216.37 -212.32 -209.43 -207.34 -207.23 -209.50 -212.62 -218.12 -228.74 -245.37 -270.03 -312.83 -379.12 -465.97 -595.29 -779.12 -977.82 -1181.53 -1396.54 -1575.14 -1692.77 -1773.63 -1835.14 -1883.20 -1918.00 -1942.06 -1957.47 -1965.11 -1967.64 -1968.40 -1969.47 -1971.64 -1974.47 -1973.74 -1971.16 -1979.77 -2012.80 -2061.65 -2092.19 -2101.78 -2104.24 -2105.20 -2107.39 -2111.77 -2118.55 -2126.44 -2136.28 -2150.00 -2166.74 -2185.80 -2204.55 -2216.34 -2220.56
1109.97 1070.38 952.68 783.01 650.92 580.97 561.89 567.15 563.08 547.58 524.83 475.43 338.07 133.00 4.99 -35.81 -54.19 -67.87 -73.04 -63.63 -43.41 -27.06 -22.76 -25.33 -28.89 -37.82 -56.28 -75.21 -87.21 -92.23 -93.69 -97.61 -106.01 -114.30 -118.42 -118.93 -121.24 -131.54 -152.95 -180.40 -199.57 -208.03 -211.36 -211.22 -207.23 -202.36 -199.92 -198.71 -195.73 -192.41 -190.14 -183.36 -171.28 -165.51 -165.91 -165.56 -163.74 -163.15 -164.06 -165.44 -167.54 -170.40 -173.13 -176.92 -189.11 -207.74 -218.59 -221.37 -222.12 -222.82 -223.91 -225.48 -227.19 -228.18 -228.62 -229.45 -228.04 -217.97 -203.60 -199.87 -203.78 -206.90 -206.38 -203.48 -201.05 -199.51 -198.05 -198.00 -200.58 -204.73 -210.45 -217.61 -227.06 -242.36 -269.02 -312.07 -379.37 -493.95 -669.12 -877.15 -1109.44 -1362.40 -1566.67 -1696.73 -1785.08 -1850.37 -1897.61 -1929.78 -1953.91 -1971.42 -1980.67 -1983.50 -1984.09 -1984.61 -1985.94 -1988.95 -1988.81 -1985.94 -1993.65 -2026.12 -2075.37 -2106.73 -2116.40 -2117.34 -2115.48 -2114.39 -2116.13 -2120.85 -2126.78 -2135.09 -2147.24 -2161.62 -2177.41 -2192.94 -2203.16 -2207.18
1095.65 1060.06 958.46 813.63 698.66 639.38 628.18 636.25 628.93 603.64 568.25 505.12 356.60 147.50 20.75 -18.75 -38.14 -54.49 -62.60 -54.86 -34.58 -16.87 -10.07 -10.84 -15.10 -27.00 -48.04 -67.46 -80.17 -87.39 -91.59 -98.04 -109.16 -120.25 -125.99 -127.10 -130.28 -140.85 -161.17 -187.41 -205.35 -211.65 -212.17 -209.61 -203.90 -197.12 -192.56 -191.12 -190.27 -189.24 -188.28 -181.76 -169.51 -163.82 -164.06 -162.51 -159.24 -158.06 -159.26 -161.67 -165.13 -168.57 -171.30 -175.24 -187.93 -206.65 -217.38 -220.15 -221.20 -222.49 -223.29 -224.37 -226.40 -228.21 -229.00 -229.41 -227.41 -216.45 -200.94 -196.21 -198.77 -199.20 -196.47 -193.82 -192.79 -192.26 -191.29 -190.90 -192.96 -197.45 -203.07 -208.25 -213.95 -224.69 -244.86 -278.66 -335.28 -435.35 -588.65 -777.02 -1010.00 -1293.33 -1538.54 -1692.22 -1789.58 -1857.80 -1903.93 -1935.60 -1961.34 -1981.10 -1991.74 -1994.97 -1995.92 -1996.94 -1998.98 -2002.49 -2002.70 -2000.36 -2008.53 -2040.77 -2089.08 -2119.72 -2128.43 -2128.26 -2125.22 -2122.03 -2121.45 -2124.55 -2129.30 -2136.36 -2146.29 -2157.59 -2170.61 -2184.09 -2192.87 -2196.48
1042.65 1011.36 931.75 827.30 745.27 701.32 691.32 695.33 687.51 660.86 614.91 534.03 375.10 167.19 43.08 1.50 -23.33 -45.06 -53.52 -42.78 -21.42 -3.66 4.40 4.18 -2.25 -17.32 -39.11 -57.66 -71.51 -82.22 -90.57 -100.84 -115.34 -129.12 -136.70 -139.35 -143.64 -152.51 -169.38 -193.37 -210.03 -214.64 -212.99 -208.49 -201.35 -192.36 -185.20 -183.09 -184.09 -186.09 -187.40 -181.14 -168.15 -161.91 -161.26 -158.50 -154.70 -153.26 -154.40 -157.27 -161.24 -164.92 -167.82 -172.29 -185.87 -205.38 -216.39 -219.25 -220.94 -223.01 -223.67 -224.09 -225.72 -227.37 -228.29 -228.36 -225.79 -215.00 -199.55 -193.93 -194.80 -193.08 -189.58 -188.02 -187.96 -187.38 -186.41 -185.71 -186.62 -190.01 -194.37 -198.36 -203.00 -211.97 -228.11 -254.44 -299.27 -381.13 -507.89 -671.21 -894.82 -1198.08 -1489.34 -1674.23 -1780.99 -1851.84 -1899.91 -1935.92 -1965.57 -1987.41 -1999.35 -2004.06 -2006.16 -2008.25 -2011.65 -2015.45 -2015.35 -2013.59 -2022.99 -2055.02 -2101.23 -2129.55 -2136.52 -2135.44 -2132.08 -2128.15 -2126.25 -2128.18 -2132.10 -2138.00 -2145.80 -2154.83 -2166.26 -2178.44 -2186.12 -2189.05
993.23 968.44 906.87 829.36 773.59 747.27 739.56 737.83 729.19 703.73 654.08 565.44 401.14 191.37 63.29 15.41 -14.46 -37.98 -42.42 -26.22 -4.26 11.67 18.14 15.34 5.03 -12.53 -33.46 -50.57 -64.76 -77.66 -89.27 -103.17 -121.18 -137.21 -146.55 -151.64 -156.32 -162.61 -176.37 -198.05 -213.15 -216.72 -213.90 -207.98 -199.35 -188.33 -178.96 -175.34 -176.72 -181.49 -185.47 -179.52 -165.46 -157.79 -155.62 -152.15 -148.91 -148.08 -149.13 -151.62 -155.33 -159.35 -162.86 -168.11 -182.19 -202.45 -214.41 -218.00 -220.24 -222.66 -223.47 -223.75 -225.18 -226.49 -227.12 -227.00 -224.28 -213.92 -198.31 -190.91 -189.81 -187.32 -184.57 -184.25 -184.82 -184.20 -183.03 -181.86 -181.88 -183.86 -186.80 -190.03 -194.63 -202.47 -214.31 -231.96 -262.27 -322.24 -426.70 -577.41 -790.63 -1088.19 -1404.79 -1628.63 -1757.38 -1836.28 -1888.98 -1930.06 -1964.16 -1988.69 -2002.65 -2009.90 -2013.93 -2016.98 -2021.15 -2025.48 -2025.91 -2025.10 -2034.84 -2065.54 -2109.61 -2135.78 -2140.87 -2138.58 -2135.04 -2131.83 -2129.98 -2130.64 -2133.42 -2138.53 -2145.44 -2153.74 -2164.36 -2175.25 -2182.04 -2184.30
961.80 943.04 891.13 822.26 778.37 765.27 763.36 761.44 753.08 729.60 684.27 599.81 432.70 213.16 73.06 16.95 -13.26 -30.30 -26.58 -6.73 12.27 22.32 23.67 16.40 2.85 -14.78 -32.99 -47.53 -60.38 -73.67 -87.14 -102.71 -121.91 -138.48 -149.48 -157.69 -163.28 -167.89 -179.71 -199.32 -212.58 -215.83 -213.26 -207.12 -197.59 -185.45 -174.88 -169.90 -170.90 -176.81 -181.88 -176.16 -161.58 -152.90 -150.27 -147.60 -145.11 -144.26 -144.91 -147.12 -150.59 -154.70 -158.50 -163.87 -177.52 -198.23 -211.51 -216.08 -218.85 -221.42 -222.44 -222.79 -224.23 -225.70 -226.01 -225.83 -223.68 -213.52 -196.88 -187.57 -185.20 -183.14 -181.52 -181.51 -182.03 -181.89 -181.00 -179.75 -179.52 -180.84 -182.95 -185.35 -189.08 -194.96 -202.96 -214.85 -235.63 -278.60 -363.04 -498.27 -694.58 -965.02 -1272.06 -1535.94 -1713.03 -1814.40 -1873.56 -1917.65 -1954.92 -1983.01 -2000.66 -2010.87 -2016.74 -2020.63 -2025.50 -2031.35 -2033.42 -2033.39 -2042.00 -2070.81 -2113.98 -2139.50 -2143.45 -2140.42 -2137.21 -2135.23 -2133.67 -2132.73 -2134.08 -2138.50 -2144.97 -2153.35 -2164.02 -2174.41 -2180.77 -2182.81
937.45 920.81 871.63 804.48 764.86 758.65 762.88 765.77 762.81 748.06 713.44 634.86 462.70 230.27 78.12 16.57 -10.03 -16.51 -5.07 13.01 24.19 25.23 19.23 7.24 -7.70 -23.31 -37.70 -48.29 -58.17 -71.37 -86.47 -101.54 -117.84 -132.20 -144.38 -155.82 -163.19 -166.65 -176.49 -194.37 -206.23 -209.99 -209.68 -205.31 -196.23 -184.24 -174.10 -169.53 -170.39 -175.47 -179.52 -173.78 -159.71 -151.70 -150.35 -149.24 -146.82 -144.41 -143.88 -146.05 -149.56 -153.24 -156.37 -160.80 -173.58 -194.22 -208.27 -213.51 -216.69 -219.35 -220.71 -221.68 -223.53 -225.31 -225.33 -224.90 -223.37 -213.26 -195.20 -184.38 -181.80 -180.86 -180.14 -179.95 -180.21 -180.63 -180.35 -179.54 -179.47 -180.56 -182.07 -183.60 -185.92 -189.48 -194.40 -202.90 -218.84 -249.98 -314.34 -429.77 -605.23 -839.54 -1115.93 -1401.29 -1635.54 -1777.50 -1851.10 -1899.74 -1939.82 -1971.53 -1993.77 -2007.45 -2015.44 -2020.70 -2026.29 -2033.12 -2036.07 -2035.59 -2043.00 -2071.62 -2115.62 -2141.58 -2145.57 -2142.94 -2140.24 -2138.49 -2136.64 -2134.66 -2134.98 -2138.78 -2145.01 -2153.65 -2164.29 -2174.49 -2180.80 -2182.70
896.00 877.33 827.44 762.44 721.45 714.53 724.32 735.68 743.02 741.58 719.14 646.35 477.07 248.57 98.99 39.82 18.49 18.67 30.36 39.48 40.01 32.60 19.35 2.53 -13.66 -29.56 -44.89 -54.21 -61.68 -74.55 -89.66 -101.66 -113.09 -124.98 -137.70 -150.98 -159.95 -162.75 -170.66 -187.18 -198.03 -202.72 -205.61 -204.31 -197.87 -188.70 -181.46 -178.96 -179.95 -182.90 -184.05 -177.05 -163.38 -156.90 -157.93 -158.44 -155.48 -150.89 -148.64 -150.14 -153.45 -156.76 -159.08 -162.12 -173.21 -192.19 -205.54 -210.62 -213.64 -216.33 -218.01 -219.67 -221.98 -223.64 -223.46 -223.13 -222.24 -213.09 -195.69 -184.95 -182.63 -182.38 -182.07 -182.13 -182.90 -183.90 -183.92 -183.36 -183.19 -183.51 -184.04 -184.69 -185.71 -187.59 -190.51 -196.09 -207.49 -229.43 -276.43 -368.88 -514.40 -712.74 -966.70 -1258.45 -1532.70 -1718.78 -1816.15 -1874.16 -1919.80 -1956.32 -1983.73 -2002.08 -2013.00 -2020.12 -2026.39 -2032.74 -2035.01 -2033.21 -2039.54 -2068.65 -2113.34 -2139.53 -2144.19 -2142.84 -2140.72 -2138.71 -2136.71 -2134.84 -2134.90 -2138.31 -2144.62 -2153.44 -2163.33 -2172.98 -2179.51 -2181.48
777.77 759.32 709.32 641.54 593.86 584.54 602.23 625.73 644.33 653.32 640.70 582.80 453.93 285.13 172.11 125.72 107.79 103.49 102.74 96.93 87.51 74.78 57.33 37.44 18.64 -8.24 -42.60 -62.03 -70.71 -83.25 -96.60 -105.17 -113.22 -123.76 -135.83 -148.20 -157.04 -159.66 -168.23 -187.68 -200.37 -205.90 -210.60 -212.09 -209.76 -206.40 -204.33 -204.26 -205.48 -206.46 -204.51 -194.99 -180.20 -174.65 -177.61 -178.81 -175.30 -169.85 -166.47 -166.74 -169.23 -172.22 -174.35 -175.91 -182.11 -194.11 -203.11 -206.66 -209.06 -211.87 -213.75 -215.20 -216.94 -218.07 -218.17 -218.53 -218.79 -214.17 -204.36 -198.07 -196.78 -196.50 -196.08 -196.66 -198.09 -198.96 -198.72 -198.36 -198.27 -197.55 -196.33 -194.93 -194.24 -195.05 -196.93 -200.39 -208.06 -223.64 -255.84 -320.79 -431.23 -599.87 -841.42 -1140.03 -1440.60 -1656.02 -1773.43 -1843.60 -1897.12 -1939.06 -1971.94 -1996.60 -2012.26 -2021.67 -2028.36 -2033.29 -2033.34 -2029.09 -2033.40 -2060.75 -2103.13 -2128.29 -2134.04 -2134.60 -2133.65 -2132.06 -2130.65 -2129.65 -2130.16 -2133.48 -2139.63 -2148.22 -2158.11 -2168.10 -2174.70 -2176.39
587.81 570.71 520.38 448.80 401.26 398.77 426.90 460.24 484.97 498.43 494.56 463.76 410.40 348.77 296.62 263.94 241.94 222.06 200.44 179.51 163.49 147.75 128.86 109.19 87.33 39.79 -29.46 -69.05 -81.78 -94.21 -106.58 -114.29 -121.80 -131.52 -141.12 -149.29 -154.48 -156.49 -169.80 -197.55 -214.87 -220.80 -225.52 -228.59 -230.19 -232.79 -236.14 -238.90 -240.92 -240.91 -237.05 -225.04 -208.00 -202.13 -205.71 -206.79 -203.39 -198.52 -194.92 -194.12 -195.50 -198.28 -200.73 -200.81 -199.62 -199.83 -201.26 -202.37 -204.05 -206.87 -208.83 -209.20 -209.65 -210.65 -211.28 -211.98 -213.58 -216.00 -218.53 -220.09 -220.90 -221.03 -221.03 -221.83 -222.85 -223.01 -222.52 -222.36 -222.46 -221.37 -218.19 -213.21 -210.08 -210.14 -211.61 -213.98 -219.21 -230.49 -253.06 -298.29 -380.95 -524.11 -751.79 -1055.27 -1371.06 -1596.69 -1722.56 -1806.05 -1871.68 -1919.79 -1956.32 -1986.36 -2008.07 -2021.11 -2029.07 -2033.18 -2030.65 -2022.98 -2024.57 -2048.72 -2086.91 -2110.33 -2117.47 -2120.00 -2120.67 -2120.28 -2119.76 -2119.90 -2121.08 -2124.14 -2129.96 -2138.73 -2150.08 -2161.34 -2167.40 -2168.31
457.64 437.43 383.75 314.11 275.31 284.36 320.13 356.34 380.91 395.08 399.64 395.97 402.79 416.91 402.63 370.64 336.66 298.45 258.83 229.50 211.29 193.80 174.90 156.96 132.17 68.50 -25.77 -80.56 -96.30 -107.66 -119.57 -128.12 -136.28 -144.59 -149.73 -151.41 -150.70 -151.05 -168.26 -201.84 -221.88 -228.06 -232.99 -237.18 -241.89 -249.05 -256.77 -262.44 -265.10 -264.35 -259.76 -246.81 -227.89 -220.12 -222.77 -224.22 -222.00 -218.14 -214.73 -213.47 -214.37 -217.20 -220.18 -219.83 -214.17 -206.45 -202.69 -202.11 -202.83 -204.89 -206.79 -206.60 -206.30 -207.31 -207.89 -208.02 -210.10 -216.65 -226.50 -233.18 -235.39 -236.04 -236.81 -237.59 -237.90 -237.74 -237.14 -236.62 -236.65 -235.98 -231.87 -224.20 -219.29 -218.93 -220.08 -221.88 -225.51 -233.71 -252.79 -292.00 -360.04 -482.07 -692.31 -985.29 -1289.76 -1509.72 -1642.59 -1743.28 -1829.22 -1890.18 -1932.44 -1966.83 -1993.10 -2010.07 -2021.01 -2026.41 -2023.39 -2014.74 -2015.70 -2038.48 -2074.58 -2097.55 -2106.01 -2109.73 -2111.74 -2112.79 -2113.39 -2114.52 -2116.24 -2119.46 -2126.02 -2135.54 -2147.30 -2158.74 -2164.58 -2165.46
401.23 380.67 326.53 258.18 224.84 240.63 278.65 313.34 336.34 351.50 362.91 376.67 413.13 458.01 457.71 422.80 377.83 327.30 280.72 250.21 229.98 210.00 191.28 173.83 145.41 72.35 -33.68 -95.70 -112.37 -121.68 -132.11 -140.91 -148.69 -153.95 -153.99 -149.66 -144.03 -142.69 -160.94 -196.07 -217.08 -223.70 -229.59 -236.18 -244.31 -254.74 -265.37 -272.77 -275.28 -274.07 -269.91 -257.51 -237.60 -226.97 -227.29 -228.85 -228.15 -226.11 -223.81 -222.37 -222.76 -225.14 -228.31 -228.81 -222.39 -211.69 -205.50 -203.96 -203.94 -205.26 -207.44 -207.96 -207.74 -208.22 -208.17 -207.59 -209.43 -217.02 -228.73 -236.74 -238.98 -239.02 -239.54 -240.55 -241.04 -240.81 -240.23 -239.59 -239.45 -238.93 -234.84 -226.60 -221.15 -220.51 -221.15 -222.53 -225.07 -230.70 -247.76 -285.13 -346.95 -453.08 -633.92 -891.27 -1174.01 -1396.86 -1542.72 -1658.13 -1764.19 -1843.23 -1896.24 -1937.69 -1968.72 -1989.32 -2003.81 -2012.38 -2012.03 -2005.85 -2008.45 -2031.84 -2068.29 -2092.20 -2101.88 -2106.63 -2110.01 -2112.25 -2113.34 -2115.07 -2118.00 -2122.65 -2130.27 -2139.91 -2150.35 -2160.85 -2167.35 -2169.20
359.80 342.87 292.13 223.19 188.54 202.03 236.77 270.10 295.59 314.65 330.77 351.80 398.02 453.52 463.26 436.59 396.73 348.77 304.28 270.79 241.95 215.33 194.72 177.25 147.40 69.75 -42.35 -107.56 -123.39 -129.66 -137.56 -146.27 -153.92 -155.98 -150.75 -141.74 -133.45 -131.71 -151.02 -187.65 -210.16 -217.62 -225.10 -235.04 -246.20 -258.46 -270.58 -277.95 -279.27 -277.56 -274.44 -263.19 -243.19 -230.36 -227.80 -228.16 -228.49 -228.82 -228.68 -227.71 -227.37 -228.42 -230.53 -231.27 -225.50 -214.39 -207.18 -205.32 -205.66 -206.90 -208.80 -209.73 -210.01 -210.36 -209.94 -208.92 -210.32 -218.07 -230.20 -238.01 -239.74 -238.86 -238.48 -239.50 -240.33 -240.11 -239.74 -239.55 -239.57 -238.97 -235.13 -227.41 -222.28 -221.53 -221.62 -222.23 -223.67 -226.91 -240.40 -272.58 -326.47 -414.09 -557.80 -778.15 -1054.70 -1297.52 -1458.50 -1580.84 -1693.44 -1781.66 -1845.23 -1896.41 -1935.25 -1962.57 -1981.99 -1994.61 -1999.25 -1997.13 -2001.76 -2026.64 -2064.66 -2090.11 -2100.98 -2107.05 -2112.10 -2115.50 -2116.89 -2119.20 -2123.71 -2130.02 -2137.86 -2146.65 -2156.19 -2166.62 -2174.16 -2177.31
333.99 317.02 267.21 200.81 162.57 163.14 186.26 216.59 245.55 267.59 282.79 301.00 345.05 402.42 423.12 417.78 402.11 370.94 331.65 290.69 249.67 214.89 190.48 172.33 143.75 66.99 -45.69 -111.18 -125.55 -128.61 -134.19 -143.74 -152.21 -151.78 -142.21 -130.44 -121.73 -120.90 -142.74 -183.03 -207.92 -216.26 -225.47 -238.38 -251.44 -263.93 -275.00 -280.24 -279.40 -276.56 -274.01 -263.96 -244.59 -230.86 -226.07 -224.65 -225.55 -228.13 -230.38 -230.54 -229.77 -229.35 -229.82 -229.76 -224.60 -214.51 -207.98 -206.96 -208.19 -209.29 -209.83 -209.99 -210.66 -211.61 -211.62 -210.91 -211.91 -218.96 -230.85 -238.21 -239.65 -238.85 -238.26 -238.90 -239.56 -239.45 -239.06 -238.92 -239.07 -238.58 -235.00 -228.00 -223.39 -222.71 -222.65 -222.68 -223.50 -225.25 -233.93 -257.70 -301.02 -372.12 -498.21 -711.67 -987.07 -1234.85 -1404.52 -1530.31 -1634.83 -1717.20 -1785.40 -1844.33 -1892.16 -1930.22 -1957.46 -1975.94 -1986.72 -1988.76 -1995.94 -2023.13 -2063.22 -2090.12 -2101.63 -2108.50 -2114.65 -2119.28 -2121.91 -2125.24 -2130.74 -2138.05 -2145.96 -2153.85 -2163.23 -2174.66 -2183.67 -2187.98
340.73 321.00 269.02 203.76 159.19 141.01 145.92 167.24 192.36 210.20 218.32 228.36 266.69 326.03 361.20 381.50 393.75 381.61 347.55 302.00 254.70 215.71 187.82 167.65 140.00 66.99 -41.80 -105.03 -118.19 -120.92 -127.49 -138.37 -146.01 -143.04 -131.68 -119.91 -112.59 -114.08 -140.09 -185.66 -213.89 -223.33 -232.92 -245.70 -258.06 -269.39 -277.94 -280.31 -277.15 -272.68 -269.33 -259.28 -240.26 -226.52 -220.90 -218.70 -220.36 -224.96 -229.07 -230.42 -230.03 -229.11 -228.61 -227.89 -223.13 -214.21 -208.85 -208.56 -210.01 -210.77 -209.98 -208.70 -209.16 -210.85 -211.52 -211.41 -212.68 -219.35 -230.75 -237.80 -239.29 -239.13 -239.02 -239.58 -240.06 -239.78 -239.02 -238.65 -238.44 -237.87 -234.25 -227.50 -223.40 -223.15 -223.21 -223.22 -224.46 -226.65 -233.64 -252.39 -288.49 -349.80 -468.12 -677.78 -944.57 -1188.22 -1363.47 -1488.55 -1581.07 -1654.63 -1721.99 -1785.25 -1843.66 -1894.67 -1933.04 -1961.27 -1978.29 -1982.78 -1992.36 -2022.57 -2065.38 -2093.37 -2104.62 -2111.33 -2117.39 -2122.74 -2127.11 -2131.82 -2138.10 -2146.02 -2154.47 -2162.55 -2171.87 -2183.72 -2193.39 -2197.61
368.04 346.39 292.38 224.92 172.00 137.00 124.35 133.53 149.64 160.08 160.96 163.80 197.55 259.81 307.63 345.32 375.52 377.09 349.41 306.59 260.51 219.85 189.91 169.48 142.89 72.94 -32.19 -93.83 -108.00 -114.20 -123.77 -133.30 -136.81 -131.68 -121.45 -112.36 -108.17 -113.89 -145.28 -196.07 -227.25 -237.17 -244.97 -254.10 -263.64 -272.97 -278.54 -278.04 -273.30 -267.88 -262.82 -250.60 -230.84 -217.89 -213.13 -211.48 -213.92 -219.83 -225.15 -227.71 -228.51 -228.49 -228.46 -227.98 -223.53 -215.18 -210.30 -209.70 -210.38 -210.51 -209.03 -206.82 -206.94 -209.33 -210.65 -210.72 -212.45 -219.60 -231.11 -237.87 -239.01 -238.95 -239.15 -240.01 -240.78 -240.27 -239.55 -239.63 -239.30 -238.19 -233.74 -226.42 -222.39 -222.50 -222.94 -223.20 -225.24 -229.50 -239.37 -259.95 -294.94 -348.20 -447.45 -633.33 -884.41 -1123.94 -1301.24 -1424.24 -1513.34 -1586.32 -1655.35 -1725.09 -1795.55 -1858.72 -1909.74 -1951.11 -1975.04 -1981.36 -1992.64 -2024.90 -2069.50 -2097.88 -2108.88 -2115.52 -2121.43 -2127.44 -2133.60 -2139.65 -2146.63 -2154.53 -2162.73 -2171.17 -2180.96 -2193.15 -2202.89 -2206.39
385.76 366.12 314.04 243.34 183.29 139.08 114.96 113.19 122.13 130.29 129.73 128.37 157.29 219.18 272.68 316.74 353.91 364.48 344.95 309.12 267.04 224.86 193.77 175.14 151.14 83.06 -21.90 -85.71 -103.56 -113.15 -122.78 -127.36 -125.28 -118.49 -110.75 -106.36 -107.29 -118.44 -154.95 -209.62 -242.41 -251.70 -256.96 -262.79 -269.64 -275.81 -277.07 -273.43 -268.16 -263.05 -256.70 -242.07 -221.22 -209.15 -205.69 -204.57 -206.70 -212.86 -219.27 -223.53 -226.44 -228.42 -229.40 -228.92 -224.22 -215.87 -211.10 -210.06 -209.69 -209.18 -207.70 -205.71 -205.98 -208.66 -210.28 -210.25 -211.91 -219.37 -231.01 -237.39 -238.34 -238.39 -238.44 -239.25 -240.48 -240.39 -240.22 -240.86 -240.87 -239.30 -234.02 -226.31 -222.16 -221.98 -222.35 -222.53 -225.10 -231.55 -244.90 -268.14 -301.41 -345.90 -429.00 -595.75 -829.73 -1055.36 -1225.78 -1344.03 -1433.10 -1510.56 -1585.54 -1662.91 -1743.68 -1819.93 -1884.58 -1938.54 -1970.57 -1981.64 -1995.93 -2028.81 -2072.71 -2100.23 -2111.07 -2118.42 -2125.29 -2132.25 -2139.44 -2146.27 -2153.91 -2161.67 -2168.86 -2177.44 -2188.79 -2202.46 -2212.72 -2216.16
388.59 371.37 320.40 246.12 183.30 137.60 107.49 96.99 101.62 111.59 114.73 113.35 138.03 196.23 249.48 293.22 330.79 347.19 335.97 306.09 266.58 224.99 195.18 178.22 156.40 89.72 -16.79 -85.20 -106.84 -115.42 -119.55 -117.75 -112.19 -105.64 -100.87 -101.55 -108.28 -124.13 -163.83 -220.45 -254.55 -263.83 -267.50 -271.34 -275.39 -276.88 -272.89 -266.41 -261.48 -257.42 -250.47 -234.54 -213.19 -201.80 -199.96 -200.07 -202.16 -207.69 -214.25 -220.11 -225.42 -229.31 -230.49 -228.96 -223.36 -214.73 -209.87 -208.82 -208.32 -207.74 -206.85 -205.63 -205.97 -208.24 -209.71 -209.78 -211.31 -218.60 -229.70 -235.91 -237.88 -238.87 -238.80 -239.02 -240.01 -240.14 -240.16 -240.90 -241.55 -240.11 -234.46 -226.77 -222.65 -221.98 -221.95 -222.06 -225.09 -232.00 -244.53 -265.33 -292.97 -329.74 -409.42 -576.90 -805.35 -1016.07 -1171.90 -1277.43 -1357.43 -1434.04 -1512.48 -1594.99 -1686.15 -1777.83 -1855.06 -1916.91 -1957.62 -1978.92 -1999.37 -2032.54 -2074.49 -2100.71 -2110.99 -2118.48 -2126.00 -2133.42 -2140.94 -2148.74 -2157.31 -2165.47 -2172.93 -2182.52 -2195.72 -2210.60 -2220.82 -2224.09
387.32 367.45 312.38 235.82 171.98 126.30 94.62 80.33 82.80 93.46 99.78 100.44 124.16 181.40 234.58 275.94 310.24 329.08 323.89 296.91 259.40 222.84 196.98 180.33 157.46 89.73 -18.38 -89.10 -110.56 -114.10 -111.04 -104.65 -98.84 -94.83 -93.31 -98.31 -110.20 -129.61 -170.03 -226.02 -260.35 -269.78 -272.80 -275.32 -276.23 -273.25 -265.65 -257.43 -252.48 -249.40 -243.47 -228.71 -208.13 -197.23 -196.66 -198.73 -202.35 -207.69 -213.52 -219.73 -225.84 -229.87 -230.50 -227.97 -221.15 -211.54 -206.33 -205.94 -206.66 -206.85 -206.41 -205.54 -205.50 -206.72 -207.63 -208.06 -210.01 -217.33 -228.41 -235.38 -238.24 -239.47 -239.56 -239.66 -240.05 -239.86 -239.68 -239.99 -240.63 -239.53 -234.33 -227.05 -222.98 -222.12 -222.05 -222.15 -224.88 -230.08 -238.40 -253.67 -276.24 -309.86 -388.53 -555.18 -779.74 -981.82 -1126.98 -1225.34 -1298.27 -1368.34 -1445.24 -1532.97 -1634.84 -1739.95 -1825.94 -1889.69 -1937.65 -1972.48 -2000.57 -2034.06 -2073.92 -2098.80 -2108.55 -2115.54 -2122.68 -2130.04 -2138.12 -2147.45 -2157.07 -2165.95 -2174.70 -2185.30 -2198.85 -2213.52 -2223.43 -2226.57
380.54 356.55 296.97 218.56 151.47 103.56 73.85 62.30 65.52 74.38 79.17 81.54 111.89 179.78 240.15 282.44 314.78 333.42 330.87 307.25 274.21 243.58 220.81 203.37 176.28 101.14 -14.47 -87.43 -106.31 -105.39 -98.19 -89.99 -85.10 -83.95 -86.26 -94.76 -109.21 -129.34 -167.42 -219.67 -252.21 -261.77 -265.32 -267.91 -267.38 -262.08 -252.85 -243.35 -237.26 -234.61 -231.71 -221.67 -204.94 -195.57 -195.27 -197.92 -202.80 -208.59 -214.06 -219.31 -223.69 -225.88 -225.32 -222.27 -215.06 -205.44 -201.19 -202.67 -205.21 -206.07 -205.11 -203.53 -202.68 -202.72 -202.82 -203.64 -206.85 -215.18 -227.08 -234.95 -237.78 -238.34 -238.35 -238.48 -238.73 -238.80 -238.58 -238.18 -238.36 -237.92 -234.67 -229.42 -226.11 -225.42 -225.77 -225.84 -227.10 -229.42 -233.82 -244.28 -264.08 -298.51 -370.42 -514.14 -718.63 -919.37 -1069.16 -1170.80 -1244.75 -1309.34 -1384.56 -1480.84 -1592.78 -1707.27 -1797.42 -1859.77 -1912.12 -1958.31 -1993.05 -2026.61 -2064.44 -2088.95 -2099.53 -2106.67 -2113.41 -2121.32 -2131.28 -2142.44 -2152.56 -2161.45 -2171.10 -2182.16 -2195.03 -2208.89 -2218.90 -2222.47
349.55 323.91 262.98 185.02 118.27 70.78 43.72 35.39 39.52 45.09 46.38 53.94 110.42 220.34 307.27 356.89 389.67 407.61 406.61 388.81 363.43 337.76 316.41 297.39 262.64 165.26 18.16 -71.38 -92.42 -90.65 -82.02 -73.19 -69.25 -70.25 -76.04 -87.02 -100.59 -117.01 -148.61 -192.37 -220.53 -230.30 -234.98 -238.59 -238.68 -233.27 -223.54 -212.83 -204.68 -201.53 -201.66 -198.51 -190.30 -185.79 -186.30 -188.39 -192.98 -198.69 -203.72 -206.71 -207.58 -207.48 -206.38 -204.46 -200.37 -194.93 -193.73 -196.80 -200.01 -200.66 -198.72 -195.62 -193.18 -191.94 -191.77 -193.80 -198.74 -208.39 -221.11 -229.28 -232.16 -232.91 -233.05 -232.78 -232.62 -232.78 -232.60 -232.09 -232.48 -233.70 -236.50 -240.27 -241.85 -242.06 -242.59 -242.88 -243.07 -243.37 -245.73 -253.40 -271.05 -305.45 -364.79 -466.15 -624.93 -813.02 -972.30 -1084.55 -1168.01 -1235.35 -1312.14 -1418.52 -1543.91 -1664.76 -1754.74 -1816.77 -1872.43 -1926.87 -1968.22 -2001.96 -2036.78 -2061.26 -2074.31 -2083.31 -2090.82 -2099.77 -2111.96 -2125.54 -2136.85 -2146.00 -2156.12 -2167.43 -2179.67 -2192.64 -2202.57 -2206.56
295.96 269.86 208.22 132.68 74.28 35.48 11.11 0.61 0.69 2.22 2.29 20.37 119.54 296.04 421.94 478.93 511.66 530.44 533.20 523.03 507.33 488.86 470.00 449.07 404.07 273.03 74.44 -45.25 -73.22 -73.20 -65.61 -57.73 -55.33 -58.12 -66.18 -78.53 -90.24 -101.89 -124.26 -155.22 -176.84 -186.35 -191.34 -194.80 -195.25 -190.86 -182.20 -171.03 -160.90 -156.56 -157.74 -159.89 -160.84 -162.66 -165.23 -167.71 -171.81 -176.91 -180.94 -181.02 -178.52 -176.95 -176.85 -178.13 -180.25 -182.21 -184.61 -187.09 -188.46 -187.72 -185.56 -182.41 -179.20 -177.19 -177.44 -181.04 -187.26 -197.43 -210.54 -219.03 -222.34 -223.77 -224.38 -224.05 -223.47 -223.14 -222.73 -222.43 -222.96 -225.72 -237.60 -256.82 -267.84 -270.22 -270.45 -270.38 -270.32 -270.18 -271.73 -276.97 -290.32 -320.47 -367.33 -428.71 -530.67 -681.54 -829.18 -947.84 -1048.45 -1133.84 -1222.36 -1338.26 -1475.90 -1601.17 -1691.78 -1757.67 -1818.94 -1880.73 -1928.04 -1961.55 -1991.33 -2013.01 -2027.77 -2039.99 -2050.92 -2062.80 -2077.87 -2094.88 -2109.05 -2119.91 -2130.70 -2141.92 -2153.82 -2166.30 -2175.75 -2179.46
259.23 231.19 165.76 90.01 40.29 13.00 -6.51 -20.12 -27.07 -30.49 -31.33 -5.67 121.22 337.70 482.37 536.79 566.23 587.44 597.33 597.17 592.31 583.37 569.41 548.37 496.94 344.12 113.01 -24.98 -56.18 -57.16 -53.12 -49.90 -50.91 -55.89 -66.05 -79.70 -90.85 -100.06 -116.20 -138.68 -155.95 -164.34 -167.58 -168.01 -166.40 -163.06 -157.30 -147.63 -137.01 -131.32 -131.31 -134.18 -138.25 -142.61 -146.33 -149.70 -153.85 -158.70 -161.70 -159.46 -155.52 -154.42 -156.70 -161.43 -167.90 -174.63 -178.39 -178.63 -177.34 -175.42 -173.78 -172.24 -169.98 -168.18 -169.32 -174.01 -180.49 -190.53 -203.76 -212.22 -215.84 -217.82 -218.42 -218.18 -217.72 -217.51 -217.47 -217.53 -217.74 -220.73 -237.57 -266.00 -283.13 -287.26 -287.51 -286.98 -287.02 -287.01 -287.73 -290.65 -298.25 -318.10 -350.23 -382.81 -437.94 -547.27 -671.54 -786.04 -901.37 -1015.10 -1127.70 -1254.38 -1398.13 -1528.91 -1626.30 -1698.39 -1763.99 -1827.98 -1876.81 -1909.95 -1935.73 -1953.27 -1967.84 -1983.43 -2000.13 -2019.05 -2040.67 -2063.27 -2082.27 -2096.33 -2108.70 -2120.35 -2132.40 -2144.81 -2153.36 -2156.30
261.91 230.22 156.86 74.25 25.28 4.36 -9.32 -22.45 -33.49 -41.16 -44.46 -18.27 115.25 339.86 482.72 526.99 549.26 571.39 588.06 598.41 604.11 603.99 596.54 579.94 530.01 372.10 131.89 -11.11 -42.69 -44.35 -44.83 -48.31 -54.49 -62.82 -75.47 -90.49 -101.85 -109.68 -122.60 -141.59 -156.51 -163.08 -163.53 -159.86 -154.66 -150.63 -146.60 -139.16 -129.92 -123.80 -122.58 -124.59 -127.92 -131.31 -134.57 -138.21 -142.20 -146.52 -148.67 -145.73 -142.21 -142.73 -147.43 -154.37 -162.55 -170.54 -173.64 -171.60 -168.85 -167.43 -166.60 -165.89 -164.94 -164.52 -167.05 -172.01 -177.52 -186.86 -200.07 -208.53 -212.48 -215.04 -215.62 -215.24 -214.99 -215.51 -216.71 -217.59 -217.64 -220.63 -238.37 -268.15 -286.01 -290.31 -290.91 -290.80 -291.20 -291.23 -291.19 -292.47 -295.75 -304.57 -319.00 -326.52 -342.22 -411.57 -514.79 -624.17 -749.73 -884.54 -1016.90 -1158.21 -1312.57 -1451.22 -1556.11 -1634.47 -1703.72 -1766.31 -1813.60 -1846.28 -1870.82 -1888.58 -1905.04 -1924.10 -1945.63 -1971.66 -2000.55 -2029.85 -2056.54 -2076.03 -2090.71 -2103.91 -2116.95 -2129.10 -2136.70 -2139.38
284.48 250.90 171.23 79.68 27.03 8.98 -0.26 -12.09 -24.78 -35.07 -40.60 -16.41 117.03 341.14 477.12 509.27 521.02 539.41 558.14 573.91 587.11 595.37 596.68 588.85 546.35 391.45 149.52 3.12 -31.57 -37.29 -43.45 -52.41 -62.44 -73.47 -87.52 -102.68 -113.92 -121.04 -131.84 -147.00 -158.17 -162.97 -162.81 -157.94 -150.16 -142.71 -136.13 -129.07 -122.36 -117.59 -116.18 -118.29 -121.32 -123.41 -125.21 -128.25 -131.98 -135.59 -137.43 -135.43 -132.92 -134.34 -140.21 -148.29 -157.39 -165.75 -168.23 -164.88 -161.49 -160.93 -160.84 -160.13 -160.16 -161.71 -165.47 -169.78 -173.99 -182.78 -196.11 -204.98 -209.19 -212.07 -213.31 -213.34 -213.18 -213.93 -215.60 -216.98 -217.45 -221.12 -239.23 -268.79 -286.50 -290.72 -291.28 -291.32 -291.67 -291.70 -291.46 -291.67 -292.75 -296.07 -298.92 -287.85 -271.59 -300.28 -377.87 -479.82 -605.51 -745.66 -893.48 -1055.89 -1222.94 -1366.87 -1475.80 -1556.73 -1625.51 -1686.18 -1736.31 -1774.23 -1802.48 -1824.42 -1844.54 -1867.98 -1893.56 -1922.28 -1953.37 -1988.73 -2026.03 -2053.29 -2070.73 -2085.76 -2100.08 -2111.92 -2118.47 -2120.66
303.04 272.47 193.51 96.54 42.32 29.45 25.00 12.78 -3.51 -16.97 -24.61 -2.60 129.84 352.81 482.17 502.78 504.38 516.88 531.78 544.35 559.43 575.44 587.10 589.22 555.50 407.07 166.24 16.03 -24.43 -36.88 -49.52 -62.50 -73.96 -85.57 -99.34 -113.46 -124.18 -130.65 -138.72 -148.54 -154.52 -158.09 -160.30 -157.81 -149.39 -137.36 -125.26 -116.41 -111.54 -108.68 -107.91 -110.54 -113.94 -115.67 -116.55 -118.99 -122.62 -126.31 -128.73 -128.31 -126.72 -127.93 -133.40 -141.48 -150.69 -158.93 -161.77 -159.28 -156.07 -155.31 -155.41 -154.97 -155.23 -157.57 -161.70 -165.47 -169.43 -178.52 -192.03 -201.39 -206.05 -209.09 -210.90 -211.49 -211.54 -212.57 -214.20 -215.36 -216.07 -220.35 -238.76 -268.47 -286.84 -291.64 -292.50 -292.36 -291.95 -291.74 -291.62 -291.17 -291.28 -293.47 -292.73 -273.36 -239.64 -236.10 -279.09 -360.87 -479.26 -625.69 -797.81 -982.86 -1150.18 -1289.07 -1399.41 -1477.93 -1536.27 -1589.10 -1642.36 -1689.82 -1724.81 -1749.44 -1772.11 -1800.73 -1832.37 -1865.39 -1898.62 -1939.04 -1986.27 -2022.25 -2044.04 -2060.78 -2075.44 -2087.46 -2093.82 -2095.38
315.68 287.87 211.44 115.01 65.36 62.34 66.10 53.89 30.12 9.44 -2.52 17.18 148.00 368.37 492.16 504.46 498.09 503.75 512.38 519.18 532.10 551.85 570.33 580.03 554.77 415.80 180.26 28.06 -18.09 -36.55 -54.88 -72.40 -85.67 -97.19 -110.30 -123.35 -132.68 -136.46 -139.68 -144.01 -146.20 -149.61 -154.76 -155.65 -148.37 -133.34 -115.76 -104.22 -100.23 -99.30 -100.07 -103.37 -107.38 -109.59 -110.90 -113.79 -117.45 -121.26 -124.10 -124.62 -123.48 -124.15 -128.39 -134.73 -142.41 -150.14 -153.99 -153.81 -152.48 -152.12 -152.23 -152.00 -152.08 -154.12 -157.90 -161.47 -165.71 -174.59 -187.66 -197.84 -203.88 -207.17 -208.53 -208.95 -209.24 -210.54 -211.93 -212.93 -214.22 -219.18 -237.76 -267.67 -286.62 -291.62 -292.71 -292.82 -292.22 -292.10 -292.14 -291.40 -291.22 -292.85 -290.65 -268.32 -228.57 -209.31 -224.89 -278.58 -382.50 -539.41 -740.52 -944.77 -1104.43 -1225.49 -1329.15 -1405.08 -1452.97 -1492.20 -1534.54 -1580.37 -1621.89 -1653.38 -1682.60 -1717.05 -1755.00 -1796.01 -1835.94 -1879.93 -1931.06 -1974.09 -2002.70 -2022.99 -2039.87 -2054.00 -2060.95 -2062.02
313.94 284.51 210.06 125.81 92.05 102.90 116.33 105.92 74.39 42.60 22.49 38.74 165.90 380.99 501.51 511.08 498.67 495.41 496.79 499.58 510.33 530.04 550.25 564.08 546.21 417.18 189.48 39.35 -8.72 -30.30 -52.58 -74.85 -91.54 -104.31 -117.47 -129.82 -136.85 -136.51 -134.53 -134.60 -135.28 -139.39 -146.71 -150.20 -144.48 -128.59 -108.14 -94.79 -91.63 -92.75 -95.67 -100.54 -106.01 -109.31 -111.57 -115.61 -119.82 -123.28 -125.36 -125.16 -123.61 -123.56 -126.04 -129.83 -135.38 -142.38 -146.91 -148.65 -149.68 -150.88 -151.68 -151.87 -152.24 -154.15 -157.92 -162.02 -166.33 -173.95 -185.90 -196.27 -202.97 -205.80 -206.21 -206.40 -206.89 -207.94 -208.90 -210.15 -212.34 -217.98 -236.60 -266.82 -286.35 -291.42 -292.11 -292.40 -292.50 -292.67 -292.59 -291.86 -291.46 -291.94 -288.50 -264.73 -223.11 -199.27 -202.20 -233.69 -314.90 -466.10 -679.59 -894.01 -1050.04 -1159.72 -1257.21 -1332.62 -1375.66 -1402.57 -1428.45 -1464.84 -1509.65 -1549.83 -1586.44 -1624.33 -1666.60 -1715.79 -1764.40 -1810.57 -1858.27 -1902.63 -1938.90 -1967.61 -1991.52 -2010.55 -2019.31 -2020.39
329.86 295.58 218.17 143.88 127.26 149.63 166.78 156.82 120.54 78.70 49.77 61.23 182.77 391.44 510.67 522.50 507.87 496.25 489.10 486.52 492.69 508.65 528.30 545.34 533.10 410.96 190.23 45.43 -0.20 -21.45 -44.67 -69.98 -90.45 -105.69 -119.84 -132.11 -137.86 -134.94 -128.94 -124.94 -123.85 -128.46 -137.13 -141.93 -136.69 -120.93 -101.63 -89.61 -88.06 -91.41 -96.40 -102.88 -109.93 -114.99 -118.47 -123.18 -128.21 -131.51 -131.71 -129.29 -126.92 -126.40 -127.40 -129.30 -133.56 -139.75 -143.89 -146.00 -148.16 -151.43 -154.06 -155.19 -156.10 -158.22 -162.50 -167.75 -172.19 -178.70 -189.43 -198.35 -203.49 -205.07 -204.91 -205.17 -205.66 -206.28 -207.01 -208.13 -210.18 -216.08 -235.26 -266.18 -286.17 -291.20 -291.41 -291.73 -292.40 -292.77 -292.65 -292.18 -291.51 -291.04 -286.86 -262.35 -219.77 -194.47 -192.24 -209.08 -265.20 -389.45 -583.36 -790.75 -948.47 -1066.26 -1172.05 -1254.62 -1303.05 -1328.11 -1347.68 -1378.96 -1420.87 -1460.21 -1495.62 -1530.21 -1570.47 -1620.76 -1673.25 -1720.72 -1767.59 -1816.53 -1863.90 -1903.78 -1933.69 -1956.23 -1968.68 -1971.70
371.61 334.89 254.62 181.04 169.62 195.61 211.64 200.54 161.23 111.40 75.47 82.47 197.45 398.58 515.85 532.44 521.51 507.39 494.13 484.62 482.62 491.15 507.46 525.62 515.71 396.25 179.97 40.89 -0.90 -19.19 -39.03 -63.91 -87.81 -105.74 -120.53 -132.89 -138.67 -135.26 -127.01 -119.35 -114.97 -117.84 -125.65 -129.80 -124.46 -110.61 -95.53 -87.02 -87.76 -93.74 -101.18 -109.20 -117.07 -123.65 -128.08 -132.20 -137.27 -140.83 -139.73 -135.70 -132.90 -132.52 -133.67 -135.67 -139.83 -144.96 -147.56 -148.56 -151.13 -156.48 -161.29 -163.48 -164.32 -165.98 -170.10 -175.24 -179.28 -185.30 -195.23 -202.69 -205.79 -206.13 -205.54 -205.31 -205.02 -205.40 -206.54 -207.73 -209.45 -215.51 -235.45 -266.79 -286.39 -290.83 -290.71 -291.11 -291.82 -292.08 -292.00 -292.08 -291.50 -290.51 -285.94 -261.13 -218.00 -191.91 -187.85 -196.82 -232.29 -322.08 -477.21 -657.80 -811.06 -945.86 -1074.58 -1177.65 -1240.96 -1269.08 -1285.97 -1313.30 -1348.01 -1378.26 -1405.82 -1435.37 -1469.97 -1513.33 -1563.00 -1613.64 -1669.40 -1729.72 -1788.98 -1838.83 -1872.94 -1896.59 -1910.93 -1915.44
414.36 383.31 308.74 230.49 211.26 235.64 253.34 242.35 199.04 140.20 95.53 96.26 203.82 396.97 511.00 530.89 525.99 516.04 503.13 489.65 480.17 479.41 488.35 503.52 493.19 374.39 161.44 27.25 -11.33 -27.04 -43.30 -65.93 -91.72 -111.34 -124.90 -135.13 -139.09 -134.81 -125.99 -117.13 -109.73 -108.66 -113.03 -114.82 -109.66 -99.50 -89.44 -84.69 -88.05 -97.10 -107.53 -117.30 -125.48 -131.75 -134.87 -137.12 -141.86 -146.82 -146.97 -143.26 -140.66 -141.15 -143.99 -147.93 -152.81 -156.68 -157.08 -156.48 -159.15 -165.14 -170.52 -173.04 -173.40 -174.07 -177.15 -180.76 -183.94 -190.31 -200.53 -207.55 -209.24 -208.50 -207.26 -206.44 -205.64 -205.85 -207.50 -209.25 -211.00 -216.74 -236.45 -267.33 -286.10 -289.86 -289.48 -289.71 -290.14 -290.45 -290.78 -291.30 -290.80 -289.73 -284.98 -260.25 -217.50 -191.43 -187.05 -192.74 -213.37 -271.67 -387.89 -539.53 -690.59 -848.10 -1005.45 -1127.96 -1195.62 -1217.48 -1226.26 -1245.51 -1270.68 -1290.62 -1310.34 -1335.94 -1365.33 -1403.74 -1453.15 -1510.45 -1575.49 -1640.38 -1703.96 -1761.90 -1804.87 -1833.54 -1848.09 -1851.98
495.82 467.08 390.01 297.18 262.18 280.57 299.65 288.35 239.71 170.13 112.54 100.36 192.07 368.48 473.18 491.66 490.89 487.65 479.71 467.10 453.59 444.51 445.01 454.73 444.25 333.38 134.69 9.41 -27.59 -42.87 -58.06 -78.52 -102.55 -120.76 -130.56 -135.33 -134.38 -128.03 -120.29 -113.78 -105.63 -100.18 -99.87 -98.71 -94.10 -88.05 -83.15 -82.66 -89.01 -100.63 -113.03 -123.24 -130.17 -133.68 -134.03 -135.34 -140.77 -147.80 -150.99 -149.45 -147.88 -149.06 -152.60 -157.88 -163.99 -167.63 -166.68 -164.76 -166.56 -171.34 -175.71 -178.28 -179.10 -179.30 -180.83 -182.85 -185.57 -192.61 -203.26 -210.27 -211.54 -210.36 -208.94 -208.23 -207.67 -207.60 -208.99 -210.65 -212.23 -217.28 -235.09 -263.33 -280.20 -282.98 -282.07 -281.97 -282.39 -283.34 -284.44 -284.89 -284.17 -283.13 -279.20 -259.85 -226.15 -205.19 -201.55 -205.60 -218.46 -258.45 -350.48 -489.44 -652.35 -831.13 -1001.38 -1121.99 -1172.98 -1175.24 -1169.34 -1177.36 -1194.14 -1206.43 -1219.01 -1240.50 -1265.99 -1299.09 -1346.80 -1409.37 -1478.81 -1543.57 -1606.82 -1668.75 -1723.00 -1762.64 -1780.74 -1784.48
631.38 592.92 496.83 384.73 333.42 341.05 354.42 338.12 283.73 206.18 135.77 101.09 147.36 263.48 332.79 341.78 340.44 340.11 336.22 326.81 313.54 301.02 296.35 301.60 296.35 221.08 81.16 -10.11 -41.08 -56.97 -72.89 -90.99 -108.33 -119.99 -124.34 -123.11 -116.72 -108.24 -103.84 -103.71 -97.95 -89.94 -86.17 -82.78 -78.83 -76.86 -77.26 -80.88 -89.37 -101.78 -114.40 -123.64 -128.03 -128.01 -126.99 -130.03 -137.29 -145.19 -149.90 -150.83 -151.11 -151.95 -154.10 -159.60 -167.38 -172.18 -171.43 -169.02 -169.39 -172.22 -175.44 -178.10 -179.38 -179.26 -179.42 -179.99 -182.22 -189.21 -198.89 -205.01 -206.49 -206.00 -205.05 -204.51 -204.30 -204.01 -204.40 -205.43 -207.08 -210.92 -223.09 -242.52 -253.85 -255.01 -253.36 -252.74 -253.21 -254.62 -256.33 -256.90 -256.01 -255.00 -255.97 -261.04 -268.12 -271.97 -273.71 -277.27 -288.70 -327.74 -418.62 -561.68 -737.12 -918.30 -1076.28 -1175.29 -1193.18 -1156.43 -1123.84 -1120.78 -1135.72 -1146.30 -1152.82 -1167.76 -1187.20 -1209.47 -1247.25 -1307.34 -1376.50 -1444.67 -1514.21 -1581.39 -1643.65 -1694.02 -1717.98 -1722.63
767.14 720.00 607.25 480.08 417.00 411.96 410.39 380.76 319.05 238.26 159.11 99.42 80.51 100.27 111.85 105.94 100.21 97.07 92.52 85.36 75.45 64.47 58.74 62.35 67.36 49.14 5.06 -28.50 -46.87 -62.61 -78.31 -92.27 -101.07 -104.51 -103.61 -97.89 -87.60 -77.32 -76.56 -84.54 -84.21 -77.14 -73.09 -70.00 -67.52 -68.84 -73.19 -79.13 -88.11 -100.47 -112.83 -120.51 -121.98 -119.35 -118.52 -123.62 -131.85 -139.08 -143.36 -145.81 -148.25 -148.89 -149.31 -154.47 -163.48 -170.19 -171.66 -170.81 -170.57 -171.35 -173.04 -175.21 -175.84 -174.54 -173.06 -172.27 -174.00 -180.02 -187.16 -191.31 -193.05 -193.94 -193.66 -192.81 -192.61 -192.63 -192.49 -192.79 -194.50 -196.81 -200.69 -206.49 -209.72 -209.16 -206.91 -205.58 -206.11 -207.62 -209.32 -210.12 -209.49 -209.22 -218.87 -264.04 -338.26 -383.37 -394.22 -398.18 -410.18 -453.43 -555.56 -714.16 -893.36 -1055.56 -1187.14 -1261.55 -1243.40 -1156.10 -1091.82 -1083.57 -1102.56 -1112.87 -1113.25 -1117.86 -1126.55 -1138.06 -1163.10 -1211.31 -1275.71 -1349.98 -1431.62 -1507.87 -1572.97 -1627.67 -1658.51 -1666.96
861.36 809.86 689.52 557.47 489.07 469.31 445.26 397.29 328.98 248.36 166.58 96.54 43.90 7.10 -16.54 -31.72 -42.26 -50.79 -59.14 -66.60 -74.07 -82.39 -87.53 -85.32 -75.96 -61.31 -47.36 -44.88 -54.07 -67.86 -80.69 -89.02 -90.45 -87.41 -81.69 -72.22 -60.01 -48.24 -48.09 -60.97 -67.32 -64.88 -63.40 -62.59 -62.42 -66.28 -73.31 -80.28 -88.32 -99.20 -110.36 -116.68 -116.43 -112.83 -112.22 -117.51 -124.61 -129.58 -132.81 -136.73 -141.49 -143.06 -142.76 -147.07 -156.39 -164.65 -168.48 -170.28 -171.61 -172.46 -173.29 -173.61 -172.00 -169.00 -166.32 -164.81 -165.72 -170.27 -175.76 -179.36 -181.80 -183.84 -184.24 -183.58 -183.51 -183.87 -183.69 -183.52 -185.11 -186.72 -185.83 -183.16 -181.49 -180.38 -178.33 -176.72 -177.30 -178.83 -180.43 -181.32 -181.19 -182.16 -197.43 -266.87 -381.65 -451.65 -467.92 -472.35 -483.63 -524.35 -632.05 -808.18 -988.53 -1126.87 -1234.80 -1296.69 -1261.75 -1147.25 -1066.89 -1057.28 -1077.78 -1083.87 -1075.31 -1069.17 -1068.75 -1075.19 -1091.14 -1124.31 -1179.30 -1254.32 -1344.28 -1430.64 -1498.66 -1553.23 -1588.27 -1600.49
878.90 833.04 722.30 595.94 522.05 483.31 438.50 383.65 321.33 247.98 171.14 105.75 51.69 3.43 -30.43 -50.36 -65.24 -79.14 -91.93 -101.58 -108.78 -115.64 -121.26 -122.88 -117.01 -97.91 -72.00 -60.85 -65.95 -76.23 -84.10 -85.66 -80.01 -71.09 -60.56 -48.08 -35.83 -23.83 -23.35 -38.94 -51.73 -55.95 -58.64 -60.89 -63.59 -69.95 -78.91 -86.15 -91.92 -98.84 -106.94 -112.41 -112.05 -108.44 -107.42 -111.37 -116.61 -119.25 -121.21 -126.27 -132.87 -136.24 -136.62 -139.73 -147.76 -156.10 -161.29 -165.41 -169.56 -173.19 -175.05 -173.47 -169.20 -164.55 -161.08 -158.79 -158.21 -161.55 -167.14 -171.59 -175.03 -177.86 -179.20 -179.76 -180.59 -181.55 -181.59 -181.23 -182.02 -183.14 -181.50 -177.01 -174.07 -173.03 -171.62 -170.37 -170.94 -172.49 -174.20 -174.74 -174.67 -176.36 -193.16 -268.35 -392.29 -467.70 -485.27 -490.14 -499.83 -533.19 -637.26 -824.51 -1008.77 -1133.63 -1228.26 -1287.17 -1249.05 -1128.29 -1043.75 -1030.06 -1045.54 -1045.97 -1030.70 -1017.28 -1009.49 -1010.78 -1021.63 -1047.24 -1093.14 -1158.01 -1245.03 -1339.83 -1417.66 -1477.07 -1513.65 -1526.23
834.66 798.82 702.29 578.81 495.05 440.17 388.38 349.51 316.40 267.07 201.86 140.64 86.88 35.56 -3.29 -28.07 -47.33 -66.19 -83.17 -96.03 -105.11 -112.46 -119.73 -126.08 -125.87 -110.85 -86.79 -74.99 -77.36 -83.32 -85.85 -81.10 -68.89 -53.80 -38.46 -24.07 -12.81 -2.48 -3.83 -23.14 -42.50 -53.07 -59.11 -63.85 -69.65 -78.22 -87.30 -92.98 -95.60 -97.87 -102.04 -106.55 -107.03 -103.40 -101.15 -103.52 -107.88 -110.11 -111.66 -117.01 -124.54 -129.89 -131.90 -133.87 -139.33 -146.51 -152.62 -158.69 -165.34 -171.64 -174.68 -172.17 -166.52 -160.94 -156.53 -153.29 -152.09 -155.18 -160.85 -165.73 -169.92 -173.71 -176.56 -178.48 -180.16 -181.90 -182.40 -181.94 -181.73 -182.06 -180.45 -176.34 -173.47 -172.19 -171.20 -171.15 -172.08 -173.43 -174.79 -174.68 -174.31 -175.71 -192.60 -268.72 -393.96 -470.23 -488.46 -494.04 -503.33 -532.58 -630.44 -816.59 -1004.52 -1130.86 -1220.72 -1273.46 -1230.70 -1107.81 -1021.29 -1001.40 -1009.15 -1004.71 -985.72 -967.33 -954.36 -950.98 -958.67 -981.14 -1019.61 -1070.60 -1144.49 -1238.62 -1329.18 -1401.19 -1442.49 -1455.84
775.85 739.86 643.52 517.41 423.91 363.63 324.13 315.71 320.31 300.63 248.53 187.53 129.22 71.69 27.82 0.56 -19.47 -40.07 -60.52 -78.04 -90.49 -98.86 -108.22 -119.56 -125.18 -115.25 -94.61 -83.30 -83.52 -85.80 -84.14 -75.37 -59.77 -41.05 -21.39 -3.38 9.21 16.36 8.90 -16.90 -41.74 -55.48 -62.88 -69.31 -77.04 -85.57 -92.14 -95.01 -94.91 -93.89 -95.28 -99.51 -101.87 -98.73 -95.04 -96.06 -100.10 -103.14 -105.68 -111.32 -119.18 -126.19 -130.45 -132.70 -136.43 -141.90 -147.60 -154.57 -162.65 -169.73 -172.22 -168.35 -161.80 -156.16 -151.45 -148.49 -148.44 -151.91 -157.07 -161.63 -166.14 -171.30 -175.96 -179.23 -181.56 -183.45 -183.92 -183.39 -182.73 -182.27 -180.21 -176.63 -174.34 -172.71 -171.85 -172.77 -173.93 -174.56 -175.27 -175.04 -174.66 -175.92 -192.95 -269.09 -394.69 -472.17 -491.58 -497.75 -507.81 -536.10 -621.83 -788.28 -976.13 -1121.36 -1217.99 -1261.46 -1211.68 -1087.36 -998.79 -974.18 -978.42 -972.20 -948.60 -923.08 -905.99 -900.99 -907.41 -926.81 -958.64 -1000.15 -1062.69 -1150.72 -1248.94 -1333.81 -1380.53 -1394.39
705.63 670.77 575.52 446.99 347.85 290.95 270.21 286.38 313.93 312.28 274.05 222.45 166.11 104.02 55.44 27.27 10.16 -8.52 -31.70 -53.81 -69.38 -80.24 -93.34 -108.79 -117.84 -110.88 -92.94 -82.70 -81.63 -81.91 -78.40 -68.24 -52.41 -33.07 -10.01 12.46 27.47 31.00 15.67 -17.28 -45.63 -60.04 -67.80 -75.12 -82.46 -87.91 -90.16 -89.74 -87.53 -85.55 -87.09 -92.77 -97.53 -95.72 -91.57 -91.78 -96.02 -100.50 -104.84 -111.24 -119.13 -127.11 -133.41 -137.02 -140.38 -144.61 -149.14 -155.14 -162.16 -167.54 -168.07 -162.63 -155.36 -150.11 -146.31 -144.54 -145.93 -149.93 -155.15 -160.10 -164.96 -170.75 -176.27 -180.60 -183.26 -184.60 -184.76 -184.25 -183.82 -183.22 -180.47 -176.71 -174.98 -173.84 -173.12 -173.86 -174.73 -174.79 -175.08 -174.81 -174.26 -175.72 -193.56 -269.83 -394.87 -472.87 -493.60 -500.47 -511.70 -540.76 -613.88 -753.03 -931.26 -1094.57 -1203.95 -1243.84 -1190.63 -1065.86 -975.64 -949.51 -953.81 -947.10 -919.11 -887.29 -866.28 -859.15 -863.13 -878.56 -906.93 -947.61 -1008.29 -1091.37 -1188.12 -1277.57 -1327.48 -1341.64
614.97 586.71 503.35 384.69 292.17 241.46 229.74 254.56 286.85 291.69 269.40 238.94 196.32 137.31 86.15 54.97 38.03 19.01 -8.39 -34.26 -52.49 -67.68 -84.93 -101.04 -107.70 -99.22 -82.38 -73.21 -71.73 -71.25 -67.75 -58.44 -44.13 -25.94 -1.85 22.51 37.51 37.32 16.02 -21.42 -50.91 -65.14 -72.87 -79.48 -84.15 -84.80 -81.96 -77.98 -74.60 -74.11 -78.19 -85.94 -92.27 -92.16 -89.53 -90.75 -96.32 -102.49 -108.59 -116.12 -124.13 -131.95 -138.59 -142.71 -145.97 -149.81 -153.45 -156.75 -160.02 -162.34 -161.58 -156.89 -150.84 -146.11 -143.12 -142.64 -145.31 -150.04 -156.08 -162.12 -167.20 -172.21 -177.15 -181.32 -183.63 -184.32 -184.15 -183.54 -183.30 -183.26 -180.70 -176.71 -175.23 -174.93 -174.47 -174.47 -174.71 -174.70 -174.81 -174.38 -173.63 -175.36 -194.23 -270.63 -394.47 -471.34 -492.31 -500.15 -512.74 -544.41 -612.90 -731.28 -889.82 -1053.61 -1173.59 -1218.72 -1167.75 -1044.37 -953.25 -926.25 -929.76 -921.51 -890.89 -856.94 -834.65 -825.20 -826.15 -839.06 -866.71 -908.41 -969.09 -1049.21 -1140.41 -1226.99 -1278.65 -1294.53
547.71 517.41 438.30 334.52 253.67 207.93 199.36 222.94 249.17 253.89 244.86 235.40 211.84 164.44 115.42 80.12 58.05 33.47 -1.20 -32.24 -52.93 -69.96 -86.06 -97.01 -96.74 -84.22 -67.19 -58.50 -56.65 -55.63 -53.12 -46.43 -34.66 -18.02 4.71 27.51 40.30 36.83 11.74 -27.52 -56.04 -69.09 -76.24 -80.98 -81.78 -77.78 -70.67 -63.64 -59.95 -61.89 -68.62 -77.91 -85.19 -87.39 -88.40 -92.32 -99.37 -106.97 -114.53 -122.62 -129.70 -135.20 -139.19 -142.19 -145.78 -150.37 -154.10 -155.16 -154.77 -154.96 -154.34 -152.07 -148.72 -145.01 -142.72 -143.67 -147.76 -153.61 -160.49 -166.68 -171.22 -175.24 -179.60 -182.84 -183.68 -182.86 -181.72 -180.54 -180.19 -181.08 -180.15 -177.10 -175.47 -174.81 -174.10 -173.31 -172.66 -172.84 -173.30 -173.50 -173.77 -176.18 -195.11 -271.05 -394.12 -469.70 -489.78 -497.78 -511.09 -545.50 -615.86 -724.55 -864.04 -1014.72 -1136.51 -1187.94 -1141.38 -1019.95 -927.75 -899.41 -901.58 -890.81 -857.91 -824.60 -803.87 -794.60 -795.64 -809.71 -837.62 -876.51 -932.07 -1007.18 -1094.71 -1181.17 -1234.17 -1250.62
529.74 494.45 410.81 309.14 229.75 183.47 173.59 190.63 208.56 212.40 211.87 216.44 209.97 178.01 135.52 97.60 68.29 35.66 -6.76 -43.14 -63.90 -76.83 -85.98 -89.43 -83.87 -69.50 -52.72 -44.15 -40.27 -36.60 -34.16 -30.90 -22.99 -8.30 12.07 31.60 41.27 35.00 7.89 -31.55 -58.62 -70.13 -75.60 -77.41 -74.75 -68.18 -58.84 -49.76 -46.14 -50.28 -59.01 -69.06 -77.53 -82.88 -87.99 -94.60 -102.61 -111.09 -119.13 -126.21 -130.81 -132.45 -132.77 -134.43 -139.09 -145.23 -149.31 -149.39 -147.78 -148.14 -149.22 -149.67 -148.62 -146.30 -144.96 -146.47 -151.29 -158.32 -165.81 -171.31 -174.97 -178.50 -182.29 -184.46 -183.91 -181.18 -177.93 -175.35 -174.98 -177.38 -178.72 -177.07 -175.16 -173.28 -171.49 -169.90 -169.08 -170.05 -171.31 -172.43 -174.01 -176.90 -195.00 -270.12 -393.03 -468.56 -488.25 -495.51 -507.99 -541.51 -612.66 -717.53 -840.37 -971.25 -1084.48 -1138.53 -1099.37 -984.36 -894.95 -867.08 -868.53 -855.38 -821.00 -789.06 -771.04 -764.53 -766.75 -780.86 -807.74 -843.30 -892.32 -959.33 -1043.50 -1131.73 -1186.92 -1204.41
533.03 497.06 411.52 307.85 225.70 172.10 149.85 152.84 162.51 169.93 180.53 196.87 202.08 180.55 143.08 103.46 67.98 29.81 -13.97 -49.24 -66.52 -73.04 -74.90 -73.86 -68.47 -56.40 -40.41 -31.10 -24.19 -16.02 -11.01 -9.77 -6.21 6.01 24.34 39.93 44.84 35.50 7.74 -31.29 -57.30 -67.25 -70.09 -68.66 -63.78 -56.39 -46.10 -35.96 -32.90 -38.78 -49.40 -61.07 -71.64 -79.66 -86.99 -94.70 -102.62 -111.51 -119.57 -124.85 -126.73 -125.60 -123.90 -125.07 -130.35 -136.94 -140.85 -141.42 -141.27 -143.73 -147.78 -150.99 -151.66 -150.45 -149.34 -150.10 -154.41 -161.78 -169.75 -174.90 -177.72 -180.65 -183.33 -184.44 -183.47 -179.46 -173.67 -169.48 -169.77 -173.99 -176.69 -175.18 -172.70 -170.13 -167.46 -165.55 -165.59 -167.79 -169.90 -171.66 -173.78 -176.55 -193.86 -268.24 -390.70 -466.12 -485.29 -491.60 -502.55 -529.81 -589.26 -679.24 -784.27 -897.84 -997.66 -1053.01 -1028.28 -929.25 -851.76 -829.96 -831.56 -816.29 -781.87 -751.48 -736.10 -732.95 -736.97 -750.59 -775.60 -808.38 -850.71 -909.04 -988.67 -1074.90 -1131.22 -1150.69
518.35 485.09 405.41 308.89 231.15 171.72 133.36 119.22 120.67 134.12 158.85 187.53 200.37 184.57 150.25 107.72 64.59 23.53 -13.14 -39.49 -51.86 -54.66 -52.22 -49.24 -46.25 -37.65 -22.84 -13.56 -5.68 5.66 14.91 18.00 20.68 31.62 47.71 58.14 56.75 43.73 14.84 -24.77 -50.29 -58.83 -59.42 -55.37 -49.25 -41.95 -31.68 -21.20 -18.61 -26.39 -40.05 -55.17 -68.54 -77.91 -85.18 -91.80 -97.82 -106.07 -115.03 -120.32 -120.92 -118.59 -116.46 -117.69 -122.50 -128.42 -132.45 -134.88 -137.32 -141.83 -148.58 -154.24 -156.34 -155.77 -154.33 -154.08 -156.85 -163.24 -171.56 -177.24 -179.36 -180.69 -181.64 -181.98 -181.11 -176.74 -169.83 -165.12 -165.86 -170.37 -173.06 -171.16 -168.41 -166.38 -164.61 -163.56 -164.32 -166.97 -169.55 -171.88 -174.32 -176.67 -192.26 -262.19 -378.00 -449.17 -466.81 -472.28 -480.88 -498.22 -534.46 -593.47 -672.06 -765.00 -849.07 -908.28 -909.39 -844.11 -793.89 -787.88 -794.96 -780.99 -749.62 -722.46 -708.00 -705.38 -711.29 -725.14 -747.35 -776.77 -813.36 -865.10 -941.12 -1025.17 -1078.28 -1095.52
484.21 454.97 383.78 295.62 224.94 168.86 124.52 99.42 95.28 112.42 146.19 184.47 205.82 199.47 172.38 129.96 81.45 39.35 9.60 -9.86 -19.91 -21.93 -17.81 -13.21 -10.91 -2.04 14.99 24.22 30.36 42.12 55.32 63.67 70.19 81.99 94.87 98.80 91.42 74.83 41.61 -4.18 -33.73 -43.34 -42.61 -35.60 -27.89 -21.32 -12.56 -3.59 -2.93 -14.61 -33.02 -51.46 -66.37 -76.38 -82.94 -87.52 -91.40 -98.70 -108.71 -115.69 -116.61 -113.47 -110.85 -111.76 -115.78 -120.76 -124.54 -127.83 -131.71 -137.65 -145.97 -152.85 -155.75 -155.62 -154.45 -154.20 -156.47 -162.77 -171.93 -177.99 -178.97 -178.34 -177.51 -176.88 -175.79 -172.04 -166.36 -162.59 -162.98 -166.18 -168.52 -167.59 -166.03 -165.64 -165.65 -165.78 -167.04 -169.66 -172.29 -174.74 -177.18 -178.83 -189.92 -241.11 -325.80 -377.76 -390.93 -395.33 -400.86 -409.36 -425.19 -452.15 -495.30 -554.78 -617.72 -680.58 -720.52 -720.69 -722.93 -745.94 -771.28 -766.77 -740.62 -717.42 -703.98 -700.19 -705.91 -718.00 -735.28 -761.24 -796.54 -846.07 -917.44 -997.03 -1045.61 -1059.81
437.62 414.28 352.17 267.46 199.83 152.73 113.59 86.34 80.24 98.84 135.87 179.04 209.61 216.85 201.35 166.69 122.26 82.47 54.31 35.19 24.84 22.59 26.38 31.87 35.33 47.64 69.82 79.47 83.09 95.03 112.62 127.82 139.18 150.62 157.79 153.91 141.49 122.77 83.90 27.22 -10.45 -22.79 -21.28 -11.84 -2.83 2.80 8.73 13.25 8.80 -8.41 -31.20 -51.00 -66.08 -76.69 -83.02 -85.48 -87.33 -93.42 -103.94 -113.33 -116.17 -113.06 -109.36 -109.07 -112.34 -116.26 -118.62 -120.38 -123.49 -129.83 -138.64 -145.69 -148.95 -149.69 -149.55 -150.03 -153.11 -160.76 -171.25 -176.59 -175.53 -173.40 -171.92 -170.54 -168.76 -165.92 -162.34 -160.04 -160.25 -162.71 -165.42 -166.44 -167.01 -168.47 -169.82 -170.77 -172.70 -175.42 -177.67 -179.71 -181.36 -182.09 -186.94 -207.50 -240.63 -260.94 -266.62 -269.49 -272.71 -276.27 -281.84 -290.85 -307.71 -336.28 -377.42 -436.00 -505.51 -574.07 -639.64 -702.75 -758.62 -770.60 -749.72 -729.00 -717.08 -713.31 -718.04 -727.81 -741.26 -764.10 -799.66 -849.13 -914.05 -984.03 -1028.44 -1042.40
374.18 359.12 309.56 230.85 166.98 128.33 97.05 73.39 69.12 89.34 127.06 169.27 202.00 217.37 212.83 191.47 160.34 129.20 103.81 84.85 75.00 71.86 71.50 72.46 73.96 88.01 113.23 122.54 124.03 137.32 160.46 181.52 193.97 199.57 196.59 183.58 167.55 150.26 111.92 50.78 9.00 -4.12 -2.64 5.65 12.53 15.46 17.40 16.25 6.28 -14.36 -37.72 -56.61 -71.63 -82.56 -88.53 -89.36 -89.17 -93.61 -103.82 -114.81 -120.00 -118.55 -114.91 -114.11 -117.38 -120.91 -121.73 -120.92 -121.62 -126.48 -134.40 -140.84 -143.61 -144.71 -145.62 -146.74 -149.99 -158.14 -169.11 -173.11 -170.09 -166.81 -164.84 -163.09 -161.22 -159.50 -157.83 -156.79 -157.34 -160.25 -163.80 -166.40 -168.54 -171.09 -173.38 -175.10 -177.47 -179.76 -180.94 -182.29 -183.43 -183.58 -184.71 -186.94 -189.06 -190.24 -191.02 -192.57 -194.87 -196.66 -198.12 -200.60 -206.57 -219.92 -245.60 -289.73 -356.90 -447.19 -546.64 -642.92 -727.34 -755.02 -739.80 -721.58 -711.00 -707.21 -710.24 -718.55 -731.34 -751.62 -784.26 -830.00 -887.50 -948.22 -988.82 -1002.83
308.50 296.56 254.18 186.03 133.57 104.46 80.12 61.01 59.41 80.33 116.77 155.18 184.84 201.85 205.72 198.27 182.84 165.57 150.63 138.59 130.60 123.58 115.49 106.77 101.83 116.12 144.58 156.03 158.79 174.83 200.82 220.61 226.28 219.82 203.08 181.06 164.31 151.92 118.98 60.08 18.96 6.53 6.33 10.29 13.02 12.10 8.79 2.08 -10.20 -28.69 -48.18 -64.94 -79.81 -90.62 -96.05 -96.47 -96.08 -99.77 -108.64 -118.69 -124.45 -124.79 -123.08 -123.85 -127.80 -131.10 -131.33 -129.13 -127.52 -129.71 -135.19 -139.66 -140.70 -140.50 -141.16 -142.58 -145.96 -154.54 -165.98 -169.04 -164.54 -160.13 -157.21 -155.26 -154.27 -153.85 -153.57 -153.76 -155.09 -158.28 -162.14 -165.81 -169.27 -172.50 -175.48 -177.77 -179.64 -181.00 -181.82 -183.23 -184.50 -184.24 -184.06 -182.48 -178.17 -175.54 -175.26 -175.88 -177.32 -178.28 -178.32 -178.58 -180.62 -187.36 -203.24 -232.56 -282.60 -360.18 -459.57 -573.66 -679.04 -719.54 -710.54 -695.39 -686.72 -683.06 -684.42 -691.91 -705.26 -723.33 -749.87 -788.60 -838.74 -891.36 -927.32 -940.39
266.35 250.66 205.90 145.93 105.07 83.58 65.37 51.06 50.74 70.03 103.89 139.11 165.38 181.32 189.47 192.70 193.04 193.45 194.97 192.83 182.69 166.44 150.29 134.73 126.61 143.56 177.48 194.70 203.29 222.12 243.01 250.38 241.61 221.49 193.00 164.92 149.37 141.68 112.69 55.87 15.68 3.00 0.76 2.34 3.67 0.43 -8.16 -19.96 -32.41 -45.48 -58.77 -72.30 -85.81 -96.12 -102.12 -104.74 -106.94 -110.92 -117.04 -123.32 -127.24 -128.57 -129.53 -132.33 -135.90 -138.01 -138.55 -136.90 -134.51 -134.44 -136.80 -138.34 -136.95 -134.44 -133.65 -135.12 -139.19 -148.38 -160.35 -163.77 -159.43 -154.77 -151.45 -149.58 -149.44 -150.17 -151.25 -152.91 -155.37 -158.60 -162.14 -166.17 -170.44 -174.07 -176.99 -178.87 -179.60 -180.14 -181.39 -183.56 -185.50 -185.59 -184.86 -182.31 -177.33 -174.76 -174.57 -174.97 -175.71 -176.01 -176.02 -175.87 -175.95 -178.34 -187.82 -208.81 -246.67 -308.85 -398.03 -516.92 -633.44 -681.57 -677.05 -665.10 -659.11 -657.94 -661.28 -669.84 -683.28 -699.89 -722.49 -756.09 -799.46 -843.04 -870.98 -880.40
249.14 229.33 179.72 120.89 83.46 64.24 50.59 41.77 43.78 61.29 90.98 122.27 144.38 156.82 164.95 176.13 193.44 211.85 225.32 226.87 211.51 187.23 165.60 147.85 142.08 165.16 206.65 231.62 246.46 265.44 275.95 265.94 240.55 209.65 175.44 145.81 131.30 124.57 95.83 39.51 -0.20 -13.42 -16.46 -14.12 -11.67 -15.51 -26.90 -41.35 -53.34 -62.00 -69.72 -79.11 -89.86 -99.16 -106.27 -111.72 -116.34 -120.77 -124.54 -126.51 -127.77 -129.63 -132.56 -136.12 -137.74 -137.84 -138.92 -138.59 -136.17 -134.63 -134.72 -133.95 -130.58 -126.28 -124.42 -125.88 -130.13 -139.08 -151.61 -157.05 -154.81 -151.45 -149.15 -147.79 -147.95 -149.53 -151.89 -154.92 -158.59 -162.17 -165.49 -169.16 -172.74 -175.57 -177.29 -178.14 -178.48 -178.85 -180.23 -182.89 -185.61 -186.79 -186.09 -182.41 -176.55 -173.46 -173.27 -174.09 -174.92 -175.07 -175.28 -175.29 -174.96 -175.45 -181.09 -196.49 -225.02 -273.93 -351.29 -467.04 -590.32 -644.97 -643.94 -634.67 -631.36 -633.83 -641.60 -653.31 -667.27 -683.99 -706.10 -735.97 -771.69 -806.37 -827.57 -834.07
245.13 222.73 168.45 105.52 66.38 47.81 37.55 33.29 38.25 53.84 76.37 99.57 115.97 126.28 136.23 154.35 183.73 212.71 228.71 227.48 209.73 184.44 160.37 141.21 138.31 168.37 219.09 252.95 272.75 290.82 294.89 273.51 234.89 194.78 158.51 130.36 115.85 106.28 74.65 17.95 -20.85 -33.57 -36.16 -33.15 -30.58 -35.05 -46.32 -59.52 -69.90 -76.27 -80.55 -85.98 -93.77 -101.98 -108.76 -113.61 -117.66 -122.09 -125.09 -124.83 -124.72 -127.51 -131.59 -134.40 -133.52 -131.80 -133.23 -133.78 -130.72 -127.59 -126.33 -124.78 -121.29 -117.57 -116.01 -117.14 -121.00 -129.77 -143.02 -150.81 -151.28 -149.85 -149.11 -148.83 -149.79 -152.21 -154.99 -158.29 -162.58 -166.90 -170.62 -173.72 -175.73 -176.73 -176.81 -176.97 -177.80 -178.59 -180.10 -182.79 -185.26 -186.74 -186.49 -182.46 -175.91 -172.14 -172.07 -173.27 -174.44 -174.87 -174.91 -174.84 -174.73 -174.87 -178.34 -189.09 -210.29 -247.99 -311.86 -420.46 -547.32 -607.89 -610.70 -604.58 -604.33 -610.28 -622.09 -637.66 -654.48 -673.80 -697.14 -724.65 -755.50 -784.55 -801.19 -805.84
254.55 229.31 169.01 99.69 58.27 42.05 34.95 31.46 33.67 42.72 56.03 69.94 81.48 93.24 108.62 131.53 162.10 189.33 200.60 195.49 179.76 158.64 135.73 117.55 117.64 153.68 212.74 253.71 276.72 295.97 301.71 279.67 235.24 188.09 150.61 124.12 108.62 95.21 59.99 1.88 -36.99 -49.52 -51.73 -49.55 -48.59 -53.81 -63.42 -73.10 -80.68 -85.59 -88.17 -91.50 -98.11 -105.34 -109.43 -110.08 -110.89 -114.22 -117.60 -117.85 -117.72 -120.82 -124.74 -126.42 -125.29 -124.35 -126.30 -126.57 -122.37 -117.56 -114.83 -113.30 -111.70 -110.48 -109.98 -110.91 -114.70 -124.17 -138.06 -147.07 -149.42 -149.66 -150.38 -151.47 -153.32 -155.96 -158.43 -161.45 -166.07 -171.23 -175.37 -177.64 -178.20 -177.84 -177.11 -177.19 -178.24 -179.50 -181.67 -184.33 -185.92 -186.63 -186.34 -182.46 -176.03 -172.49 -172.64 -173.63 -174.73 -175.48 -175.49 -175.33 -175.18 -175.10 -177.01 -184.01 -200.34 -230.87 -283.98 -383.17 -506.71 -569.78 -576.29 -573.23 -575.78 -584.92 -600.56 -620.82 -643.19 -667.58 -694.44 -724.53 -757.29 -785.81 -799.72 -802.76
269.30 242.13 178.44 106.01 65.31 53.25 48.74 41.90 34.42 31.51 34.85 41.90 50.96 65.01 84.89 108.11 131.33 147.82 152.13 147.24 137.29 121.65 101.53 86.48 90.61 131.40 195.53 239.28 262.36 283.54 294.45 277.08 234.58 187.57 151.75 128.15 112.86 95.63 56.10 -4.48 -44.59 -58.18 -61.41 -61.30 -62.53 -67.60 -75.02 -81.63 -86.23 -89.15 -90.46 -93.51 -100.68 -106.72 -107.24 -103.52 -100.58 -101.96 -105.68 -107.42 -107.44 -109.66 -112.54 -114.08 -115.39 -117.34 -119.75 -119.12 -114.26 -108.38 -104.43 -103.49 -104.73 -106.37 -107.02 -108.43 -112.93 -123.19 -137.35 -146.51 -149.52 -150.84 -153.12 -156.02 -158.36 -160.00 -161.20 -163.39 -168.02 -173.97 -178.66 -180.54 -180.15 -179.28 -179.09 -179.63 -180.61 -181.96 -184.16 -186.35 -187.06 -186.69 -186.03 -182.69 -176.99 -173.87 -173.63 -173.99 -175.03 -175.90 -175.89 -175.64 -175.68 -175.97 -176.51 -180.01 -191.93 -217.18 -263.06 -353.95 -471.44 -534.06 -542.90 -541.40 -544.56 -555.08 -573.90 -600.00 -630.26 -661.81 -696.00 -734.41 -772.49 -803.85 -820.76 -825.62
279.75 257.29 200.16 128.64 88.02 78.55 73.86 60.59 42.06 28.05 22.51 23.69 30.76 45.81 66.34 85.40 99.58 107.05 109.39 110.63 108.86 97.08 77.08 62.21 67.01 108.38 173.02 215.19 236.24 259.55 276.13 266.46 233.01 192.56 161.41 144.06 132.54 112.45 67.84 4.38 -37.31 -53.54 -60.64 -64.51 -68.48 -73.11 -78.11 -82.72 -85.67 -86.50 -85.91 -88.71 -96.64 -102.32 -101.39 -96.24 -91.19 -89.94 -92.31 -95.12 -96.15 -97.08 -98.61 -101.50 -105.96 -109.72 -111.84 -110.76 -106.16 -100.38 -96.48 -96.09 -99.46 -103.84 -106.35 -109.00 -114.54 -125.45 -139.83 -148.82 -151.98 -153.93 -157.41 -161.90 -164.51 -164.57 -163.67 -164.06 -167.95 -174.48 -180.16 -182.41 -181.79 -181.19 -182.05 -183.21 -184.22 -185.02 -185.76 -186.53 -186.61 -186.11 -185.62 -182.79 -177.54 -174.35 -173.65 -173.71 -174.75 -175.49 -175.47 -175.47 -175.91 -176.46 -176.29 -177.64 -185.67 -206.05 -247.15 -332.25 -443.27 -502.36 -511.45 -511.51 -515.33 -526.11 -546.50 -577.03 -614.79 -654.99 -700.43 -749.81 -792.83 -826.72 -848.40 -856.29
306.70 291.30 242.02 168.50 122.08 108.93 99.00 77.69 50.66 29.69 17.89 14.02 18.84 32.74 50.23 63.79 72.87 78.76 85.09 95.14 102.17 94.01 72.05 52.26 51.07 86.56 147.08 186.65 207.63 234.13 256.40 256.26 235.18 204.81 180.75 170.86 164.82 144.74 96.24 29.16 -15.30 -36.15 -49.43 -58.18 -64.34 -68.52 -71.74 -75.24 -77.84 -77.21 -74.13 -75.36 -82.94 -89.11 -89.50 -85.98 -80.94 -77.51 -78.34 -82.71 -86.03 -86.13 -86.02 -90.18 -97.04 -100.95 -101.91 -101.07 -98.17 -94.02 -91.47 -91.94 -96.40 -102.57 -107.46 -111.96 -118.02 -129.20 -144.27 -153.32 -156.38 -159.06 -163.36 -168.15 -170.41 -169.37 -166.89 -165.64 -168.26 -174.37 -180.47 -183.04 -182.51 -182.43 -183.68 -184.61 -185.37 -185.84 -185.52 -184.89 -184.61 -184.80 -184.80 -182.07 -176.79 -173.55 -173.01 -173.11 -173.85 -174.53 -174.99 -175.48 -175.68 -175.66 -175.49 -176.35 -181.67 -196.99 -231.97 -309.53 -412.85 -469.08 -480.19 -482.81 -487.75 -498.32 -519.39 -552.52 -595.33 -644.38 -701.12 -758.79 -806.18 -841.06 -862.17 -869.41
358.36 342.01 290.72 216.09 166.14 144.53 124.70 95.21 63.48 39.25 23.35 15.44 15.69 22.76 32.72 40.55 48.06 57.93 71.66 89.44 102.80 99.07 77.52 52.73 42.64 67.50 120.04 157.67 180.78 209.41 235.20 243.26 233.05 214.22 199.62 194.99 191.41 173.18 125.93 59.73 13.63 -12.42 -31.85 -44.12 -50.24 -53.20 -55.81 -59.31 -62.20 -61.23 -56.48 -55.57 -62.08 -69.12 -72.56 -72.35 -68.85 -65.28 -65.86 -71.01 -75.45 -75.64 -75.17 -79.84 -87.45 -91.33 -91.89 -92.11 -91.90 -90.78 -90.45 -92.24 -97.37 -104.21 -110.75 -116.49 -121.94 -132.31 -147.84 -157.59 -160.93 -164.32 -169.15 -173.37 -174.82 -173.57 -171.01 -169.22 -170.52 -175.22 -180.23 -182.30 -181.61 -181.40 -182.12 -182.37 -182.85 -183.56 -183.57 -182.69 -182.06 -182.45 -182.75 -180.42 -175.44 -172.32 -172.20 -172.97 -173.74 -174.51 -175.34 -175.65 -175.07 -174.59 -174.80 -175.51 -178.19 -187.26 -212.89 -279.03 -372.14 -425.91 -439.78 -444.32 -449.17 -459.08 -480.07 -513.50 -557.35 -611.49 -676.10 -738.57 -788.14 -823.00 -841.23 -846.23
437.82 415.59 360.15 293.52 247.84 215.43 181.86 144.91 111.38 86.44 68.39 55.07 39.79 22.46 14.71 15.50 22.17 36.35 56.21 77.80 93.18 93.27 75.93 51.07 34.60 45.88 83.18 115.49 140.18 167.85 191.67 202.17 198.90 190.69 186.68 187.40 185.01 170.62 137.30 91.25 53.93 25.65 2.77 -10.20 -14.06 -15.13 -18.56 -23.99 -28.55 -28.72 -25.23 -27.87 -40.53 -52.00 -58.41 -60.54 -58.91 -56.72 -57.13 -60.79 -64.08 -64.87 -65.95 -70.91 -78.25 -83.97 -87.18 -89.78 -91.94 -93.47 -94.93 -97.54 -103.07 -110.07 -116.95 -122.63 -126.53 -134.27 -147.78 -157.44 -161.68 -165.69 -170.73 -174.76 -176.25 -175.46 -173.18 -171.51 -172.00 -174.90 -177.70 -178.28 -177.12 -176.78 -177.37 -177.57 -178.29 -179.60 -180.49 -180.35 -179.74 -179.75 -179.89 -178.40 -174.64 -172.14 -172.78 -174.54 -175.55 -176.08 -176.50 -176.22 -175.37 -174.78 -175.05 -175.40 -175.74 -179.03 -194.07 -240.75 -309.29 -350.00 -361.35 -365.23 -369.26 -378.62 -398.60 -429.31 -468.83 -522.03 -591.04 -657.22 -705.93 -738.69 -755.21 -759.79
543.76 520.40 467.47 409.75 367.20 324.88 277.97 233.51 197.78 172.66 153.49 132.30 91.25 34.41 0.45 -7.20 -2.39 12.57 34.40 56.04 69.92 71.05 57.59 36.30 19.22 19.14 38.13 62.19 85.81 108.98 125.70 131.73 129.70 127.87 132.49 140.15 142.10 136.69 130.34 123.08 105.83 79.59 56.16 44.08 42.71 43.37 38.62 29.95 22.43 19.42 17.88 4.40 -23.24 -42.90 -51.03 -53.95 -53.88 -53.37 -53.80 -55.54 -56.71 -56.87 -58.10 -62.64 -70.59 -79.36 -86.14 -91.69 -96.07 -99.59 -102.25 -105.13 -110.43 -117.18 -124.11 -129.70 -132.39 -136.37 -144.61 -151.74 -156.30 -160.91 -166.30 -171.04 -173.68 -173.77 -172.08 -170.89 -170.64 -171.17 -171.52 -170.89 -170.22 -171.20 -172.88 -173.48 -174.36 -175.96 -177.40 -178.09 -177.71 -177.25 -177.14 -176.92 -175.50 -174.40 -175.21 -176.62 -177.60 -178.13 -178.31 -177.84 -176.90 -176.01 -176.12 -176.49 -175.92 -175.90 -181.49 -202.13 -232.91 -251.24 -256.39 -258.30 -260.98 -268.63 -285.36 -311.02 -344.65 -394.55 -463.55 -529.20 -574.04 -603.10 -618.47 -623.48
637.93 616.18 564.57 504.43 457.24 408.27 353.50 303.10 263.82 237.31 217.36 190.54 131.61 47.71 -4.85 -19.67 -18.02 -5.34 14.44 32.79 42.81 42.82 32.58 16.35 3.19 0.70 12.40 32.32 51.97 68.03 76.94 77.52 74.80 76.04 84.76 96.56 103.51 108.07 123.55 145.42 144.78 121.44 97.72 86.12 86.06 87.85 82.75 72.28 62.82 56.67 48.90 25.61 -13.50 -39.39 -48.93 -52.40 -53.19 -54.35 -56.00 -57.38 -56.78 -54.16 -52.29 -54.51 -62.60 -73.27 -82.63 -90.80 -97.33 -102.60 -106.25 -109.48 -114.18 -120.41 -127.84 -133.92 -136.51 -138.31 -142.38 -147.23 -151.78 -156.28 -161.15 -166.07 -169.90 -171.30 -170.66 -169.64 -168.28 -166.72 -165.67 -165.28 -166.49 -169.45 -171.81 -172.12 -172.62 -174.21 -175.81 -176.86 -176.73 -175.94 -175.46 -176.04 -176.96 -177.41 -177.57 -177.83 -178.65 -179.43 -179.70 -179.32 -178.44 -177.59 -177.60 -178.03 -177.28 -175.49 -175.70 -180.95 -189.39 -194.54 -196.05 -196.72 -197.86 -202.27 -213.60 -233.54 -263.10 -308.93 -371.35 -430.19 -469.58 -496.19 -511.33 -516.41
696.34 675.31 622.02 554.41 499.53 446.18 388.26 336.08 295.77 268.25 247.23 217.36 151.29 56.61 -4.39 -23.29 -23.62 -13.37 2.00 14.33 18.91 17.01 10.16 -0.24 -8.05 -7.02 6.27 25.54 40.41 48.45 49.83 46.63 45.11 49.33 57.85 67.44 75.79 88.20 117.12 154.13 164.04 144.65 121.43 109.10 107.19 107.87 103.12 93.38 84.04 76.06 64.04 34.62 -10.59 -40.15 -50.65 -54.13 -55.44 -58.12 -61.53 -64.12 -63.52 -58.74 -53.13 -51.72 -57.80 -68.56 -79.70 -89.71 -97.39 -103.49 -108.14 -112.16 -116.54 -122.10 -129.49 -135.74 -139.08 -141.24 -144.17 -147.85 -152.21 -156.42 -159.69 -162.88 -166.15 -168.24 -168.31 -166.87 -165.13 -163.85 -163.40 -164.31 -166.84 -169.79 -171.14 -170.65 -171.08 -173.28 -175.01 -175.65 -175.62 -174.99 -174.45 -174.96 -176.70 -177.93 -177.99 -177.98 -178.52 -179.12 -179.28 -179.20 -179.33 -179.20 -178.68 -178.62 -178.09 -175.68 -173.67 -174.66 -178.24 -180.89 -181.50 -181.70 -182.15 -184.05 -190.28 -203.77 -227.21 -264.39 -315.48 -367.62 -404.95 -431.09 -446.21 -451.31
709.23 690.64 640.61 573.00 514.80 457.98 397.24 345.75 308.45 281.80 259.32 227.66 159.33 61.47 -1.80 -21.96 -24.13 -17.56 -7.58 -0.77 -0.17 -3.17 -7.78 -13.29 -15.31 -9.30 6.56 25.29 36.08 36.84 30.68 23.70 23.60 30.04 36.06 40.86 48.60 66.97 106.45 154.39 172.97 158.91 137.57 123.61 117.41 114.39 108.91 100.78 92.65 84.09 70.12 36.46 -13.32 -45.14 -55.68 -58.87 -60.71 -64.29 -68.75 -72.25 -72.68 -68.20 -60.74 -56.35 -59.52 -69.09 -81.19 -92.27 -100.07 -105.73 -110.83 -115.29 -118.91 -123.15 -129.14 -135.28 -140.57 -145.15 -148.85 -151.80 -155.64 -159.50 -161.19 -161.90 -163.21 -164.90 -164.93 -163.21 -162.37 -163.18 -164.59 -166.55 -168.56 -169.56 -169.26 -168.42 -169.30 -172.30 -174.30 -174.49 -174.18 -173.57 -173.10 -173.50 -175.06 -176.61 -177.50 -178.01 -178.22 -178.30 -178.48 -178.85 -179.75 -180.02 -179.20 -178.70 -178.20 -175.84 -172.98 -172.42 -174.99 -177.41 -177.77 -177.65 -178.39 -179.94 -183.05 -190.23 -204.21 -227.43 -264.38 -309.88 -347.29 -374.70 -390.68 -396.23
693.11 673.79 625.58 563.08 505.51 444.55 380.29 330.17 297.97 275.42 254.88 225.16 159.28 64.09 3.40 -16.85 -22.96 -22.80 -19.01 -16.16 -16.53 -18.30 -20.72 -22.36 -19.29 -9.43 7.34 24.38 31.88 27.43 15.81 5.90 5.65 12.07 16.73 20.62 29.71 51.67 97.11 151.19 174.42 163.94 144.01 128.69 119.21 112.67 105.82 98.76 91.77 83.27 68.61 32.95 -18.82 -50.80 -60.62 -63.82 -65.88 -69.27 -73.49 -77.02 -78.92 -76.52 -69.15 -63.09 -63.94 -71.91 -83.69 -94.91 -102.79 -108.01 -112.64 -116.49 -119.07 -121.81 -126.33 -133.11 -140.66 -147.54 -152.46 -155.52 -159.15 -162.49 -163.58 -163.18 -162.83 -162.94 -161.99 -160.48 -160.72 -163.13 -166.23 -168.55 -169.32 -168.78 -167.64 -167.08 -168.53 -171.43 -173.41 -173.51 -172.78 -171.80 -171.03 -171.61 -173.33 -175.47 -177.22 -178.02 -178.08 -178.06 -178.57 -179.43 -180.20 -179.77 -178.69 -178.21 -177.37 -174.64 -171.33 -169.83 -171.46 -173.50 -173.78 -173.59 -174.96 -177.45 -179.88 -183.36 -189.38 -199.83 -221.64 -254.76 -287.13 -314.73 -332.87 -339.49
660.34 640.23 592.07 530.54 471.95 410.09 348.26 302.80 274.64 254.91 237.45 213.02 154.80 67.71 12.32 -8.59 -19.91 -26.27 -27.79 -27.46 -27.74 -29.01 -30.34 -28.95 -22.93 -12.72 1.98 16.20 21.73 16.15 3.49 -7.54 -9.37 -4.25 1.82 10.37 24.42 48.12 92.38 145.01 167.39 157.66 138.98 123.86 113.37 105.40 98.09 91.94 86.09 78.08 63.36 28.14 -21.98 -51.88 -60.15 -62.74 -64.37 -66.97 -71.01 -76.09 -81.33 -82.48 -76.66 -69.33 -67.71 -73.30 -82.92 -93.12 -101.28 -106.79 -110.51 -113.14 -115.40 -118.09 -122.81 -130.96 -139.98 -147.60 -153.23 -156.72 -159.89 -162.81 -164.56 -164.43 -163.18 -161.71 -160.09 -159.46 -160.46 -163.21 -166.34 -167.67 -167.46 -167.10 -166.73 -167.08 -168.51 -170.08 -171.20 -171.06 -170.15 -169.24 -168.74 -169.65 -171.72 -174.71 -177.13 -177.87 -178.08 -178.25 -178.80 -179.81 -180.18 -179.03 -177.73 -177.30 -176.04 -172.86 -169.34 -167.08 -167.37 -168.43 -168.70 -168.81 -170.66 -173.89 -177.07 -180.17 -182.88 -186.76 -197.35 -215.74 -237.44 -260.78 -278.20 -284.79
604.11 589.09 549.06 491.56 434.04 378.43 327.96 291.59 264.50 240.03 220.22 201.41 154.42 78.18 27.43 4.58 -11.26 -21.37 -25.16 -26.30 -28.38 -32.40 -35.72 -34.33 -28.58 -21.23 -11.99 -1.71 3.74 0.69 -8.62 -17.69 -20.61 -17.20 -9.30 5.01 24.76 49.04 87.97 134.65 153.52 143.50 126.95 113.53 103.47 95.76 89.01 84.01 79.65 73.17 60.04 27.57 -18.69 -45.77 -52.81 -55.15 -57.20 -59.69 -64.09 -71.43 -80.34 -85.56 -83.25 -76.31 -72.23 -74.68 -80.82 -88.66 -95.96 -101.21 -104.64 -107.22 -109.99 -113.49 -119.45 -128.85 -138.46 -145.53 -150.69 -154.50 -157.59 -160.46 -162.59 -162.28 -160.48 -158.66 -157.68 -158.98 -161.57 -164.02 -164.98 -163.97 -163.09 -163.86 -165.26 -166.26 -166.35 -166.26 -166.78 -166.52 -165.73 -165.69 -166.67 -168.62 -171.18 -174.58 -177.12 -177.85 -178.63 -179.11 -179.06 -179.30 -179.62 -179.02 -177.78 -176.78 -175.29 -172.41 -168.93 -166.19 -165.06 -163.97 -163.11 -163.33 -165.81 -169.98 -174.10 -177.67 -180.01 -182.27 -187.55 -196.13 -208.25 -224.93 -238.45 -243.56
538.97 532.05 507.66 464.56 417.70 373.93 336.65 308.58 279.44 245.24 218.46 202.82 165.40 97.00 47.64 21.68 2.57 -8.04 -10.52 -12.17 -17.83 -26.67 -34.72 -37.50 -35.30 -31.99 -28.94 -23.18 -16.80 -15.68 -19.97 -25.61 -28.56 -26.90 -19.55 -3.27 19.55 44.19 80.00 122.99 139.86 130.26 115.49 103.85 95.20 88.88 83.07 78.51 75.49 71.90 62.25 33.23 -9.89 -35.52 -43.03 -47.03 -51.10 -54.32 -58.53 -66.26 -76.48 -84.80 -87.45 -83.80 -78.91 -78.19 -80.63 -85.42 -90.84 -95.54 -99.68 -103.48 -107.21 -111.36 -117.83 -126.86 -135.44 -140.97 -144.56 -148.03 -151.77 -155.02 -156.80 -156.02 -154.20 -153.01 -153.71 -157.69 -161.98 -163.53 -162.16 -159.86 -158.98 -160.24 -162.15 -162.49 -160.95 -160.13 -160.84 -161.10 -161.17 -162.27 -164.60 -167.72 -171.13 -174.61 -176.60 -177.26 -178.37 -179.18 -179.01 -178.42 -178.61 -178.88 -177.70 -175.87 -174.46 -172.48 -169.67 -167.09 -164.81 -161.27 -158.25 -157.62 -160.55 -166.17 -171.61 -175.44 -177.85 -180.47 -183.92 -187.79 -194.10 -204.41 -213.00 -216.22
500.21 496.32 480.17 450.52 420.10 392.54 367.13 343.46 312.05 270.86 237.70 221.30 186.67 118.96 67.14 38.17 16.80 6.87 7.79 7.52 -1.41 -15.56 -29.31 -37.76 -40.58 -41.34 -42.35 -40.04 -33.86 -29.33 -29.03 -31.76 -34.50 -33.91 -28.22 -13.58 9.33 35.14 71.77 114.93 132.08 123.62 110.09 99.71 92.57 87.66 83.30 79.67 78.04 76.91 69.70 42.07 -0.92 -27.44 -36.55 -42.93 -49.13 -53.37 -57.37 -63.51 -71.77 -80.53 -87.62 -89.71 -87.03 -83.72 -82.23 -83.99 -88.07 -93.03 -98.37 -103.41 -107.65 -112.05 -118.48 -126.00 -131.64 -134.37 -136.10 -138.96 -143.00 -146.30 -148.08 -148.14 -147.46 -147.67 -150.54 -156.34 -160.75 -160.82 -158.17 -155.86 -155.13 -156.18 -157.79 -157.64 -155.85 -155.15 -156.07 -156.97 -158.29 -160.56 -163.58 -167.20 -171.16 -174.34 -175.47 -175.67 -176.31 -176.94 -177.18 -176.90 -177.30 -178.00 -176.86 -174.66 -173.42 -172.32 -170.37 -167.76 -164.26 -159.47 -155.30 -153.72 -156.53 -162.90 -169.41 -173.94 -176.84 -179.85 -182.65 -184.46 -186.93 -190.59 -193.15 -194.17
499.02 490.79 469.14 441.75 423.29 411.38 396.54 376.02 346.51 306.70 270.49 248.34 208.10 134.59 77.91 47.00 26.05 18.54 23.93 26.54 15.96 -2.08 -20.01 -32.96 -40.20 -44.58 -48.33 -49.26 -45.93 -41.05 -38.15 -38.93 -40.84 -39.42 -33.44 -19.94 2.02 28.36 67.23 113.08 132.20 125.43 113.72 104.58 98.47 95.14 92.82 90.31 88.34 86.86 79.65 51.04 5.19 -24.26 -35.02 -43.02 -51.04 -57.18 -61.98 -65.91 -69.83 -75.77 -84.87 -92.93 -94.96 -91.03 -85.94 -84.07 -86.33 -91.35 -97.68 -104.15 -109.41 -113.97 -119.73 -125.14 -127.42 -127.62 -128.41 -131.08 -134.87 -137.97 -139.93 -141.42 -143.15 -145.82 -150.14 -155.48 -158.61 -157.44 -154.03 -151.31 -150.16 -151.09 -153.19 -153.84 -152.86 -152.22 -153.04 -154.66 -157.20 -160.43 -163.85 -167.46 -171.42 -174.18 -174.62 -174.22 -173.78 -173.36 -173.75 -174.70 -176.00 -177.06 -176.48 -174.54 -173.00 -171.46 -169.13 -166.07 -162.37 -158.30 -154.53 -152.27 -154.51 -160.87 -167.66 -172.99 -176.89 -179.85 -181.92 -182.96 -183.05 -182.22 -181.61 -181.96
491.14 479.71 452.28 422.18 408.64 407.86 403.36 388.84 364.92 330.74 294.77 267.75 222.11 144.07 83.10 50.67 32.93 31.37 42.38 47.30 35.54 14.84 -6.23 -22.40 -32.48 -39.57 -45.68 -50.00 -51.89 -50.96 -48.97 -48.85 -48.35 -43.64 -34.74 -19.58 2.13 27.63 68.96 120.82 145.30 141.74 131.97 123.98 119.59 118.82 117.57 113.04 107.36 103.15 94.04 61.78 9.71 -24.97 -38.13 -46.68 -55.19 -63.18 -69.63 -72.56 -72.78 -75.07 -83.72 -94.94 -100.76 -97.81 -90.48 -85.11 -84.72 -88.34 -94.48 -102.05 -108.82 -113.32 -117.25 -120.36 -120.95 -121.07 -123.22 -127.05 -130.82 -133.77 -136.00 -138.63 -142.46 -146.73 -151.07 -154.67 -156.16 -154.42 -150.71 -147.45 -145.83 -146.45 -148.66 -149.85 -149.42 -148.87 -149.87 -152.50 -156.01 -159.75 -163.63 -167.34 -171.14 -173.88 -174.43 -173.92 -172.91 -171.66 -171.22 -172.27 -174.20 -175.85 -176.20 -174.59 -172.13 -169.11 -165.62 -162.05 -158.84 -155.74 -152.62 -150.67 -152.94 -158.89 -165.62 -171.71 -176.52 -179.45 -180.89 -181.50 -180.63 -178.49 -177.38 -177.74
431.50 419.84 391.73 361.00 349.31 355.13 360.80 356.42 340.57 311.28 278.63 253.96 215.78 151.21 96.45 64.49 50.56 56.75 73.15 77.98 63.55 39.19 14.55 -4.28 -16.71 -26.48 -35.50 -43.56 -51.67 -57.15 -58.58 -58.11 -54.17 -45.17 -32.25 -13.80 7.92 32.01 79.18 145.83 182.65 184.94 177.33 170.59 168.82 170.65 169.29 161.15 150.53 142.95 131.18 90.35 23.14 -22.62 -39.83 -48.37 -56.18 -65.18 -73.39 -76.97 -76.25 -76.43 -83.29 -94.23 -101.50 -100.78 -93.45 -86.22 -83.59 -85.01 -89.54 -96.35 -103.48 -107.68 -109.88 -111.80 -112.97 -115.01 -119.68 -125.30 -129.66 -132.84 -135.98 -140.16 -144.86 -148.67 -151.86 -153.74 -153.68 -151.72 -148.44 -145.21 -143.14 -142.63 -143.72 -144.67 -144.64 -144.67 -146.42 -150.06 -154.53 -158.93 -163.05 -166.43 -169.76 -172.88 -174.42 -174.59 -173.59 -171.93 -170.20 -169.99 -171.48 -173.23 -174.04 -172.77 -169.97 -166.02 -161.33 -157.08 -153.99 -150.94 -147.96 -147.15 -150.08 -155.64 -162.22 -168.47 -173.44 -176.71 -178.06 -178.06 -176.83 -174.91 -173.92 -174.15
335.12 324.48 298.48 269.09 257.79 265.53 277.44 282.61 275.88 253.36 227.45 210.23 190.16 156.73 120.60 92.92 83.16 96.66 117.12 120.62 102.52 73.12 44.24 22.70 6.47 -8.40 -22.86 -35.87 -49.43 -60.61 -65.84 -65.65 -59.12 -46.45 -29.82 -9.19 11.64 35.73 93.31 180.38 232.46 241.63 237.16 232.75 233.16 236.32 234.92 224.99 211.56 202.19 188.27 136.13 48.03 -12.21 -34.14 -44.05 -52.62 -62.10 -71.00 -76.00 -76.77 -76.81 -82.05 -91.34 -98.81 -101.11 -96.19 -89.00 -84.51 -83.22 -85.08 -89.66 -95.70 -99.66 -101.63 -104.07 -107.38 -111.85 -118.37 -125.14 -130.38 -134.16 -137.78 -142.46 -147.05 -149.85 -151.17 -151.51 -151.31 -150.15 -147.41 -143.87 -140.71 -138.65 -138.42 -139.36 -140.13 -140.92 -143.61 -148.39 -153.63 -158.21 -161.93 -164.43 -167.18 -170.87 -173.63 -174.60 -173.46 -170.93 -168.54 -167.60 -168.46 -169.95 -170.69 -169.68 -167.08 -162.86 -157.66 -152.96 -149.18 -145.51 -142.32 -142.05 -144.95 -150.02 -156.29 -162.15 -167.13 -171.01 -172.70 -172.55 -171.70 -170.96 -171.00 -171.62
269.44 260.86 238.81 212.05 200.96 207.74 220.45 230.01 230.51 217.35 199.77 188.49 181.05 170.67 151.03 129.45 123.65 140.69 163.19 166.65 146.59 113.12 78.48 51.48 29.40 8.11 -12.94 -31.10 -48.20 -62.32 -69.84 -71.18 -65.08 -51.17 -32.35 -11.02 9.28 34.41 97.38 193.02 251.00 264.06 263.33 263.05 265.62 268.75 267.11 257.25 244.35 236.20 222.21 164.63 66.15 -0.80 -25.23 -37.42 -47.86 -57.64 -66.73 -74.09 -78.40 -80.50 -85.11 -92.26 -99.08 -104.01 -102.35 -95.49 -88.44 -83.65 -82.31 -84.57 -88.89 -92.67 -95.82 -99.85 -105.12 -111.12 -118.45 -125.78 -131.64 -135.83 -139.12 -142.51 -145.72 -147.54 -147.39 -146.94 -147.66 -147.66 -145.22 -141.63 -138.03 -135.23 -134.47 -135.63 -136.94 -138.33 -141.62 -146.79 -151.80 -155.59 -158.58 -161.00 -163.87 -167.73 -170.85 -172.18 -171.25 -168.73 -166.48 -165.11 -165.14 -166.20 -166.89 -166.14 -163.64 -159.73 -155.56 -151.13 -146.54 -142.55 -139.60 -139.35 -141.43 -145.25 -150.50 -155.55 -160.06 -164.04 -166.75 -168.10 -168.45 -168.36 -168.56 -169.08
242.12 234.92 216.78 194.99 185.67 190.57 200.46 208.90 212.16 206.77 196.66 190.13 190.86 194.25 186.94 172.04 168.07 182.59 202.52 205.99 187.02 152.59 112.11 75.66 44.87 17.94 -7.58 -28.99 -46.67 -60.20 -68.39 -72.54 -70.14 -58.38 -39.99 -18.79 1.21 26.01 87.56 181.14 237.68 252.01 254.73 258.35 262.65 265.17 263.57 255.54 245.34 239.50 226.55 169.41 71.72 6.37 -17.24 -29.83 -40.87 -50.43 -59.44 -69.00 -77.72 -84.18 -89.39 -94.46 -101.44 -109.70 -111.19 -104.40 -94.51 -85.86 -81.01 -81.07 -83.99 -88.02 -93.08 -98.95 -105.20 -111.63 -118.96 -126.27 -131.94 -135.70 -138.35 -140.20 -141.42 -142.14 -141.95 -141.68 -142.41 -142.52 -140.72 -138.21 -135.16 -132.84 -132.76 -134.06 -135.35 -137.15 -140.23 -144.08 -148.09 -151.29 -153.90 -157.11 -160.78 -164.09 -166.23 -167.51 -167.52 -166.19 -164.54 -162.74 -161.73 -161.99 -162.60 -162.60 -160.85 -157.94 -155.51 -152.00 -147.17 -143.45 -141.21 -140.84 -141.76 -143.52 -147.09 -151.16 -154.77 -158.10 -161.42 -164.36 -165.79 -165.01 -163.31 -162.74
226.75 220.70 206.00 188.94 182.07 186.23 193.13 197.65 199.07 196.61 191.73 190.67 199.36 213.11 216.13 209.32 207.99 218.13 230.28 230.02 211.81 176.74 132.19 88.31 50.58 20.14 -6.99 -28.26 -42.53 -52.33 -60.55 -68.72 -72.19 -65.22 -49.26 -29.42 -11.70 9.94 68.43 160.61 216.81 231.42 235.36 240.01 244.78 248.26 249.21 244.64 237.18 232.11 219.13 163.23 69.08 7.97 -12.61 -23.61 -33.78 -42.07 -50.03 -59.94 -71.02 -80.94 -87.59 -93.28 -103.76 -116.54 -119.84 -112.87 -101.30 -89.68 -81.85 -79.82 -81.78 -86.52 -93.10 -100.17 -107.39 -114.21 -120.77 -126.95 -131.82 -134.98 -136.90 -137.57 -137.46 -137.42 -137.49 -137.13 -136.66 -136.01 -135.26 -134.40 -132.11 -130.56 -131.10 -132.24 -133.71 -136.08 -138.82 -141.27 -144.67 -147.86 -150.53 -154.57 -158.94 -161.65 -162.44 -163.08 -163.51 -163.13 -162.52 -161.09 -159.60 -159.12 -159.67 -160.34 -159.62 -158.11 -157.30 -155.05 -150.52 -147.08 -145.63 -145.28 -144.80 -144.15 -145.42 -148.12 -150.86 -153.48 -156.52 -159.72 -161.27 -159.48 -156.48 -155.56
213.07 208.60 197.21 183.53 178.53 182.99 188.82 190.97 190.11 187.44 185.00 188.14 202.39 222.42 232.36 232.27 233.32 238.95 242.34 235.31 214.26 178.41 134.35 90.40 51.65 19.96 -6.70 -24.67 -33.57 -39.62 -49.08 -61.95 -71.07 -68.98 -56.34 -40.24 -27.43 -10.45 46.22 139.94 197.69 212.35 215.43 218.86 224.64 231.48 236.39 235.71 230.51 224.03 208.37 151.46 59.64 3.18 -13.07 -21.46 -29.76 -36.29 -43.26 -52.28 -62.35 -72.43 -80.97 -90.37 -106.31 -122.96 -126.01 -118.16 -106.05 -92.87 -83.48 -80.47 -82.52 -88.17 -95.62 -103.25 -111.19 -118.26 -123.63 -128.39 -133.15 -136.85 -138.44 -138.00 -136.82 -135.59 -134.81 -133.87 -132.23 -130.35 -129.77 -130.07 -129.33 -129.16 -129.90 -130.68 -132.48 -135.52 -138.56 -141.05 -144.55 -147.64 -150.21 -154.56 -159.16 -161.63 -161.68 -161.50 -161.91 -162.16 -162.20 -161.24 -159.61 -158.91 -159.54 -160.31 -160.38 -160.36 -160.94 -159.91 -155.79 -151.98 -150.73 -150.41 -148.75 -146.14 -144.83 -145.36 -146.68 -148.44 -150.96 -153.85 -154.74 -152.31 -149.29 -148.53
203.30 199.35 189.63 178.53 174.75 178.93 184.31 186.09 184.77 181.84 180.52 186.27 203.61 226.14 238.82 241.79 243.30 244.84 241.77 228.47 203.60 169.90 132.12 92.94 55.90 23.85 -1.77 -16.62 -22.75 -28.99 -41.73 -57.82 -69.78 -71.42 -63.32 -52.95 -45.36 -31.65 25.08 121.86 181.96 197.07 199.30 201.62 209.32 220.38 228.88 231.53 228.35 220.23 200.70 140.62 48.19 -5.67 -17.88 -23.38 -30.13 -35.86 -41.64 -48.59 -56.85 -67.18 -78.29 -91.19 -110.32 -127.97 -129.51 -120.24 -107.76 -94.32 -85.06 -82.92 -86.24 -92.50 -100.35 -108.39 -116.41 -123.46 -128.24 -132.20 -137.46 -142.39 -144.32 -143.36 -141.12 -137.98 -135.04 -132.62 -129.89 -126.98 -126.16 -127.33 -128.38 -129.49 -130.41 -131.13 -133.27 -137.06 -141.18 -144.36 -147.85 -151.18 -154.05 -158.16 -161.94 -163.88 -163.91 -163.60 -164.13 -164.60 -164.34 -163.24 -161.53 -160.87 -161.62 -162.77 -163.74 -164.50 -165.28 -164.11 -159.93 -156.31 -155.67 -155.65 -153.39 -149.39 -145.62 -143.65 -143.20 -143.94 -146.08 -148.90 -149.58 -147.22 -144.34 -143.30
