26.26587 24.50103 25.96046 24.26723 24.51651 26.06455 24.37665 25.11705 26.38844 26.16491 24.84478 25.85780 27.90123 23.18732 23.20009 26.72908 28.75659 24.90974 21.81710 25.16078 24.51431 26.25370 23.11879 26.40671 24.37063 26.73276 26.61029 25.18622 23.94905 25.08249 24.05916 25.71899 24.98447 23.91759 24.86570 26.41351 25.79796 26.41538 27.81746 30.66647 26.71485 26.94572 24.80004 26.56680 25.83101 27.98424 28.67532 31.35453 27.90642 29.82794 28.89686 28.85517 28.89614 32.26956 28.93194 26.35025 27.96379 29.31692 27.51382 29.24957 29.61888 28.66515 28.59663 28.66278 32.55016 33.01365 33.64154 32.65900 27.94419 26.67796 26.14014 28.01669 27.66814 27.03665 27.02267 27.91376 29.64528 30.64507 27.78050 28.20627 25.64448 28.05998 26.43371 30.26033 28.86729 29.77182 30.22562 28.26149 26.60035 27.80735 26.56481 27.35197 26.22068 26.82080 25.31960 27.41501 25.60262 26.58035 27.50821 27.62268 26.79098 25.57130 25.96020 25.73678 26.04837 26.70715 24.86243 25.99847 24.35604 26.36372 25.87729 24.65015 25.77886 23.23906 25.72130 25.43248 21.64261 26.09947 24.77795 26.61939 24.89699 26.16104 25.06217
26.55285 25.68697 25.92218 27.55461 23.91548 22.87957 26.12874 25.47604 24.14606 27.31911 23.29138 26.31313 27.15845 25.28231 25.34070 24.72143 25.17955 25.15898 24.50220 26.54736 25.82947 25.79650 25.38824 24.53470 26.97534 25.38672 24.95383 26.99071 25.44311 26.17690 24.36590 25.47394 24.90499 24.47952 25.09950 25.47184 27.50323 27.62323 28.55146 27.19923 28.31883 25.47061 29.37270 28.35391 27.55460 27.78605 26.99622 29.21880 31.61275 31.47525 29.55541 27.11137 29.17043 30.21824 30.69074 30.17259 27.13144 25.74553 28.10944 31.38724 31.42279 28.55870 29.76799 31.96536 34.56382 36.28021 38.74851 32.73563 30.78331 25.49642 26.77443 24.67363 25.34948 28.27066 26.25279 26.08741 31.03518 28.63056 30.95705 29.99949 27.98818 26.91194 25.09291 28.82979 31.53704 29.22092 27.24850 24.56907 26.26326 27.81107 26.33909 28.02137 25.78135 23.94754 23.57889 26.07336 26.56950 24.50152 25.11410 25.91564 24.34936 26.79281 25.00288 24.81128 26.08612 25.28593 24.56190 25.89486 23.69769 26.34453 25.21873 27.76470 27.32991 22.29170 25.37606 24.85513 24.58977 23.95796 26.23308 23.75207 25.52381 27.33190 27.30254
26.03399 21.88882 22.80408 24.81244 25.43279 24.84673 25.87009 24.29054 23.71057 24.68728 24.59541 26.84404 25.75836 25.97394 23.67182 26.14090 25.04392 27.63830 25.79548 26.61112 26.33745 24.04236 25.49210 26.93016 25.33420 24.68359 23.34877 23.36427 24.37196 25.74637 24.97122 25.60105 25.22095 23.95840 27.19102 26.91364 25.75080 26.28143 27.81758 29.39307 30.29463 31.10804 27.16940 25.27674 24.76074 26.88240 28.99128 29.84067 32.55858 33.86387 34.63643 29.45874 31.79926 32.51139 31.84121 31.13298 26.80453 27.19170 30.19169 31.64557 34.76378 31.00958 28.83354 31.33182 36.97387 38.47011 37.35602 34.65120 29.54202 27.33419 24.96007 26.51898 27.39823 26.25354 25.79352 27.30703 26.46322 32.29878 33.33471 27.73031 27.85087 26.74165 30.48668 31.19393 30.46994 31.78730 27.99049 26.49660 26.01150 25.67567 25.37534 25.28195 23.18391 24.74778 25.00997 26.61198 25.35079 24.47235 25.61024 24.29647 24.05600 23.12291 27.75552 24.81623 25.29542 26.01001 24.93683 26.31432 25.06474 26.39579 25.95003 25.06380 25.87375 27.67076 26.85513 26.07623 24.78143 27.08811 25.38812 24.09303 25.51683 26.01436 24.58173
24.49032 28.02200 25.88290 24.31358 27.49467 26.00439 26.62493 27.16952 24.34027 24.58200 25.30354 25.79597 25.12134 23.46134 26.02471 24.55865 25.31715 27.46647 24.95145 25.91849 25.42394 25.30959 25.70249 26.03622 25.76847 26.94298 25.76352 25.23715 25.00274 24.87327 25.38212 27.90418 25.36464 26.31222 29.13315 23.47307 26.66242 29.45653 27.52631 30.80575 29.08163 28.91301 28.93885 26.69115 25.55998 26.70193 27.55389 32.03887 34.31048 34.19375 35.50540 35.45408 35.13101 31.70736 34.80717 30.29166 28.97801 28.59918 28.21422 32.38513 36.11860 35.31718 30.67685 29.58820 36.09045 38.42462 34.50545 35.06416 30.44359 26.24675 26.74669 27.30979 27.44369 25.90162 27.07497 29.09972 29.12425 31.93875 29.67011 32.10174 31.20574 28.52992 29.64098 31.34768 32.66420 30.27901 31.12874 29.61472 29.59310 28.64466 26.95629 27.36413 25.59031 25.45204 25.87810 25.41103 26.45822 27.48228 26.13051 24.89733 24.81216 27.11790 25.80097 23.71004 26.93031 25.22320 25.11845 25.76084 25.86384 24.66207 26.44434 27.73380 25.10388 24.82409 24.23498 23.57469 24.40482 26.01702 26.45426 26.74634 25.49037 25.86105 23.31173
26.08013 25.14880 22.40121 25.17018 26.36509 24.57900 25.74920 24.63559 24.37203 24.62748 26.11311 23.88022 23.46320 25.13513 26.35407 24.85010 24.31381 25.15712 25.77826 24.60934 27.63246 24.65000 24.31968 25.87361 27.36256 25.06167 24.13563 23.78305 25.98388 27.39646 24.08550 25.04572 24.28798 23.72573 25.09590 25.43871 26.55023 27.15309 29.53894 28.42517 28.27370 29.37449 29.93493 26.56534 24.25040 27.30775 28.11243 31.91253 36.49243 38.19343 40.64511 37.43115 34.45893 34.50626 34.63694 29.79146 26.54164 32.42599 31.20639 33.13981 37.12494 35.56169 32.16501 32.99141 35.44943 38.26293 38.32756 33.24273 28.75077 25.84821 26.99038 26.14502 28.78979 27.50685 29.07483 28.04677 29.47439 32.91295 33.22041 35.71380 29.47763 32.41618 32.97844 34.87107 33.54904 30.83330 27.31524 30.57561 27.32705 28.23050 25.30858 23.89040 27.48652 25.51553 25.85169 26.14742 26.65462 26.81660 25.91703 27.22684 25.80663 25.21896 25.20970 25.00456 27.59939 24.18719 26.29277 26.06048 26.38801 24.59597 25.46553 24.27280 23.84645 24.62655 24.68618 24.05415 24.56591 25.52877 24.87868 25.56138 26.95265 25.41979 26.04355
28.68062 26.49196 24.82165 24.99206 24.69497 26.45880 24.12339 24.40589 25.95776 22.94489 25.46798 24.89986 26.44865 23.99871 22.83942 24.99556 24.60913 25.28680 27.45436 24.12076 26.34955 26.74293 23.69523 26.95039 26.13176 26.45678 26.34393 26.13129 26.17389 25.00487 26.45660 24.88933 25.63096 25.44506 26.54749 25.85951 28.43801 27.99718 28.03653 28.47651 30.64443 30.47000 29.48708 26.54437 26.32862 27.71738 29.76440 30.74673 36.97780 40.58358 42.28106 38.73236 41.07878 37.69135 31.20881 32.38453 27.40262 31.37218 33.44370 38.74279 40.65590 40.08992 35.30029 32.13196 38.31044 39.85178 36.99277 30.59349 30.02698 28.64705 27.82355 31.13614 30.33122 29.79852 28.15400 30.89627 29.75575 35.19401 35.66630 32.64262 31.39436 34.02288 35.51975 36.75450 35.40312 33.36354 31.44993 27.26573 29.11188 26.23212 25.86303 25.76243 24.93265 25.19378 26.42001 23.00349 28.27922 26.54971 27.02788 25.66052 29.10004 25.21444 27.08299 24.43418 25.68980 24.61296 27.44015 24.07780 24.81376 24.27856 26.48909 24.87034 25.09653 26.42938 25.51168 26.28636 25.75767 23.48098 26.15546 24.26706 24.51248 24.36859 25.60609
26.26459 23.80780 25.22947 28.72761 25.90919 24.59387 22.38969 27.47907 27.28813 24.92986 24.65304 24.76360 25.81808 23.73522 24.08290 25.73473 25.14346 23.97569 26.31438 25.52172 25.12159 24.58613 23.96624 27.45236 25.60035 25.58011 24.80910 28.19010 24.73622 27.64479 24.53699 26.49504 27.80806 27.12582 26.45186 26.51417 29.62594 27.98075 30.57589 29.60067 31.22259 34.25140 30.43342 30.38076 29.31374 26.51863 28.34071 35.53896 36.67980 41.84634 40.26049 43.83943 41.19539 38.22736 34.83148 32.57590 26.90864 30.02348 36.26924 38.78661 42.79357 42.09950 37.62886 39.30931 39.01957 40.30582 36.07404 31.55936 30.30685 28.21631 29.81807 31.88245 30.69840 31.09584 28.19557 30.91477 34.29299 33.91947 39.54350 37.31102 37.13005 40.09369 39.42992 36.30657 37.06693 33.77451 34.03114 27.71164 27.81599 26.88206 26.13199 24.71577 28.25218 26.14399 25.86301 24.63622 25.93896 27.80187 24.32068 26.23407 24.52707 25.28953 27.21116 23.98194 24.46595 28.21876 24.61680 25.31432 23.82921 26.04797 23.30366 24.31908 25.13557 25.05524 24.94426 25.95936 24.22576 24.99754 25.88329 26.88636 25.72546 25.66483 25.25984
25.72228 25.94080 25.17438 24.99168 26.12274 24.53587 24.50912 26.44804 24.54921 23.17891 26.79523 27.24699 23.49091 25.67400 25.28365 25.92025 26.98977 24.58755 23.87055 25.43427 29.09152 26.67451 26.01225 24.70296 25.77111 24.74484 25.93432 27.07867 25.33729 24.42881 26.81865 27.34412 27.93334 26.78792 24.12213 26.85133 25.95150 28.41494 28.71195 32.75227 34.26316 34.96083 29.13339 30.20896 29.96362 27.16269 27.79463 31.39396 36.01916 42.46786 45.94747 45.66673 45.42109 43.28130 34.44340 33.53466 28.34081 32.86461 35.14121 41.85091 42.30121 44.07930 40.17279 40.56500 40.75462 40.41873 36.46195 32.52174 26.24476 27.77208 32.54426 33.23517 34.97697 29.31241 27.44696 30.02434 35.40723 35.60825 37.21862 41.24842 42.31621 42.96855 42.41904 39.73606 36.95005 36.73356 33.25103 28.77395 28.74847 26.57897 27.66365 26.64801 25.72777 26.58251 28.60968 26.86756 26.84227 25.98616 26.79313 26.24156 29.39797 25.02851 26.55778 23.33008 25.56268 25.09583 27.40168 23.84349 25.78586 25.25051 26.51640 23.74774 27.03482 26.18979 26.10005 25.89735 24.42836 28.43701 24.42834 24.76942 24.89583 25.90982 25.94869
24.11222 22.29732 25.46871 24.58565 25.02121 23.39565 27.02804 25.71829 24.66732 26.69352 26.81381 22.61977 26.42283 21.67360 25.12204 26.39659 25.95997 25.81935 25.33050 25.31811 28.18650 26.45188 25.71940 24.90354 25.08333 25.60704 28.13263 29.24597 27.20814 26.73358 27.41956 28.10802 28.60071 30.40865 25.46339 30.12522 26.16737 27.22945 28.16729 32.45228 35.11013 34.53243 35.17792 30.78072 28.02308 27.78439 30.97132 31.75510 36.95497 42.50518 49.24706 49.56366 46.91180 45.12121 38.40743 33.12077 31.88828 29.93359 39.16383 45.06939 50.47973 49.27298 44.78972 41.91827 41.80171 37.46269 33.85500 31.60259 29.12335 30.50451 29.04512 32.72910 32.47721 33.09380 28.74990 30.05462 29.94363 37.03118 37.95151 45.15571 47.59939 47.35649 46.19602 41.87718 34.27742 32.49136 28.54934 30.56598 26.51556 26.98129 25.45599 26.47481 31.22426 29.28859 29.12856 26.55128 27.86938 25.11550 24.79206 25.81926 26.05125 24.93771 27.34247 24.85716 26.64923 23.86600 26.30793 26.38767 26.61681 26.31092 25.00885 26.44281 24.63811 27.09935 25.12047 26.37841 25.50920 26.72985 23.58698 25.47297 23.52392 25.59252 26.95041
23.33743 25.77657 23.94810 24.43215 25.25494 23.51758 25.07775 25.93321 25.86534 22.99048 24.90658 24.79802 27.31089 25.65638 26.03566 23.79223 24.67271 23.41513 26.34941 25.38134 26.42425 26.56104 26.18427 25.77717 27.63073 26.36296 27.52108 28.14240 25.19414 26.14292 25.86433 29.70949 29.54818 29.92538 29.18734 25.48549 25.95705 26.27281 29.98855 30.86044 36.89825 36.02407 35.12997 35.64023 29.44138 27.89857 28.79860 33.16754 39.42274 41.31812 50.30501 54.96254 52.86511 49.87499 43.38548 36.72546 33.64663 35.16278 42.38377 48.65302 54.23816 51.48111 45.11181 46.00347 45.11809 37.55988 33.27989 29.92181 34.94884 33.54691 34.96319 35.10197 38.45791 33.70471 34.78004 30.70163 29.90026 33.34915 39.33844 47.68786 48.62515 48.31902 48.74934 38.87169 33.87600 34.42649 30.19970 29.27678 26.16977 24.16487 27.45555 27.72617 28.87403 30.29206 30.57516 30.40367 27.74287 29.07631 28.63336 26.98795 26.84084 27.50894 26.80458 26.85280 23.45003 24.18826 25.98430 26.01589 26.86797 24.41278 23.63045 23.40069 26.65246 23.45132 25.70861 25.87378 24.58983 26.16939 26.50439 25.24151 26.35406 26.82837 24.76250
23.93378 24.40586 24.98642 23.62622 27.00966 27.90229 24.08168 24.99910 27.31759 24.09338 26.02922 25.67148 26.20503 24.10716 25.13840 23.72937 24.51024 23.69515 24.18889 26.51212 23.59866 24.31866 24.78410 26.95236 26.62529 25.77457 26.55392 27.72695 27.86874 26.94453 27.75076 26.48874 29.65279 30.66227 30.31274 28.82104 28.62542 24.27304 28.96446 32.36528 34.24247 40.03188 39.86301 39.04467 33.87620 29.86058 27.63708 29.20298 32.31059 44.80433 47.02522 55.25479 53.89313 51.99372 44.14085 41.42306 36.39368 34.83174 41.17344 49.31641 53.27942 56.32064 49.74560 48.80138 43.68123 38.11364 34.86562 38.18985 40.41729 36.41630 36.84308 39.87161 42.20301 39.98557 37.75148 34.29151 30.97143 38.71235 40.06904 46.48246 51.27905 54.32366 47.39944 40.75952 35.86014 32.16162 28.24385 28.52540 27.20039 26.70729 26.08058 29.66376 31.53458 33.62569 32.91579 31.99767 27.47543 29.25880 29.39140 25.89756 27.31372 26.13822 25.36629 27.26110 26.47979 25.42566 26.00127 24.58140 25.95013 25.73624 26.40221 24.80824 24.08351 22.68148 25.87666 23.09865 24.51173 27.39380 25.60231 27.74930 24.73550 25.34566 25.11099
25.94851 23.04628 26.31765 25.54702 27.76787 24.91547 25.49838 25.15241 25.85098 26.32119 27.74405 23.89801 26.15070 24.69614 27.21187 25.35524 26.30130 24.07675 23.91861 24.83736 23.25138 26.39842 26.50306 28.02583 25.11675 27.38321 26.16659 28.94769 28.79716 26.53113 25.52900 25.94692 27.51900 31.48787 31.02713 32.55189 28.90964 27.21885 27.89536 30.68188 35.38556 43.05880 44.10686 41.46248 39.31606 34.31427 27.49888 32.71078 35.40814 40.58346 46.17910 52.07259 55.74800 56.56220 49.16755 44.46230 39.67064 37.20673 43.38829 48.23723 55.06892 59.24634 55.28076 49.29692 46.75304 40.38472 36.90290 41.86812 46.35350 43.28749 43.20413 42.19446 47.11152 44.15917 42.87000 35.55013 35.48237 38.06978 45.74265 46.81775 55.37507 51.65062 44.42518 38.36900 35.62277 28.48948 25.68624 26.18764 26.62107 28.03906 31.08564 31.62979 32.76770 34.79366 32.23309 31.16340 30.23368 30.98950 29.74973 29.78620 26.14818 27.09449 26.38191 25.43972 23.60408 25.17695 26.72487 26.29116 27.31155 24.58970 24.42909 26.55225 25.06233 24.62892 26.81421 26.11439 24.48705 25.40303 22.91466 21.18688 25.77805 24.24330 23.75905
26.57889 24.85007 24.10029 23.77159 26.69262 27.19899 24.66144 26.90012 23.00845 23.98199 27.06353 28.55712 25.63457 25.40475 23.69244 25.91183 24.39753 26.54038 24.65951 24.70637 24.86680 27.96465 27.50464 27.31346 28.28922 26.21771 29.48865 32.02693 29.50200 28.20395 27.60486 30.90150 25.85010 30.81873 33.93609 31.96976 31.64700 28.99034 27.15184 29.95389 34.65528 40.14890 44.33132 47.18422 40.28198 38.45206 34.97244 32.67617 31.34235 36.71302 41.71426 49.98043 53.54983 56.95245 57.07291 52.92418 41.58811 39.87853 40.71027 47.62645 56.62107 63.54008 62.31361 56.80397 53.72622 44.30536 37.49351 42.80210 51.00049 49.19244 45.49008 52.21741 49.14759 46.24555 42.95604 35.83806 38.86519 41.05130 51.30694 53.89121 57.12687 52.46414 44.11080 36.16520 37.56112 29.22313 26.05973 27.67016 28.34256 32.32655 31.60879 32.98313 37.67165 39.21102 34.03177 34.29014 30.40422 30.34854 28.89926 29.22248 26.98922 28.22751 28.02119 24.78295 26.10234 24.92018 26.76007 25.77669 24.96334 25.42607 24.03669 25.00312 26.04834 23.76395 25.86623 26.13588 25.71181 25.67117 24.76979 25.65175 25.82024 23.51814 24.85044
23.67211 25.88233 23.39362 24.59288 22.93308 26.47747 24.73270 26.42777 25.07127 25.12932 25.58741 26.03892 21.71468 24.02826 25.50136 25.18357 26.64335 24.91940 26.63313 26.70066 24.62312 25.71430 25.19247 24.45588 25.42007 26.47519 30.41619 31.79671 32.90973 29.27057 31.25838 33.86272 29.95095 29.50598 34.75604 34.48494 36.32662 30.79341 31.61739 28.22275 34.32467 38.23272 48.14237 48.52647 45.81127 44.33962 38.27110 35.76408 32.62395 33.54217 39.76403 44.54666 54.02000 61.17710 62.47583 60.16313 49.29578 46.72379 43.97012 49.95221 58.96033 66.45290 64.92284 64.97316 59.61635 51.73707 44.09166 45.57534 53.05009 52.36869 53.41398 58.22766 53.75056 47.11840 38.40738 37.06008 40.20710 47.65734 50.96140 55.93259 59.23989 53.68253 46.35189 40.96492 36.84950 30.14108 27.53942 29.39847 29.83581 32.09330 35.43138 38.20091 41.68393 38.44321 38.40186 32.75115 32.32687 32.24593 28.07914 26.53061 25.47935 24.85999 25.05485 26.38722 25.09824 25.05522 26.66189 24.64450 26.29701 26.12276 26.04534 27.94789 24.72725 25.32121 26.54281 25.33773 24.46145 25.22818 24.82698 24.89804 25.80327 24.98901 23.78049
25.20400 24.84042 23.93818 25.71045 25.89891 25.35485 24.21648 25.50770 25.61745 25.09538 24.85383 24.14749 24.48333 25.93485 22.85355 26.77136 26.76205 25.47083 25.09605 24.56227 25.11343 25.58812 23.70067 24.46001 24.79543 29.35861 27.94940 30.96629 33.56079 32.75965 33.53499 35.80751 34.98436 34.19542 33.67466 36.27630 37.14394 35.36369 34.23244 33.31046 35.94280 39.71510 46.02212 56.25652 55.32284 51.43022 43.93388 43.00105 36.30598 34.31060 39.35883 43.31879 55.22250 60.52364 66.05962 62.54856 52.25665 48.09700 45.09649 55.24918 60.38041 69.36135 72.50633 66.13753 63.13735 52.94967 47.94560 51.60997 59.69391 60.10258 60.78954 61.67946 58.46744 48.18350 39.88309 37.92152 37.97032 48.16416 54.99976 59.44795 57.79808 55.12561 44.90240 40.62289 32.86433 31.61793 27.80701 28.88887 25.17457 33.64409 37.27178 40.31778 42.84691 40.21266 36.50829 34.51905 28.97988 28.35760 26.21167 27.71065 25.20954 26.50264 25.05926 28.03527 27.09448 25.39041 25.86184 26.04211 27.06857 24.11509 26.54060 27.74459 24.95676 26.40435 25.11987 24.01706 23.96066 25.31314 25.26913 23.77365 24.77331 27.11778 25.72855
23.33709 26.29689 26.78998 25.59710 24.57563 27.35142 27.97835 24.36137 23.50693 24.90504 26.84597 25.16088 24.67832 24.80513 24.14245 26.29398 26.89420 25.27121 26.27944 26.39213 24.32803 25.15931 26.42224 25.56317 25.94865 27.93093 26.21187 29.63467 33.75438 34.47724 35.95628 36.50821 35.58441 35.50477 35.14607 38.31373 38.48438 35.01081 31.38652 31.55556 34.68909 39.27462 48.94593 52.82270 55.99456 56.46642 52.63492 47.29936 44.36551 40.79990 39.07741 46.20480 53.46470 63.17683 68.32553 67.62051 58.56515 52.55755 47.71837 63.56980 68.08041 73.29821 75.02452 65.57736 60.24915 59.35951 56.72207 53.76705 63.69776 67.13005 69.36398 65.88561 55.83039 48.91356 44.00888 41.56072 47.61429 53.74793 57.57932 60.03327 56.22092 47.72710 41.55020 33.89651 31.10528 29.37761 29.30115 31.25720 31.61079 35.66777 40.61278 42.02915 42.53375 43.95868 35.67096 33.31246 30.21744 27.25966 27.44234 28.73935 26.53173 28.96994 27.30993 25.96766 26.44441 26.58137 25.81543 24.70460 23.18128 25.55090 26.31117 25.45572 24.73477 25.01443 28.41726 24.71571 27.00483 25.62660 24.63092 23.61542 23.62096 26.26032 26.95634
28.61890 26.69739 26.91204 24.31007 23.76530 26.09075 24.64995 25.21885 25.79528 26.44708 25.11085 24.87878 28.28309 25.26654 25.68924 25.57245 25.16213 24.66954 25.45264 24.96119 26.20665 26.08532 27.06801 25.70131 25.86948 26.99591 28.12748 28.54047 29.61388 33.94431 33.38304 37.94894 40.65828 40.36530 38.25620 39.61180 40.45736 40.23666 38.33258 34.23735 34.63961 38.70679 44.75813 51.15256 59.26476 61.34257 58.29380 52.63438 47.98097 39.84442 36.95178 42.23511 51.84617 62.71596 69.94715 72.72896 66.57322 60.95810 54.24963 61.44516 70.47113 74.31145 79.81119 72.17034 64.81526 67.99761 69.51399 66.40959 66.67909 74.40885 77.44256 71.90078 59.44758 52.06533 50.47610 46.55991 51.85028 54.88093 61.72612 57.33403 47.81536 43.94315 40.73200 35.89818 30.31313 29.39089 31.18164 32.32904 36.06359 37.96878 40.39432 44.01639 42.50713 37.94574 33.82681 32.31206 28.92988 27.56800 26.23367 29.28899 29.14448 28.84277 25.76610 25.88481 26.39159 26.23566 25.69217 25.67898 26.52406 26.55988 26.45618 27.20318 25.17302 23.82783 24.63976 24.13812 26.15162 25.06028 26.28161 22.61194 24.33170 24.46312 27.28430
25.95600 26.76671 19.91095 25.54449 26.72954 25.19496 24.64703 25.20885 23.17558 25.30902 25.52698 24.47975 25.18080 26.11438 25.46861 24.13629 26.62178 25.42507 22.37775 25.43180 28.31072 26.66170 27.46233 26.17547 26.44863 25.58689 25.71832 26.66850 27.34723 27.91441 30.47574 35.20294 36.25267 40.54382 40.50114 39.98497 45.30861 43.30486 44.52933 41.90839 35.02296 37.33440 44.11024 51.56302 59.95082 66.03710 66.46095 60.69762 52.19579 51.27150 42.69876 46.41300 48.79266 59.41928 68.79683 78.82694 73.46967 62.56450 64.99633 71.11169 74.05271 79.97511 82.63893 77.46586 74.40090 81.74204 77.74149 76.07644 70.23912 80.01163 79.45709 70.02819 62.18110 56.48079 50.74133 50.68679 58.46437 62.25211 63.46510 61.53455 54.77063 42.97325 35.31409 36.30343 33.30790 32.98337 35.35071 39.67220 40.26245 45.58808 45.30116 46.47018 43.29245 40.13659 35.20131 30.37598 29.39535 29.41438 29.28560 30.91997 27.85300 29.97733 27.23472 24.43301 28.17237 27.32320 24.53148 25.65698 28.03599 25.83283 25.12301 24.11345 26.02040 25.43860 25.23833 26.89780 23.11170 25.57168 25.27947 23.96672 25.44644 25.94123 23.47855
25.62238 24.75382 25.89550 26.40226 25.32630 25.86388 24.58782 27.02064 24.89630 24.84591 26.30725 27.12602 24.61390 24.44384 25.31415 24.44311 24.87031 24.09882 26.13808 26.79144 24.59173 25.67967 27.58157 26.57767 27.30563 27.78371 26.59162 24.55452 27.20411 28.51354 28.02205 29.33369 36.89352 37.64326 42.05905 43.02042 48.61241 52.37918 49.60087 44.95784 41.20449 36.93928 45.92755 50.61590 58.41446 68.82607 71.07231 69.55220 61.07148 62.18476 51.13445 51.82276 57.21825 62.52982 74.20920 77.92595 77.07514 71.92081 78.56319 81.54664 81.63705 86.27184 89.72446 80.92664 86.17349 82.08718 85.35794 79.53401 83.60376 83.60570 79.60761 73.78636 71.35955 65.75711 61.83076 61.00092 65.90548 70.03447 68.42571 63.30726 52.74147 44.25176 40.46880 42.11267 36.49709 37.81302 39.92973 42.33221 46.83912 49.74566 48.56538 44.18943 43.67281 34.83831 32.39125 34.42156 33.25373 35.56384 33.00670 30.65617 30.22168 27.62961 27.08885 29.05903 28.88314 26.28320 24.56392 25.16991 25.11024 25.31464 25.80660 25.92280 26.33503 26.16096 26.51778 25.42800 23.79768 26.93437 27.54747 26.80983 27.20218 23.62528 23.51322
25.39363 24.46682 23.59301 26.68722 24.38473 24.00794 25.77998 23.63452 26.27689 25.12924 26.42923 26.29121 24.27979 27.05863 26.16189 27.22689 25.62763 26.81813 26.13855 26.84446 26.86995 26.52975 27.25087 29.25538 27.37897 27.96064 27.63350 26.66454 28.80886 26.57900 29.27757 29.00955 31.40565 36.10251 38.28010 42.21615 49.59988 53.91879 54.43743 53.87518 45.54682 41.94577 42.36795 50.28712 61.49513 63.88365 74.61848 77.04956 70.13975 68.17918 57.70795 53.41605 63.24199 66.76852 72.13819 83.03633 87.06973 82.69349 85.38705 89.31854 92.68729 93.48379 94.18905 91.31270 91.38945 96.15991 95.86108 88.46211 95.92404 89.39441 83.92887 80.78357 80.32935 71.36032 71.96725 64.42259 70.04985 73.06602 69.57444 56.87033 49.42114 42.98820 43.78766 42.14493 36.03881 40.27432 43.75542 48.27663 53.75099 51.35598 52.09177 45.73921 40.47633 40.77990 37.38412 35.46488 36.84685 35.26723 35.19811 33.89329 30.75524 29.59406 30.24509 27.08722 28.21569 28.42410 26.21522 24.77806 23.54483 25.50622 26.01474 26.84016 25.82945 25.25360 27.69606 25.10852 26.42548 26.34595 25.25910 24.64714 26.77449 26.94454 25.69488
25.04631 26.59961 24.10027 27.59630 26.70455 21.94614 25.40979 25.26298 25.59232 25.50096 26.32512 25.38176 25.07095 26.33813 25.31419 23.47058 26.21902 27.52612 28.63853 25.70595 26.38460 26.36596 24.74041 26.12359 26.91908 26.55996 31.71758 31.88869 31.16090 29.41124 32.03508 29.36614 31.17354 33.03539 35.39435 45.29322 48.35035 55.17342 57.78336 58.27887 54.04104 50.23703 48.21342 47.87113 55.07286 64.20852 68.48677 76.78697 79.30978 72.11859 68.91680 58.06367 68.59670 71.46873 80.78765 86.66561 90.01260 92.02001 90.99408 94.47715 102.15003 101.53039 101.29982 101.46810 99.16203 98.68056 103.43263 98.33662 97.94905 96.72036 93.92164 86.59408 86.64696 82.71584 83.10931 81.67729 75.00124 74.35467 69.17177 59.21488 53.92289 50.31298 50.95064 39.34460 38.75735 41.81293 51.81844 56.57570 60.40452 58.73483 52.48806 46.46884 44.54611 43.54473 39.99758 38.46851 38.30687 38.07924 35.33093 34.01464 33.68453 29.62065 27.79155 28.93929 29.63990 27.32368 26.40297 24.18590 28.00048 24.38868 22.79675 23.31136 25.70771 24.78542 25.00905 25.22013 26.64299 25.58365 25.31519 25.98931 23.00561 24.53243 25.83584
26.76469 25.44281 24.28262 25.67480 23.63473 25.61482 25.02300 24.22839 23.96411 25.23729 25.66433 24.39210 26.22886 24.21559 27.73558 28.04522 26.83385 27.15663 25.68041 27.90645 27.81674 28.26948 25.46945 25.86467 26.48161 28.16060 29.90934 31.89039 32.30130 36.51216 34.65236 33.73366 32.46179 31.35229 33.75836 36.82315 44.30576 52.11432 55.86220 63.87449 64.94312 61.62627 58.74398 52.62104 53.17900 55.57242 65.57698 79.07832 83.46667 79.74453 77.42655 71.85995 78.73168 78.59589 90.13199 94.32903 96.14935 94.67008 100.66716 98.21905 105.42676 107.33201 106.36651 105.25376 105.47943 106.61391 107.08468 103.77179 102.62145 99.60886 102.57120 97.54717 97.00557 91.62453 89.97692 83.03912 86.66228 81.93567 74.95730 61.88627 58.69212 56.47561 48.65693 41.93585 42.66417 48.86931 60.31024 60.05145 63.62102 59.04059 55.59211 52.91542 51.14714 48.79825 48.09690 42.75761 41.41608 38.90110 35.20297 32.58002 31.04729 27.65377 27.75899 29.29151 26.22655 26.73466 25.34870 25.85500 23.67815 25.39610 28.14651 26.35478 25.30974 26.13061 23.45542 24.45831 26.08424 23.18079 26.22575 24.20280 24.38904 24.70137 25.01840
26.55941 24.99963 26.98445 25.15184 26.70656 25.88277 25.11761 21.29728 26.00771 23.94770 26.22715 26.27902 26.03205 27.23399 25.39176 24.42370 25.65220 26.10484 27.62279 28.61918 27.73717 27.99992 28.41741 28.51269 29.55977 28.61178 30.26644 35.07430 35.32631 36.73978 38.80977 36.86916 37.38421 34.84033 33.79919 37.61091 40.17339 50.95579 55.49992 66.56397 69.05614 69.74742 67.86927 62.79512 56.53026 54.62300 69.31760 78.18676 83.06238 84.22434 82.67907 79.69289 89.30103 89.31407 93.78137 99.60591 101.65312 104.73663 105.29222 109.49034 106.58655 107.88337 108.31324 106.79661 106.61942 110.00789 108.13517 107.36162 110.48398 108.39218 104.13318 102.97416 103.36269 98.57932 99.44214 94.93350 89.65956 82.81432 78.86123 72.24711 69.28314 57.43228 49.22264 45.55670 47.78677 59.53863 68.02063 70.96580 68.18264 59.00891 57.21042 52.29521 52.12265 49.54104 45.68659 44.78263 40.38711 38.78136 32.94700 29.40270 30.74810 24.45929 26.86701 26.09239 25.33865 24.14604 25.09506 24.66484 26.61435 25.66907 25.04562 25.85554 26.92727 25.37509 23.61002 24.90304 25.54081 27.10005 24.55286 24.54814 23.42065 24.07503 26.64196
24.97590 25.32954 25.73035 26.69595 24.84131 26.97543 26.63338 25.02771 26.45566 26.21128 26.29771 25.21685 25.24387 27.45273 24.69709 25.67711 25.34634 24.26235 27.46864 28.76703 29.27516 31.10388 32.84072 32.69910 28.84577 29.57350 26.94085 30.53886 34.93593 39.10560 41.38323 40.00262 41.09713 39.43709 37.00188 36.76949 41.36775 43.15675 57.38458 63.46683 71.30667 73.83573 73.56220 68.43765 66.73417 69.98331 64.76659 75.03481 84.64774 84.38715 88.08942 92.22843 93.22797 97.45206 101.81380 103.52026 104.74588 106.13815 106.75520 110.01812 105.11518 106.22372 108.21957 107.25637 106.53305 104.87459 105.49790 107.48908 107.56859 107.67641 105.89554 105.13803 103.44391 107.88979 105.60098 100.16880 96.11013 88.00307 85.16743 76.02766 68.97537 56.74706 57.36592 57.55144 58.43408 63.71169 73.47206 76.48819 66.34072 61.60946 55.43145 52.11993 50.79458 46.24781 42.54658 39.96972 38.05466 33.48834 33.22171 30.85182 25.73062 25.45275 25.90442 26.52184 26.67678 25.26187 24.76751 28.48544 24.59505 25.23387 26.62045 25.36352 26.19337 24.34398 25.23019 23.07550 26.15280 23.94052 24.84714 27.81788 26.80084 26.71423 25.69847
25.40268 25.86998 22.21016 23.30446 23.86816 24.49001 24.89153 26.05773 26.26366 24.56679 25.86525 24.68092 26.17485 23.05129 26.83114 25.02233 23.87768 29.60039 29.71699 30.10914 28.90160 30.14601 30.97465 32.59293 33.10590 32.70256 33.24749 31.86474 32.53019 33.02621 40.45761 43.65737 48.30511 47.46020 43.16645 39.34830 40.02970 47.07740 54.50671 57.83260 66.97500 77.97410 78.40613 81.10392 75.37321 73.15266 75.92126 76.70464 86.82706 95.25521 98.03033 98.07323 103.51892 104.04201 103.77913 105.26581 105.75751 104.66941 106.67914 107.82941 105.21932 106.37517 108.21410 104.43387 103.75256 107.07679 103.74840 104.30465 105.59860 106.97651 107.01758 109.26197 107.56706 105.48648 108.07544 104.09192 102.84130 92.25220 87.86488 81.69918 66.41133 59.90461 67.57327 66.68022 70.34694 73.92889 73.98746 75.64285 69.44277 60.93975 55.40910 51.97231 44.05167 40.68902 35.73954 36.57089 33.72954 32.76650 27.81496 28.28844 28.85153 26.55828 28.32497 26.55256 27.12111 28.24991 24.90367 28.52681 25.43903 26.41998 25.15950 24.16461 26.24663 26.33529 23.36462 23.88605 27.45583 23.90157 27.09926 24.49583 24.26300 24.96562 24.48105
26.56321 25.42081 26.05632 27.32177 23.60519 26.86759 25.20958 26.51171 23.29062 25.66465 25.03925 27.38501 25.03845 27.72884 26.78614 24.15863 27.67421 27.84141 27.31706 29.47166 30.11035 32.66074 33.94531 38.17239 37.45948 38.55324 35.04812 36.08817 36.11830 37.45768 34.70699 43.25995 46.46026 51.24848 52.51891 46.41653 44.14610 44.31179 47.74119 53.40383 63.15939 75.57123 81.76707 82.20604 83.98183 81.05094 85.07955 89.98832 93.10849 97.44195 100.20155 105.46220 106.97356 103.91399 104.78225 106.23496 105.06600 105.22064 103.24152 104.74427 103.25332 103.71247 102.62234 104.52869 102.90350 103.97680 102.69052 102.14482 104.10509 105.17680 108.02565 107.36350 104.40748 108.75403 106.41429 108.72311 103.94347 98.99357 91.86097 82.26970 74.83151 70.78858 76.32766 79.55343 78.08416 78.50532 80.32389 71.65516 67.55861 60.84317 51.61025 49.97786 41.84605 39.72708 35.35746 32.73773 33.52614 31.29229 27.48640 27.92678 26.28868 29.95540 31.41205 29.62848 26.52364 27.18074 27.68537 25.84775 24.77650 28.93631 25.82976 26.52215 27.96271 26.52819 26.40666 23.53005 25.97661 27.83999 24.90505 26.15680 25.53179 25.34172 25.34329
23.49216 23.06721 24.75884 25.40337 26.45168 24.75274 25.66030 22.65711 27.24062 26.48330 24.52822 24.25076 25.52829 27.09018 27.45750 25.23872 26.59577 28.34363 28.47450 29.67409 30.73820 32.11342 36.26904 38.51925 42.14241 40.95968 41.50360 40.30730 42.64254 40.89986 39.74461 41.34439 47.22401 57.59346 58.48193 56.62495 52.02008 52.33173 48.31371 50.21031 58.26245 74.65999 85.12709 88.49285 92.94265 94.16620 95.08584 93.90292 101.03383 104.59771 104.65414 107.34116 107.48603 105.75989 103.08857 104.81549 101.41658 103.39050 103.33538 101.93964 99.72939 102.04221 100.82200 101.83127 102.06799 104.15294 102.22405 103.20418 102.10566 102.80380 104.40601 104.68965 104.42185 106.13651 104.76588 105.15897 108.32778 103.02332 96.94655 90.41922 83.72403 80.99421 85.43757 90.20448 89.29238 86.97838 79.39623 67.94558 62.70746 57.59068 55.47023 47.83856 45.63079 39.65538 34.48868 29.56960 30.58769 28.28710 28.57117 26.57591 29.31503 32.26259 32.88705 31.83793 29.47718 27.28268 28.24751 28.21992 27.08197 25.54954 27.73568 26.45993 27.84793 24.13337 25.23952 26.24832 25.54257 25.93321 24.77694 25.84355 28.47991 26.05668 25.74257
27.26051 24.86168 24.53021 24.62919 25.22468 25.95483 25.83037 24.48317 23.33993 23.15796 25.37239 24.14356 26.14360 23.46157 25.73958 25.57859 28.08139 25.20022 28.99238 29.82543 30.99517 33.54796 35.93248 37.90412 41.29761 44.16061 48.29871 46.01326 46.30130 45.91958 48.39907 47.08847 50.80429 55.44939 59.31539 62.93097 59.11045 58.07843 55.60233 54.43605 57.38479 68.08700 79.54595 88.19071 96.73477 97.23400 102.45852 102.78468 106.64795 105.05435 104.79660 107.57999 105.95392 102.43265 101.33119 103.45418 102.57397 102.76168 99.19533 100.89946 101.98774 101.09406 99.25276 99.23964 98.93421 101.07567 102.73663 100.73559 102.01482 101.49071 102.95785 103.63409 102.64955 104.53011 107.22134 108.55078 106.88025 104.27101 102.26420 93.93407 93.01212 89.56589 95.34841 94.19426 95.64492 87.17179 79.98767 70.86083 65.64682 55.56312 48.11859 48.04849 47.05666 38.81097 31.81769 32.80054 27.57966 33.01706 30.42974 31.48525 32.50530 33.24387 32.93292 31.61009 28.14970 27.85096 27.92290 30.84514 29.90241 28.92731 30.69663 28.37251 25.18047 24.84660 26.73765 26.97361 25.61280 24.96581 24.90770 23.70774 24.10156 26.88815 24.95994
25.78351 25.49264 24.27634 24.46857 27.98163 25.45761 26.49424 24.58629 24.88313 24.30008 23.78108 25.19861 25.72899 24.12117 26.91207 26.08691 25.44599 25.71575 28.73560 29.34873 29.84517 30.87766 33.43013 35.91194 38.46758 40.37892 44.39622 50.17584 50.60654 54.56081 53.00972 53.51630 51.99145 59.52339 65.55785 67.36034 68.87901 66.80009 71.22002 68.43061 62.43535 67.52989 77.00922 90.14726 98.32512 102.81815 106.66741 109.28895 106.44548 105.32040 104.93855 106.75089 104.36386 101.81280 101.53499 104.48337 102.70209 98.12197 100.97472 101.61997 101.96984 98.72819 99.49320 98.61784 100.29061 97.51296 101.87580 98.36505 99.91673 102.57795 100.74604 100.35794 101.37296 104.48188 102.64302 105.32061 105.88196 104.85670 105.43173 103.36621 100.48064 96.44904 101.96891 98.09684 91.96815 88.78943 76.78761 71.04354 62.42554 55.74428 45.94872 40.69625 41.23754 37.90022 31.90634 35.89105 36.62356 38.42310 35.62221 38.20615 36.08704 36.79655 32.56990 30.51498 32.32682 32.92158 31.50003 31.03815 30.70973 26.25140 27.75858 27.28204 27.24703 26.78704 23.96107 25.72970 25.10962 24.60303 24.68397 24.69590 24.40537 25.02292 26.40993
24.59435 23.13569 25.06537 24.44568 26.76542 26.17951 25.06032 27.38889 23.16321 27.74934 23.87514 23.17683 24.65429 25.44711 24.58031 24.65088 25.83315 26.69831 27.15875 26.51402 29.26521 29.48753 31.01916 31.04364 35.94229 38.52149 43.05326 48.11300 48.63961 52.21360 54.38507 58.42884 60.86106 60.10013 68.60711 71.62718 77.10110 75.42738 76.79298 72.02383 72.56284 68.69315 73.45370 88.15408 96.33412 103.82101 106.69615 107.36257 104.02757 104.72134 103.63124 101.78998 103.47923 100.94723 101.25753 100.03661 99.24736 100.14417 101.96457 97.69350 99.97126 100.18954 96.87382 97.60475 100.43700 99.84112 100.11408 98.57933 97.09613 100.40711 99.62559 100.67464 101.91183 101.41910 101.28438 99.61475 105.79884 103.85229 104.63190 107.08217 106.34860 106.00324 99.46481 97.27306 89.53585 81.38765 70.52222 67.20953 58.22884 48.35916 45.56497 39.49740 35.65819 38.23707 37.10730 42.03062 41.78033 46.15591 45.29925 39.06591 38.19246 36.04765 34.84521 34.09500 36.22083 35.14017 34.43516 31.31607 29.37963 27.74366 25.72413 27.69182 28.00758 26.78580 27.47325 27.06699 25.61878 26.50775 27.39469 24.31293 25.17446 24.89752 26.89393
27.20402 22.54180 26.00664 26.65808 25.76247 24.48576 26.91600 24.59618 26.55764 26.78157 24.81836 27.35014 25.52687 24.28135 24.55298 24.55755 23.60917 25.29888 24.77136 26.06197 27.12770 27.46588 27.41882 30.01353 32.01266 34.81548 36.42199 39.82496 44.75840 48.53897 51.14877 57.35314 62.91289 66.45572 71.64860 74.68114 79.82332 84.97412 83.50756 83.64525 85.70158 78.35689 87.61453 90.68370 94.93222 104.16557 106.26142 106.26193 105.13467 103.71744 101.86115 100.27770 101.99272 103.13516 98.69857 98.79648 99.78679 95.38238 96.90492 97.05670 96.45839 98.41846 97.61634 97.25922 98.85194 98.11665 99.28794 97.47916 97.96572 99.42648 98.03039 100.80180 99.10503 98.38693 99.72544 99.96997 101.49142 104.91421 105.37739 106.80687 110.04234 108.07655 105.19504 97.77175 80.91283 73.64525 69.08563 62.17274 53.17335 49.75423 49.36897 44.97058 39.01416 39.90906 43.36243 49.53291 52.08889 51.67969 47.41065 45.77647 42.78411 40.67527 40.89965 38.73662 38.71645 39.76236 34.51507 31.33339 28.41746 25.83102 25.51678 27.49582 24.11727 23.57795 23.57417 22.54217 25.62249 23.70388 22.93418 26.28936 25.68284 25.36731 24.40286
24.47388 25.86769 24.99156 23.75730 26.12382 25.22244 23.06811 24.24599 22.27725 24.21713 23.49609 25.45749 24.94175 23.02230 23.82986 25.63125 26.20474 27.58865 25.65399 23.50175 24.72775 27.86178 28.42581 28.56166 31.16243 28.81902 33.85242 36.88330 40.13764 43.04547 46.03234 52.43547 59.45330 62.64496 67.87520 73.44159 79.50922 82.11628 90.15570 89.81933 91.32545 93.02140 96.29026 97.77642 101.03544 105.95128 105.83900 105.11946 102.98427 101.55038 103.75164 100.66784 99.32149 101.63106 98.62375 99.81612 99.00057 98.55674 98.59276 98.13956 101.21880 98.92060 98.33101 96.80585 96.82347 96.74954 97.76793 97.62884 96.31789 96.45176 99.96270 98.59255 98.31403 101.80394 99.77063 100.48720 102.90503 103.03925 103.39333 103.62228 105.72322 105.77213 106.49205 96.61587 90.13665 70.81242 64.08239 60.54482 54.46238 58.13766 55.80712 50.30950 44.32186 48.82868 52.46269 58.37167 57.96581 57.04061 53.40171 49.29912 46.18739 43.12980 45.12085 41.14518 41.76025 37.63212 33.11557 30.46846 27.46546 26.69212 26.70915 24.89292 25.38311 27.15665 26.15499 25.95314 25.42428 26.65111 24.30319 26.06688 26.62795 27.05758 26.62013
26.56078 24.77606 25.54255 25.53239 28.05508 25.33576 25.37682 25.81245 25.51946 28.29623 26.92006 26.81240 25.84695 24.30385 24.59353 25.98081 26.64726 28.31937 26.82001 26.12962 26.72541 27.67197 28.05555 24.94163 27.78528 28.12145 31.37134 34.72957 33.52407 37.09206 40.83271 45.35683 49.41005 52.64741 59.96021 66.08992 68.16152 80.76192 81.85429 92.61938 97.13706 100.07711 102.82314 102.48541 104.98975 104.58609 103.51050 103.66772 102.54343 99.76754 99.53949 95.74480 99.18691 99.58235 100.58115 97.15823 97.03984 97.42360 97.77504 95.27102 97.81334 98.12529 99.27026 99.16819 98.41989 96.40910 98.12803 96.23204 95.89034 95.41859 99.56227 99.01480 98.32855 98.62174 99.41517 99.62578 98.50266 100.27443 104.11657 103.45529 104.71965 107.81957 105.90461 96.33993 91.03280 75.28688 70.62574 66.98774 67.69823 65.92323 61.15966 54.31515 50.58277 55.30859 59.67613 61.52503 61.53727 62.27800 58.33622 57.12758 49.01979 49.50980 44.52210 42.15063 38.56627 33.58910 29.66716 31.12640 26.87843 26.94571 26.73135 23.60906 25.91576 25.86978 26.40114 26.68658 26.88706 27.22663 25.95653 25.32715 25.24585 25.42239 25.68020
24.42579 26.18885 25.73671 22.76849 27.03200 25.55415 24.98244 25.42684 25.24321 23.43498 26.79185 27.36418 26.06305 26.75268 25.55561 29.50678 27.53011 30.33812 27.46110 27.47466 29.69313 28.93679 28.95671 26.87941 28.47319 28.15772 29.56436 28.81318 30.71851 34.66231 36.71594 36.77092 40.71862 48.52654 47.05517 51.03376 62.14740 68.87540 80.50252 89.80296 97.51721 102.12917 105.02750 107.28263 107.68509 105.80173 103.31639 100.47309 100.12730 99.40967 97.23971 100.57866 96.95562 98.74660 99.37337 96.67789 98.55681 96.58110 99.12793 96.64256 96.39330 97.86619 96.89260 97.72848 97.51994 99.11099 97.34762 95.25501 97.50415 98.21275 98.07344 96.25944 98.89255 98.06524 97.60555 97.21729 97.02914 101.32809 102.48473 101.85780 104.35808 105.53558 107.39883 102.99237 93.94872 84.77607 79.07187 80.65504 81.44433 76.44435 65.82772 62.52537 58.23385 64.77847 65.56902 66.49072 66.99938 63.24775 59.56031 56.35573 50.39630 49.02210 43.47997 35.94596 35.64926 30.61191 29.87549 26.94485 24.33302 26.68558 25.02353 29.13818 27.06477 25.19392 28.80002 25.90431 25.58183 25.77692 26.99847 26.38634 24.44236 24.82617 25.64223
25.97321 24.83461 25.73339 23.05646 24.04598 23.93047 25.17253 25.82996 26.09226 23.72490 24.88014 26.80976 25.09756 28.35928 26.46923 28.62546 29.61596 29.23503 29.31951 32.21415 31.64063 28.81603 31.98598 31.33645 29.68618 31.21957 30.48451 28.54061 30.47447 33.46420 34.01105 33.85610 36.26745 38.52947 40.71758 45.19495 51.43586 61.57318 69.01261 80.12638 93.60399 101.99267 106.77857 105.21893 106.31533 103.64027 102.64091 101.32574 104.37302 99.71869 98.06645 97.42101 97.87801 97.95181 97.67030 98.32829 97.92173 98.56273 97.48451 96.65145 96.51250 96.02235 100.23076 96.99833 96.69670 94.87749 97.05919 97.59367 93.93519 96.89563 97.09167 97.50873 96.60730 98.89656 97.83612 98.38738 97.07442 100.14465 100.31514 103.29406 104.53739 106.45996 103.57074 102.72479 97.84110 95.75218 85.06279 86.19637 84.98452 78.03180 72.78864 67.92363 73.84802 70.72448 72.62024 66.13919 62.35073 58.67649 57.84521 52.96057 47.65526 43.19354 37.88021 38.96456 30.89881 31.64050 28.26580 27.43968 28.72759 22.32156 29.12606 29.14931 26.84807 27.19816 27.16166 26.85428 27.48484 24.11541 24.15290 25.11060 24.63674 24.43243 24.89470
23.46770 25.07149 27.29591 26.02173 26.53805 25.01699 26.65071 24.18979 26.06790 25.71593 26.69904 25.78850 27.36684 27.56731 28.60157 31.22323 31.76088 32.01646 33.49950 34.14260 35.89348 33.63183 32.39167 35.09080 36.85916 31.55834 31.94450 31.43228 34.46112 33.31164 36.59085 39.11080 38.34150 42.46345 48.36337 48.18099 51.58150 61.67665 66.88387 80.48152 93.43007 100.27886 105.35735 107.73606 105.54142 103.77656 101.31539 99.20850 100.67541 101.58945 96.41776 97.80127 98.46747 96.66848 96.43694 96.60037 99.30400 96.17322 97.65459 97.16613 96.98324 97.31410 93.92094 94.92748 100.07712 94.68719 96.41358 98.16954 99.58257 98.12717 99.47981 98.08120 97.76968 94.62917 99.28998 98.05386 97.95670 99.21418 99.57387 99.90688 102.43456 102.03146 105.19028 104.43510 104.38745 101.37293 102.74789 91.64554 93.03855 85.12292 78.08091 75.55185 75.09437 72.54552 63.74113 61.96530 57.62508 48.33784 49.14221 44.96896 44.61908 40.59473 33.77168 33.23315 28.38448 28.22868 25.42884 24.93153 24.94307 27.86835 27.55450 27.89238 27.67605 27.39559 26.15977 27.22527 23.76355 25.71052 26.79393 25.67987 26.12462 25.37277 23.41228
25.89949 25.32717 23.81274 22.34328 24.28414 25.50883 24.15019 24.01621 26.92660 24.43662 24.55703 28.46124 29.12162 30.44072 31.18522 30.40375 27.80150 33.86081 34.90525 34.57945 37.92548 37.35512 36.56211 38.76763 40.13863 41.10592 38.32992 36.47411 37.83485 35.18292 36.35181 41.54319 47.33538 50.23047 52.21639 56.65840 60.37950 59.99553 64.83781 79.38624 92.21336 102.91869 105.65656 106.28194 103.66816 101.81626 102.52591 100.48296 98.98930 98.76078 98.15804 98.57515 96.52778 94.92745 95.80194 99.12683 97.98154 97.15867 99.09122 96.70750 99.89927 96.76188 97.05159 96.12329 98.01617 95.58912 96.08782 95.67451 96.53336 96.44025 94.61697 95.84208 96.62556 96.67096 98.23168 97.86993 97.12037 99.00963 101.43295 98.40788 103.10907 102.40878 102.65641 105.95618 108.77082 106.82316 103.72520 100.47477 96.14957 86.79092 85.93431 79.52183 73.28914 67.31013 60.65902 56.21979 48.73337 44.23238 37.65839 40.05724 39.06321 36.14198 32.47078 29.51910 26.93061 28.79933 30.07524 31.75718 26.31922 29.57746 30.51209 27.93277 28.98437 27.64866 28.09475 23.86478 25.97269 25.50414 24.20813 27.53684 24.94155 27.23021 24.31039
25.12252 27.21087 25.94667 24.40386 26.71430 26.29912 24.21161 25.04924 25.73879 26.73171 25.60976 27.51855 27.64847 27.20886 28.78301 28.97816 29.17153 28.83691 27.67515 34.94873 36.57858 36.62549 40.25647 41.55998 39.52309 45.52409 43.87738 44.62653 42.75123 38.46156 41.19470 45.74218 53.11151 50.66475 62.17579 64.96514 64.70683 71.76901 76.46380 80.48487 91.00776 98.23694 104.32183 104.67924 104.26540 101.52095 99.66481 98.26595 98.54047 99.01999 97.28620 97.95233 97.82612 97.76990 96.92963 95.75724 99.25887 97.99736 96.71379 96.41626 97.08219 97.61250 97.92023 96.28919 94.87208 95.26585 97.03565 100.28267 95.92379 95.24470 97.44735 98.28269 98.02790 98.15472 95.37271 96.78142 96.24542 98.85318 99.25922 100.70854 102.01989 100.32979 101.19236 105.81350 105.24486 105.44436 106.38930 104.47562 96.23038 87.74837 79.80492 77.86928 67.08175 56.52487 51.50371 46.97721 41.75035 38.77073 39.40819 36.55495 35.69717 33.45897 29.67713 31.74028 29.07612 28.71967 33.06983 30.87642 32.12735 31.62798 29.72161 30.95449 29.18018 27.30064 27.94810 25.56914 28.84936 28.50327 24.08947 25.42420 25.51520 26.51895 24.80171
27.24360 24.90867 25.69596 25.32152 25.04044 26.49441 24.61115 25.16663 24.27547 26.29671 25.77371 25.87275 26.05500 27.47420 28.17203 27.05040 27.10368 26.99429 28.91506 31.47828 34.85014 33.84575 37.02228 38.50067 43.59311 46.45093 49.44086 49.82388 51.06564 48.51912 48.24416 48.96807 54.30902 61.21203 68.81946 74.65183 77.88106 78.53345 81.89976 95.63146 99.69521 105.14670 104.64402 105.39324 102.91161 101.86006 98.94072 97.47869 100.43120 98.42592 97.28994 97.86757 94.70144 99.71905 98.49499 96.00507 97.45847 97.64457 98.34868 95.99772 96.58512 95.85233 98.87934 95.82563 98.11064 94.80869 97.58867 97.26533 94.67603 94.34058 94.99043 97.30681 94.06611 96.49805 98.52744 96.74118 94.67701 98.25410 96.44506 98.23950 98.04301 99.90933 102.33183 103.98121 104.97534 106.60071 107.57301 103.53337 93.92464 87.10143 78.74787 71.37055 59.29500 53.53454 52.02423 53.77539 47.64902 44.82752 43.99568 38.76080 33.06307 31.48300 31.43701 32.97948 33.90265 33.70381 33.77771 33.64437 32.57699 32.13707 30.37882 31.41215 27.41505 28.86670 28.73969 26.04758 28.25740 27.60604 26.21951 25.17678 25.77211 26.26925 24.81561
25.13002 25.20559 24.50441 23.51812 25.40216 23.74762 23.64808 23.52938 23.30066 23.42971 26.91391 26.58568 25.81070 25.02316 26.27268 28.58991 27.21739 25.81222 28.38089 29.29048 29.36978 32.07303 34.96919 38.97520 46.22467 49.62850 53.62171 56.33985 55.04265 54.83576 55.79433 55.06572 57.73831 62.81587 76.20553 81.55430 83.69562 84.10486 92.06766 98.96656 103.33962 105.12080 104.79879 105.80558 102.69189 99.36272 99.14771 98.56485 98.21150 97.35537 98.64664 99.25832 96.82262 98.85789 99.19936 98.33231 98.49986 96.48660 97.72429 95.52387 95.89142 96.69515 95.03486 97.03924 98.71448 96.99985 93.86324 94.68659 95.15194 94.76076 93.52148 95.68057 97.39980 96.48020 97.16736 98.55013 97.98643 96.34627 100.99265 101.12733 98.75174 101.24615 103.19218 104.60824 106.94646 107.35809 104.87245 102.87700 95.44684 85.14325 80.08636 69.07460 60.46404 61.36807 60.26990 59.75385 52.37885 52.28652 43.08512 38.78640 36.87650 33.89383 36.72600 38.38347 34.59363 36.35739 34.66345 31.93231 30.54250 28.56931 28.71213 24.86683 26.43556 25.38435 27.89084 30.58628 24.66186 26.38563 28.84274 25.39668 25.29273 25.67431 24.54574
27.17419 23.82748 23.44882 26.97560 25.97761 25.62791 25.71572 24.06920 26.34834 26.08180 23.00676 26.41204 26.48629 25.41481 25.16753 26.39207 29.12257 29.46449 29.44369 32.59999 31.03756 32.71619 37.45171 41.86136 47.18032 50.90945 57.64623 60.09057 59.94454 61.89967 61.62092 60.29936 68.08094 68.76491 74.55057 85.04678 89.55312 95.95630 97.62983 101.05227 105.19031 106.00452 107.15704 103.32516 100.34969 100.39249 100.64217 98.94985 98.14070 99.49639 95.83878 95.38698 96.54735 98.04026 95.38434 95.57792 97.22064 97.39598 96.17642 97.72369 96.64243 97.01570 97.51132 95.93853 98.43092 96.35372 95.55911 97.57875 95.05418 92.05261 91.16798 93.47354 94.02948 96.02320 96.89247 95.30171 98.80638 98.65738 96.28583 98.66439 98.22713 99.60717 99.84332 100.45554 104.21268 108.46561 106.57371 102.85661 100.94804 88.52493 82.69107 73.75565 73.44062 73.01862 71.31144 66.80704 60.23076 51.51526 42.19837 42.56862 41.61255 43.81610 39.89755 40.93485 38.49539 35.34568 33.35816 30.70614 29.84522 29.89002 26.82102 28.51988 26.20548 26.82607 23.12976 25.74696 25.56775 24.92433 26.59035 25.24978 22.33431 24.45989 23.84842
25.75295 26.24341 24.60496 23.71832 24.63736 25.04962 26.78593 25.05205 25.60253 25.98032 25.75706 24.88186 25.40110 26.95618 24.48668 27.79397 28.85651 28.90101 29.10368 34.40032 33.20647 35.95745 40.21972 43.89640 47.16902 53.15213 56.03077 59.08601 60.24378 63.01414 61.38595 69.54558 72.96596 76.67457 78.89682 82.95122 91.42618 101.05069 101.53562 104.94228 107.10749 106.43210 103.60091 103.48683 100.60990 100.58208 95.65016 97.54464 98.66062 97.97869 97.71955 96.29757 97.74476 97.39448 96.73887 96.71466 96.37232 97.58756 97.45567 95.66797 98.03360 97.49679 98.04973 94.86147 93.93513 92.71267 90.44139 95.20686 95.92117 89.09906 86.73951 92.34810 93.54216 95.84849 94.40010 96.30476 95.60637 96.91811 97.35430 99.21973 98.15342 97.91569 100.82326 101.01141 104.06435 103.75659 106.22391 106.44537 100.22717 92.66598 86.17962 84.60831 81.48892 78.93005 75.54702 67.42267 58.37517 50.08128 49.49718 48.26744 48.77087 45.75604 43.55892 41.56965 38.23426 35.67280 30.51046 31.87119 30.76621 27.86192 27.58678 27.06253 25.32675 26.66112 26.85841 24.66664 25.12885 25.22103 26.16412 22.84791 23.96868 27.35408 25.01087
26.06679 24.13240 26.57721 27.03988 26.08336 23.68720 26.52827 25.93351 24.59427 24.80710 23.27883 24.21708 26.45583 28.31217 26.48454 28.98539 28.76543 27.70215 34.34528 36.51465 37.46675 39.81753 43.40158 45.85645 49.33684 50.27251 52.76375 51.32917 54.36354 56.66230 59.79139 62.71072 64.65934 66.65331 71.09086 77.24763 89.23653 96.94932 104.77958 105.40252 106.34677 105.63954 103.14056 102.12965 99.54153 99.71772 98.05499 98.23269 99.06752 94.82647 96.20107 96.71653 96.75686 97.48942 98.79267 95.38005 96.30837 98.76257 95.41964 99.97580 97.40080 96.09412 96.27853 95.39384 94.04940 89.32997 89.37999 91.29195 92.23884 89.24227 86.41835 90.16734 88.76885 86.30134 92.88775 95.50213 96.96869 98.72178 100.36690 99.15355 98.25033 97.28844 100.62047 100.08020 103.15384 107.89499 108.12766 104.58770 102.14942 100.58604 93.60436 93.34129 87.30246 78.55326 74.88917 63.93787 60.48025 56.80562 53.63415 52.08999 48.67026 44.14606 43.83026 39.35383 37.99630 32.87165 31.96845 33.01663 33.81931 27.68233 30.04796 27.17380 26.92194 27.10403 26.89489 26.94851 24.02291 26.12678 23.94420 25.64187 26.35536 24.82601 23.65776
24.57150 25.95547 25.51025 25.04977 24.70505 24.87822 25.17451 24.40208 27.04139 25.00620 25.31234 25.60799 23.21033 27.68778 29.71967 27.88135 32.56230 33.11284 32.77415 35.93749 39.47764 44.01299 42.99350 43.95365 43.19670 44.61643 44.22665 43.88252 44.29491 46.73668 46.74469 52.09086 55.80562 62.53873 66.26016 77.51220 89.05715 91.31784 103.62594 105.70614 106.30848 104.48420 103.24474 102.40361 97.03967 98.10848 99.55978 98.96002 97.78320 96.05745 99.33366 97.54482 98.19656 98.67983 95.76256 97.10238 99.36575 94.72962 97.58118 97.42249 95.94431 96.12843 96.48026 97.49007 97.21682 93.62296 84.51628 86.50384 86.36759 82.52068 85.06368 84.17743 79.80577 80.54016 92.03605 96.06220 94.89120 98.92940 98.31923 97.72579 98.97528 98.80550 99.44869 104.98073 101.56334 104.87748 107.53027 106.00355 105.50303 102.82595 95.83658 88.95013 79.71281 74.35404 68.33854 62.95854 61.84620 56.80756 51.62696 46.99743 45.55576 40.93805 38.12776 37.59435 35.35469 32.98763 32.23999 31.16395 29.47266 30.44253 28.84773 26.82208 27.71537 26.46487 27.93372 26.76882 26.32022 24.73243 25.27405 23.79789 27.61444 26.05967 25.34078
26.51422 22.62771 25.57789 26.21021 26.62580 24.46500 25.63188 25.08795 26.38516 25.61806 26.30293 27.66909 26.52466 29.97659 26.27211 31.69246 33.34274 33.30350 37.48234 39.16966 35.86200 42.55898 41.43180 39.43143 38.22259 39.27995 36.70497 37.22782 37.89748 37.90739 42.67210 45.93147 51.74808 54.66163 66.65204 74.59915 86.70090 93.47533 101.12739 105.88193 106.68315 106.68693 103.25503 104.18124 101.55513 98.03149 100.80766 96.36986 97.07440 96.76372 98.11086 96.03412 96.29340 95.86415 98.63542 94.71706 98.60554 96.42795 95.94308 94.84363 91.93360 93.66367 96.01233 95.45846 94.07519 91.17459 89.22192 80.31430 79.08339 82.64411 74.04114 80.05338 77.96509 87.06065 90.75272 94.50443 95.99860 96.64622 95.75185 96.66648 96.71495 97.67018 98.86300 101.67621 104.64952 106.19537 105.27647 108.82829 106.51259 101.17852 94.24395 90.14492 78.00537 71.11832 67.88045 58.99938 53.16768 53.48403 48.80743 43.69708 40.67004 38.61808 34.12625 33.93371 31.63985 30.95254 30.90657 30.28572 31.37282 28.50620 26.95210 26.07595 26.91549 26.68084 27.71918 25.71809 23.82330 25.92795 25.39332 24.28677 25.30460 24.96040 24.38480
22.46564 23.95924 24.68616 26.77407 23.21281 24.52244 27.01401 26.17166 26.33058 24.68218 25.45227 24.90297 25.15215 30.20097 30.45820 31.09090 31.11592 31.72711 31.48047 35.36611 35.93212 36.11732 35.67714 33.63949 31.81069 34.12950 34.80710 38.83365 38.33776 41.63151 48.60335 51.16915 55.13999 59.21046 67.20166 76.41983 88.03610 95.04198 102.57852 104.33527 106.71148 105.94314 102.59904 101.78230 101.87775 99.56901 101.55130 98.35736 97.01836 98.73709 96.73091 95.72257 99.23074 97.95948 96.77703 96.32383 98.12318 96.68469 96.27081 92.57327 93.45944 89.59060 87.86061 85.59470 88.68631 83.97647 86.36587 83.31958 75.50820 73.61203 66.21458 66.62443 63.99592 78.36073 88.16695 91.28080 92.56809 94.58765 97.11559 96.55529 99.23019 98.68645 98.83479 100.47622 100.99458 106.40549 105.86339 107.50834 105.12901 98.51481 96.08195 87.42203 80.91771 71.36963 63.50031 61.84973 54.70110 49.31418 44.03375 44.46352 39.27748 35.66633 32.20994 29.60080 29.46068 29.42923 27.34516 26.63938 26.71858 29.14722 25.72802 25.15678 26.70896 26.08630 27.03949 23.69437 24.11950 27.54650 24.90672 25.77367 26.10148 25.43472 25.93075
26.25045 25.74737 26.69742 25.33530 26.70195 25.72397 24.87748 28.64601 25.11844 23.01537 25.56392 26.23760 27.42086 28.95603 30.88447 29.94730 31.18134 30.00907 32.09045 32.24528 34.15749 33.90234 33.81890 30.88199 33.50821 32.81921 35.35442 38.77208 39.76032 42.56654 45.90631 53.09100 60.62093 67.85015 74.05622 78.42040 89.83512 95.65077 103.93876 106.56025 105.37955 106.32067 101.48287 102.07494 101.07761 98.62933 98.63933 97.67295 95.33352 97.57670 96.35374 95.12211 99.91651 97.66806 96.13888 97.23882 96.56763 98.19046 96.34363 92.56959 95.38436 93.92605 91.65516 92.43723 88.39259 78.65344 77.69817 85.74653 81.05416 77.02852 61.54189 57.89181 66.86353 80.82769 84.08287 86.56586 86.12290 88.66115 91.85705 95.31083 97.71001 99.81557 101.72587 99.86863 102.05660 104.93431 106.16577 104.75723 103.93449 100.33957 90.88991 83.08400 74.02566 64.12284 55.85129 58.03382 50.18741 45.71416 38.68216 43.12255 35.68075 33.80053 29.24221 28.41849 26.11664 27.19912 24.89084 26.50457 27.72107 24.20373 27.09654 24.85741 24.01634 26.40533 26.46352 26.76851 21.54610 25.92899 27.97428 26.74451 25.26200 25.29532 26.69601
26.28387 25.90972 25.40659 25.43968 26.23270 25.18619 27.51193 24.26510 24.35941 27.79491 24.64406 25.67657 27.48258 27.62426 28.63191 25.03676 26.64719 28.35752 28.94206 27.81229 30.56958 25.24912 26.85822 30.19319 34.84430 38.10384 38.01958 44.49069 45.26130 48.51626 52.01466 59.38892 66.48173 72.70988 78.67610 83.82638 90.62589 93.72891 104.12133 108.96091 107.23097 104.40724 105.44739 99.47650 99.99158 97.49292 97.60168 96.19347 97.76169 96.85519 96.01891 98.79881 97.86943 96.58769 96.00822 98.26139 95.84821 95.51771 96.82312 98.10716 98.66099 96.85514 94.56715 91.82483 92.52860 87.92938 76.53253 69.82939 69.70642 64.43018 69.44075 63.96873 66.13630 68.72285 73.52876 76.13925 82.56583 88.75249 94.96439 97.31792 97.19870 96.65803 100.39213 101.35617 101.36001 104.55812 106.76260 107.24420 104.01005 100.35854 94.87584 81.18857 72.59171 61.72617 53.81657 49.73990 49.78688 37.59474 39.90907 37.00238 32.59501 28.71250 28.91347 29.40085 28.37926 28.36842 26.28332 30.05064 27.16572 25.02987 26.97545 26.17621 24.56356 25.12853 26.83475 25.08603 25.93369 26.73332 23.49737 22.90038 25.95637 25.78730 25.84332
25.22831 24.33953 26.74985 25.27040 24.70288 25.53236 23.97171 24.85808 22.29833 27.17747 24.91130 27.38426 25.03677 24.93119 25.46722 27.29551 26.47036 27.06999 25.73034 26.88082 27.63234 25.24522 27.71720 30.85844 32.05787 35.44221 44.42845 48.62533 52.77310 55.99625 58.99746 60.74146 63.86580 74.77123 81.59622 82.93472 89.83692 93.64861 100.51182 106.62395 108.77093 107.27991 102.11055 101.16744 99.83591 100.20598 98.68426 96.97212 96.27247 97.92525 97.07015 97.75831 98.45536 98.18923 96.76794 95.61503 97.42711 96.84299 97.99849 96.65566 96.64666 95.89287 95.84536 97.92075 94.52041 89.51317 85.81895 82.93979 74.02574 67.84459 58.56680 57.82004 58.14362 56.04141 69.06021 80.84909 88.10743 94.05770 96.31584 96.70568 96.63033 99.70566 96.71789 102.34058 102.19050 106.12312 106.31472 108.81984 106.58703 101.68524 91.86050 90.08044 71.60878 64.07466 63.10720 54.54049 42.13950 40.54026 38.50492 36.05572 31.77853 30.96286 34.36394 34.09981 33.41835 31.18079 28.61019 27.93362 29.40842 29.14846 29.79352 29.21245 26.90130 28.35742 26.24753 26.23039 24.40388 25.81685 27.01998 25.07281 25.64582 24.63912 26.64875
27.26555 25.78294 25.09041 24.27733 24.63868 22.71727 24.61098 25.32532 26.68973 25.45226 24.36077 23.78683 25.77938 23.80962 28.37680 26.03204 27.26529 28.82414 22.89164 30.00224 30.93614 30.61513 31.43671 32.41091 40.94152 41.88932 46.92215 51.79543 55.10252 57.47824 62.54369 66.64781 70.38161 68.62363 76.07772 74.82657 81.69977 89.47455 97.01947 103.98459 105.40242 103.01763 102.68296 102.54704 100.74415 99.41409 95.47947 99.74905 97.26628 95.89191 96.00458 97.68420 96.64712 97.56841 98.33379 95.73555 98.46785 97.62664 96.16135 95.16421 98.09397 95.69999 97.93904 96.75999 96.50220 92.16737 93.92775 89.50149 80.46171 75.04430 72.00053 65.90952 57.42479 56.26499 70.86056 73.04147 86.07030 90.47279 91.38635 89.18366 95.80510 94.61880 95.74603 99.30456 104.77677 106.31799 107.26107 107.31254 107.31791 103.13705 98.61657 89.79310 85.96633 72.37634 70.19358 62.66201 54.46163 45.03391 44.30739 42.73581 42.95370 37.98476 36.80855 40.41470 39.59192 32.98727 33.96522 31.82942 32.65214 29.57041 29.87473 30.52278 28.29493 29.55144 25.79915 26.89403 26.81345 24.57529 23.69259 22.29005 24.71472 25.07823 26.40199
25.81986 25.96578 25.02988 24.17955 24.47816 26.23394 25.57700 25.98797 25.24434 26.09812 25.90446 24.23568 27.13135 26.47230 25.65750 26.15812 27.31342 27.03448 29.84951 30.05197 31.43746 30.75223 33.84471 37.09808 39.04225 41.24368 44.91369 47.80401 48.44729 58.89344 59.60994 61.92679 60.69886 64.86841 63.30852 67.82300 74.23555 83.52048 91.70641 99.51379 105.14503 106.10126 106.83826 100.39844 103.07100 99.59312 98.74768 96.91686 98.23419 98.25979 97.77452 95.03988 98.40976 97.36643 97.83471 96.81443 95.37570 98.00433 97.41352 99.19181 94.47969 97.00227 96.96913 97.06037 94.38358 95.93492 93.26373 88.54883 82.36833 75.61529 72.09613 64.19784 61.81336 49.38385 54.63863 68.13295 76.15035 80.00647 82.12733 78.12196 84.40936 84.24565 96.14501 100.63914 101.36058 107.57185 106.84433 106.54159 104.46225 102.43588 96.39015 93.49357 85.72084 78.58907 74.46268 64.95698 61.39175 57.68779 51.82428 48.46884 46.72474 42.96799 42.46914 42.50595 37.84833 37.98916 35.26985 32.35822 31.06100 31.31728 31.52433 29.84638 29.71238 29.37545 27.22468 26.29782 27.63163 25.14801 26.78912 25.63746 26.19030 25.46839 24.47469
27.30777 24.23416 24.20199 26.85373 23.24016 25.57273 26.55678 24.61960 24.01958 23.87559 25.59054 25.60530 27.92141 27.90477 24.77160 30.00197 28.08630 30.89473 29.65290 31.69888 33.40603 35.62403 35.40389 35.62295 37.07027 39.21527 38.29223 45.01517 42.69281 49.02186 50.86101 51.80137 54.22735 52.95063 56.73850 62.37061 73.05130 77.62554 91.66689 98.62167 103.61480 105.89442 106.69431 101.29326 101.41293 99.86130 98.57552 97.65605 96.94329 96.03329 99.06177 96.33215 98.72606 98.65709 96.81222 97.34121 97.94366 95.95079 96.12480 97.90089 98.16612 97.18245 98.34297 96.65529 94.21655 94.79329 94.72639 85.97131 84.23740 68.01132 60.38894 56.66232 52.43918 54.48340 56.27521 47.66933 61.79114 68.54160 70.27072 61.83713 71.74091 85.11034 90.55551 96.05514 103.10758 104.05081 102.73627 101.64119 96.31811 90.54131 91.27885 88.41650 84.24961 76.93613 73.06029 69.34457 63.10821 62.22662 57.54378 53.05726 49.18619 49.72892 43.51026 41.98148 38.88844 35.25834 33.06939 32.56606 29.64242 27.96114 29.40119 29.60548 26.67504 28.20742 27.06426 26.53952 27.30996 25.71647 27.37063 25.63590 24.38623 24.22830 27.77587
26.10414 24.11515 25.13798 25.21499 26.15909 25.45150 24.58860 27.82587 25.38623 25.29716 25.89328 29.09511 27.39302 27.73782 30.12984 28.30138 30.89850 29.21296 31.20802 33.14154 31.90257 31.66113 33.41446 34.08956 33.03123 34.37446 34.78644 38.11438 36.53859 41.88336 44.69755 43.21531 43.01194 51.21915 55.71546 61.04929 70.31098 78.55693 89.99105 95.89001 102.26905 105.83553 104.75645 101.50263 101.65905 99.66422 101.52379 97.39338 97.43947 94.90501 96.48927 97.82857 97.84385 98.31819 97.24453 98.95249 98.28480 101.62333 96.42173 95.77709 96.58823 97.64745 96.18698 95.21598 93.29061 95.44175 89.25240 87.26947 75.37133 64.13748 69.13260 61.12323 66.42446 77.72759 71.43684 53.32083 54.94081 57.55465 50.64304 49.57789 69.79856 80.42804 85.50420 93.51323 99.49476 102.63652 100.81562 97.82741 93.85624 84.03960 80.27334 76.47863 73.78538 65.34190 64.76581 65.43561 60.75397 59.41948 55.59278 54.50199 52.27582 50.33383 42.68086 43.06821 37.08057 33.54346 33.01576 30.23293 29.14280 27.04116 28.62782 25.88539 26.57412 28.28268 27.30797 28.52799 25.87262 25.17772 28.33407 26.38528 26.58144 26.73352 25.26288
25.65479 26.86580 24.05306 24.19599 23.25847 26.56179 25.25302 23.63096 25.54555 24.99162 27.16973 28.59340 27.46181 27.68803 29.43750 29.08141 30.27674 30.35543 31.47564 28.79234 30.82754 29.41747 29.48312 29.13677 28.04962 29.33642 32.40509 32.74087 34.30571 37.52145 42.36700 43.82655 49.09116 49.60133 55.24991 64.46696 70.92360 81.13569 90.54593 101.94474 103.03663 106.06240 106.42136 102.23810 101.55947 100.46070 100.71629 99.17741 98.48714 98.53007 96.27046 98.59382 97.58807 97.66454 97.90667 96.45224 95.99099 96.05470 97.13390 97.02292 97.31322 94.49020 93.56777 96.02847 93.96113 90.86142 89.42838 80.55376 68.96963 73.04299 79.75754 68.90684 75.16364 85.11313 71.67716 60.60896 49.73403 51.73460 48.04931 50.54479 63.97614 68.03855 73.52755 80.16965 83.25347 92.37407 85.22940 84.24420 82.62211 80.41945 73.60180 68.04196 60.33856 57.95121 57.80401 56.94392 59.20813 55.30211 50.11351 46.26726 47.23853 47.38105 47.24581 43.10698 40.20783 34.93291 33.13693 30.53909 30.54030 26.50765 28.17034 27.54441 23.73616 27.69025 27.79223 25.95263 24.63232 26.49400 24.85292 24.77178 25.27464 25.03210 23.35752
23.41354 25.22835 24.13945 25.97518 24.53932 23.69867 25.24775 25.59010 26.42528 27.37882 27.23545 27.15953 27.03320 25.99569 24.62630 27.40283 29.21824 28.07126 28.44478 28.85626 27.65429 28.10288 28.12900 26.01709 31.23017 31.78496 36.11695 37.60014 37.14301 41.72055 45.46273 51.13730 57.78951 63.60549 69.03149 74.36713 78.90506 86.05388 91.65743 95.37971 101.50085 105.96845 106.70241 103.33410 101.34743 101.50083 100.67181 99.26788 99.06467 98.99608 97.86526 97.30950 97.09345 97.20396 95.79098 95.16867 95.88161 95.60728 97.34475 98.88325 96.47342 92.85239 92.41460 89.88557 87.23470 87.42521 75.09768 69.51928 76.11793 85.09308 82.43408 79.91086 87.86980 86.75546 83.11264 73.14610 61.96518 59.08816 46.97067 44.94140 52.95221 44.88665 55.29033 58.59735 65.55882 68.82836 66.19526 63.62520 66.16749 67.36719 71.04239 66.75506 57.65866 53.38095 45.14983 50.09877 48.40876 48.60360 49.53611 41.94628 42.04994 44.29592 45.94611 43.61719 40.31033 38.53852 33.85711 32.37234 32.71336 30.13906 28.02995 28.39165 25.84054 27.88557 27.34313 27.46569 26.19339 24.73121 25.33030 24.07395 25.26597 25.82571 23.98568
26.72591 24.97802 24.42996 25.91928 24.66981 25.49012 26.69552 25.06703 25.08805 24.73416 24.58241 26.03524 26.92171 24.44121 28.65317 29.26004 27.54930 28.24829 26.33727 27.49080 27.63817 27.96313 29.75190 32.67213 33.48078 39.59639 42.69751 42.64686 41.99706 44.99070 52.23111 57.91173 61.78132 67.41417 71.36351 75.45244 80.68836 84.42169 87.40681 97.38837 99.96401 104.21768 106.00414 104.08802 102.76056 101.91777 101.22492 98.57836 99.60889 97.84633 98.58274 97.63643 97.92405 97.38230 97.70641 96.82714 97.70351 96.05260 95.68260 94.34733 92.63290 91.06746 90.20643 89.21730 86.51248 84.95300 81.04077 78.04674 83.59187 84.68882 89.76369 91.03985 91.08287 93.41900 89.72927 83.99641 78.27862 63.97985 56.24169 51.21211 45.52008 40.33823 38.75275 47.98017 50.59635 52.01303 50.80283 42.88578 51.86274 50.78047 60.20252 63.14586 60.35861 58.01015 50.26815 41.05937 40.97042 39.25664 38.56520 37.22988 37.39441 37.84845 40.46027 40.33964 40.34419 40.76126 41.14297 35.52402 32.65532 32.28608 29.68329 26.37776 26.00541 29.32868 25.44614 24.97150 26.55329 24.05550 24.45690 24.90593 24.03574 25.44585 28.15907
25.16116 24.85370 24.49102 28.71121 26.18840 25.46933 25.42906 26.31780 22.02559 24.72387 23.98374 24.20088 26.15013 26.69729 24.73709 27.99607 25.73346 25.48523 26.32166 29.52508 29.61113 32.63801 33.09292 36.88444 35.93439 44.10349 44.21298 48.19958 52.87803 49.74103 58.19380 64.70696 65.86932 70.51907 70.80966 72.42405 72.99061 76.94405 83.60654 87.56747 97.80474 104.57600 105.66343 105.35017 104.84781 105.65441 102.36959 100.70887 99.54491 99.80296 98.46967 98.59961 95.58498 96.58659 98.18404 99.03193 98.49058 96.47823 97.13712 97.60696 98.08131 93.61358 93.02869 94.67586 92.63158 90.54316 85.50014 82.38267 91.68351 94.51460 92.47125 96.16695 94.42588 94.31546 94.82517 91.00818 87.13391 81.17276 75.51752 60.66711 48.92254 53.21589 47.12282 43.59645 36.53379 33.82707 38.19414 32.74330 31.50947 35.22433 45.43099 54.16112 52.55587 55.19969 49.81267 43.01744 38.42528 34.37290 34.26244 30.44863 28.10929 33.30458 37.04378 39.35537 39.74592 37.84166 42.67325 36.51196 31.13021 31.00450 29.12847 28.00695 28.03060 25.29987 26.00896 29.38374 25.36155 25.57223 23.24659 26.38458 22.22393 25.06688 21.98703
25.10410 26.94051 26.20307 26.44415 24.59187 24.42494 24.20429 23.11837 27.17208 24.39874 25.83769 24.91309 26.58595 24.59249 27.16957 26.09566 27.33265 25.30798 27.40293 28.69790 30.18898 33.17526 33.79661 39.02662 41.96788 47.06896 50.65140 56.44662 58.84236 58.31256 61.61186 63.25177 66.15931 66.76935 60.50994 64.04294 62.17319 68.68824 78.96668 88.79666 95.03878 102.51191 104.18957 108.31962 105.25470 104.96028 102.97794 101.45330 98.78478 98.27502 99.58266 97.64213 98.52183 99.22352 98.08613 95.49884 96.35438 100.47262 95.21725 99.00659 96.39018 94.21080 94.29509 95.56811 95.13346 92.28167 87.46288 87.84434 91.73633 98.19598 95.89271 97.21335 95.76607 96.20366 95.63402 98.00684 91.11661 89.44976 82.47384 69.92269 68.28855 73.10168 66.23917 62.86478 59.42771 58.83873 53.52605 43.77924 39.98708 32.37239 34.20108 43.12953 42.60653 42.03500 43.87427 43.77599 42.84336 34.88081 34.84433 30.26690 30.92217 33.09140 32.59759 33.55501 34.51123 37.05191 38.76353 35.89870 36.18613 31.01127 32.19106 28.33525 30.00835 27.06587 27.18064 24.96781 26.38101 22.34090 25.56057 24.68158 25.17693 25.75563 24.03766
25.60398 24.88868 24.71920 24.93955 25.32891 26.81230 26.63853 25.24878 25.86036 26.29562 24.48775 25.18925 23.77185 27.19067 25.70218 28.02759 27.08058 26.90744 29.32862 31.18370 33.69200 33.02536 36.37053 36.98642 39.51502 44.86975 51.03830 55.46154 56.19815 56.46505 62.17925 57.87286 59.75643 59.82005 58.53551 55.13642 61.14075 65.10229 70.04472 86.95958 91.38005 100.88601 103.30402 105.02370 104.69761 104.27778 104.41255 99.87220 99.55976 98.86760 101.19771 97.14323 98.27432 97.50205 100.14432 96.01131 94.54264 100.47170 98.69545 96.40209 96.31709 96.50328 96.13125 96.58670 95.29232 95.09104 93.47936 93.53284 94.95812 98.69376 98.72559 97.35735 97.95056 96.48926 96.34092 100.05820 95.47027 95.18323 89.10839 81.99228 80.80101 89.77456 82.32023 79.17406 83.67227 70.74717 69.31353 55.25497 52.03238 42.71269 29.92932 29.36734 31.71044 32.19118 39.61036 39.05593 39.24032 37.08734 34.54130 27.83346 27.46436 25.76446 30.94550 28.93365 31.69613 30.44682 33.23319 34.17665 35.07503 30.89104 28.25276 27.89222 28.20777 26.20752 26.04799 24.79279 22.32445 25.13492 22.53052 26.46169 25.91579 25.16793 28.21743
24.57303 25.70014 23.31490 24.83571 25.86558 23.13780 27.08351 25.61503 24.26895 25.44088 27.06069 26.82669 25.82686 24.84422 27.11029 27.20809 25.20287 29.38111 28.47805 29.04213 31.62156 29.98017 31.95017 37.08573 38.14897 42.33209 49.26583 52.41856 51.35812 50.27562 49.59489 52.89299 50.73148 49.81218 47.48148 51.06092 54.38823 64.89279 70.07758 77.25377 89.24044 97.46623 103.44783 105.66071 106.66729 104.15158 102.58551 104.33405 101.32812 99.00556 101.60079 98.98883 102.34972 99.00433 97.38123 96.85862 96.69460 96.91635 97.66572 97.01788 95.05874 96.62447 96.30437 96.74364 96.95667 95.76089 93.45091 96.45145 96.50506 95.04904 98.97173 99.58517 97.48211 95.89170 96.87712 97.05785 102.39310 95.11199 97.58464 88.94590 90.62797 97.28706 98.54537 97.69696 89.85652 88.95365 81.06411 70.01960 63.31752 46.24780 39.01554 33.27160 32.03425 30.09540 30.54971 30.50072 33.43670 32.48542 28.82375 31.14671 27.87841 28.38981 24.16041 26.92512 30.46747 30.02638 30.62043 32.54838 29.78426 30.38472 31.83718 30.38832 28.85867 27.31548 25.50383 25.17147 24.18216 26.51419 25.95984 24.69715 25.20241 24.60282 24.38641
25.87686 23.81760 25.25689 25.78039 26.59465 24.29829 26.29424 24.80159 26.59368 24.94308 23.75424 24.82936 25.37320 26.91093 27.59054 28.44598 27.69564 30.11766 30.62832 30.45702 30.40325 28.96182 37.18885 36.70374 39.64820 43.56322 49.69926 49.14521 47.61071 45.34096 45.16247 44.39550 41.83941 40.39147 45.71231 54.20055 61.25583 69.55095 74.45530 84.75757 93.02268 96.01793 99.72542 105.75947 105.34636 106.14662 105.99143 103.59321 102.98156 102.16004 101.97230 101.38941 98.11779 98.06813 96.69468 100.42131 99.55734 95.80112 98.64172 96.97653 98.71800 95.60026 97.59058 98.87281 96.81780 97.61385 98.91636 94.91804 96.14365 96.73893 96.41345 97.42524 98.61763 98.42405 98.90314 100.57907 101.82290 100.19868 100.31107 97.45896 97.81618 101.51777 104.21053 102.76548 99.31422 97.31132 88.44973 77.01719 66.88482 66.51316 52.72824 42.20722 40.15242 40.19497 34.00168 31.64623 28.81778 29.97763 31.43691 26.02680 26.74709 27.34980 27.44809 26.27967 25.20228 27.35671 29.80059 27.60794 28.67858 29.95083 26.12958 26.41205 26.61315 29.34109 24.95523 22.10604 25.67553 26.05536 24.75182 23.74223 23.72786 25.81723 26.65240
24.70369 24.76112 24.15376 25.37912 25.86951 24.21830 25.90224 24.80961 26.75988 26.86438 27.18602 24.98240 26.38522 27.42589 27.11066 27.47853 28.33666 28.51889 30.09838 28.42488 29.18735 31.48913 33.02258 34.72133 37.47290 46.83433 44.37711 44.83703 38.21391 38.57979 40.73271 36.88314 39.06264 49.26199 52.46758 57.49110 63.19696 71.70085 78.03496 81.13404 86.21858 90.50745 99.19239 105.78647 106.30068 106.71680 105.79719 107.30350 103.51519 104.63587 99.91220 99.71011 100.43157 100.02061 98.30775 98.66426 97.86507 97.67684 96.18721 99.19109 97.34605 98.60935 99.85210 97.72355 95.92597 98.07134 95.77254 97.99779 98.85853 96.15920 97.23015 98.87815 99.43902 99.51669 100.10682 100.08130 99.51250 100.35677 102.16964 101.76564 104.45900 108.24178 108.27475 101.54702 98.04820 92.92642 90.25467 84.63939 75.89711 70.04881 64.01854 54.61820 56.73718 48.10138 41.20346 39.55729 34.07551 27.69756 28.32721 30.37478 28.31667 28.74266 27.97620 25.02703 26.14353 24.50525 26.58831 27.88494 26.57519 25.41148 24.85847 27.02798 28.04442 27.30232 27.14837 27.36750 24.84260 27.43366 25.28311 23.33680 23.29918 24.43649 25.09687
25.34433 25.35005 26.13127 25.12730 25.15242 24.26972 26.77083 22.85866 24.15179 24.29968 26.66473 28.21778 23.89659 27.12133 26.60869 27.98708 25.93562 24.63486 27.34861 28.53324 31.00094 34.31985 35.63096 39.38560 41.61629 43.14217 43.64877 36.54662 34.93376 33.90498 37.43704 39.31421 48.73586 51.07248 58.11286 63.93176 69.01802 72.30739 75.59795 74.42634 80.37482 83.61007 93.37193 98.08385 104.46421 106.85994 106.90818 107.99258 107.93120 104.06825 101.77378 101.95930 100.83129 99.69890 99.83678 98.47429 97.92587 100.36557 97.00245 97.38721 98.40835 97.23114 100.04853 97.15483 96.52492 97.59138 99.27259 95.84108 97.47562 98.14590 98.94659 97.74606 100.25645 100.71848 102.68416 101.89721 100.84643 104.52942 104.64064 105.10318 106.89472 104.52272 107.61610 101.40393 93.49497 83.69323 80.57335 75.70262 73.68500 70.71883 66.83654 64.20823 60.70476 55.06072 49.31080 38.58820 33.98651 32.89454 29.14485 29.30797 28.28138 32.11281 27.96315 28.09426 24.96271 26.56638 25.70410 25.52400 26.90007 25.99490 26.19028 25.03933 24.58277 26.03869 24.91099 27.16829 24.62240 26.46011 27.37363 26.26714 23.80087 26.16986 25.19502
24.91525 25.50618 24.04613 25.76633 23.94537 26.25596 26.03668 25.28792 24.40197 25.60375 26.62703 26.22476 25.82832 27.13390 23.68645 27.91714 25.62999 27.48156 29.33506 28.61270 31.57214 35.97572 34.60756 36.10769 40.27591 38.24815 34.79868 34.78738 33.70050 34.34433 39.20354 43.23760 46.00326 55.81565 59.38707 62.23305 63.14528 67.17957 65.09629 71.81951 75.24134 82.81072 89.81390 99.54958 103.82716 106.34467 110.21761 109.18358 105.55675 105.00473 106.43476 104.57884 101.54237 101.27166 100.53410 101.26884 98.95134 97.59624 100.19321 100.50046 99.38703 99.36981 101.24567 100.25644 96.47650 96.24060 101.49547 99.62058 97.68469 99.65790 99.00266 100.38073 99.28014 100.18630 104.62401 103.63821 102.75046 103.06898 107.73107 106.30818 106.97886 105.08130 103.18568 96.55688 89.12793 77.81948 69.91503 69.05890 66.08177 65.26653 61.59575 62.76068 62.67993 56.47884 50.29785 42.04705 35.89559 34.16651 36.43933 34.90257 33.91278 33.74491 32.61449 30.18214 27.41927 26.40550 26.13267 25.69197 25.40332 23.99332 24.30461 25.40669 26.78833 25.40011 24.05985 24.87350 25.43498 24.45075 25.09325 26.76950 26.40698 24.02121 24.50832
25.19662 25.86452 26.46531 26.64352 25.72272 25.86366 25.74234 24.97844 25.08473 25.18847 26.37161 24.94481 24.65219 24.79084 25.61738 25.74440 28.85686 27.93487 29.39714 31.22293 31.90989 36.41951 32.56732 36.36110 34.50335 33.10908 32.01112 31.58934 32.46096 36.55762 41.61379 45.58137 52.02159 56.53268 56.79621 58.01651 53.85367 59.48895 63.13077 69.16976 73.83617 85.32644 89.10566 94.46426 100.06207 106.65164 107.37420 107.03230 105.61121 106.81487 107.43587 103.68460 102.64739 102.08609 101.46590 98.57973 99.52623 99.45901 100.07583 100.43807 96.88562 97.96578 101.82714 97.62563 98.35909 100.31613 100.44031 100.06103 100.04760 99.76688 97.46151 101.21958 103.26689 100.97574 105.20930 104.34222 106.34489 106.78347 105.05869 101.38875 102.01319 96.49824 96.47298 94.28804 91.17765 82.80761 65.88249 57.12091 55.55779 57.10918 56.88270 55.54014 54.91983 55.61046 55.81915 48.32141 44.55020 41.49025 43.29514 38.48140 37.84183 33.74391 37.93690 34.55203 29.63446 29.40616 26.50606 25.38236 26.94911 27.02867 28.16028 24.85382 24.15505 26.28854 24.91963 26.11775 25.50940 25.86369 26.35438 29.11562 27.34065 27.72813 24.06610
25.76549 24.19892 23.69192 23.96965 27.12651 25.43721 25.86832 24.33059 24.46563 26.23298 27.34410 25.49771 26.74799 25.01496 26.64847 26.31182 27.47568 28.16159 30.11109 30.97333 30.90699 32.72404 33.50106 30.65688 29.70678 30.35109 30.71906 31.27491 33.92896 39.49352 42.39162 46.68589 45.77590 49.33911 48.52112 46.96637 51.40466 59.14772 66.49283 72.37227 81.82967 82.96633 89.73227 94.22763 97.10870 99.81708 99.94459 102.79663 100.88738 102.85764 106.23981 105.99953 105.03597 102.25621 101.93078 103.11266 102.15183 104.09476 100.40641 97.52381 100.66543 100.64513 102.87789 101.17070 102.16853 101.46733 101.90260 102.67022 101.03054 100.35654 100.97277 100.75068 103.65707 104.97557 105.72950 107.14440 107.43196 108.49457 105.14868 101.92339 97.54729 93.38222 87.65472 87.11984 81.48953 73.76100 65.87931 60.83932 49.46875 47.17592 47.24205 48.44849 45.47368 50.44593 53.54817 54.68555 51.22458 52.18715 47.12174 41.38145 42.89302 37.13904 38.60904 33.86221 32.54325 31.85206 28.19509 25.81941 25.38150 26.07270 27.75109 25.90359 26.54246 27.05592 26.71903 24.25967 26.36758 24.08840 26.80936 25.96512 24.40847 27.64545 24.96011
26.68233 26.69750 23.15937 24.33456 25.11126 25.87148 24.31461 26.76932 27.08985 23.87765 26.15784 26.84424 26.24810 24.46916 26.01224 26.39333 26.57722 26.66036 28.54066 28.44012 29.00212 30.97342 29.17486 27.50772 28.92642 29.88951 31.10936 31.98889 34.90454 37.97903 40.40536 41.28520 39.67871 40.67634 44.54501 49.44100 61.25586 64.91714 67.84571 74.41960 72.63734 75.92864 78.71322 87.01982 91.78036 87.88038 93.21831 91.33174 94.85800 101.94727 104.89978 104.96443 106.03814 106.25066 104.67565 105.61863 103.61480 99.80588 100.83121 103.17522 102.74461 102.53201 101.53467 100.81617 102.17312 101.46554 99.87896 102.73456 103.28104 101.65297 101.30936 103.36424 104.28450 104.87710 106.24292 107.50546 107.78718 105.82762 104.21267 94.87616 86.66508 85.56838 79.88722 78.90929 78.69906 67.60929 60.12034 52.17870 45.41951 41.81107 41.52327 39.62000 38.38695 40.47516 44.26764 47.02645 52.62718 53.15589 49.32726 45.60251 43.96696 39.30800 35.54874 37.27181 31.71378 32.85374 29.18843 28.16325 29.63179 29.76962 28.80744 29.62721 26.29290 25.71398 25.36488 24.60063 25.60073 25.15898 25.25003 24.02352 25.24144 25.30214 24.04081
25.61726 23.86679 26.80448 25.89004 26.74661 25.54930 24.16950 25.96839 24.58623 26.78653 23.39673 27.75623 25.91069 24.18802 27.32446 26.70874 27.26535 25.52282 26.56599 29.26169 26.56714 27.47858 28.07052 27.09556 29.82515 29.01548 32.16204 33.08305 33.52074 33.02832 35.78550 36.56078 41.15952 43.41995 47.44914 53.75764 60.02527 66.79328 70.15951 68.52658 67.13221 71.42143 78.56901 82.44935 83.57668 80.81455 79.31949 77.89634 87.72834 93.88832 100.04825 103.42980 108.47076 106.28216 106.44585 107.64236 104.72891 105.42166 105.31836 103.73971 102.55934 104.62340 105.49746 103.77252 101.79128 102.73279 106.14219 106.12122 103.98667 103.64592 103.64242 104.53274 104.52693 106.93703 108.54635 107.31957 108.19367 105.59202 101.05051 94.31301 88.41896 77.68321 74.35601 70.74586 73.42977 67.19349 61.12284 53.40451 49.89006 41.13458 39.00177 36.46419 37.15313 35.44647 37.05905 43.21660 43.90652 46.35388 48.26662 44.30004 41.63998 37.85453 36.44212 35.77752 32.76220 30.91662 30.11507 28.99906 29.11753 28.65801 27.00480 24.38056 24.09457 28.41573 23.95008 25.99403 23.74059 26.19488 25.71450 26.81953 24.78934 28.23793 25.97980
24.67272 26.41888 23.81804 25.12828 26.60976 24.45319 26.35893 26.63048 24.93211 24.99438 25.26797 26.39951 27.38738 25.30469 25.53488 24.72639 24.51395 25.03550 25.73413 26.81252 26.43201 23.83430 25.95880 26.33252 29.58144 31.38192 32.61814 33.12591 32.07578 30.05532 33.46587 36.45951 43.24274 46.71656 53.16248 56.15766 62.33399 64.27725 63.66277 60.35835 62.34855 69.98372 73.33118 79.52292 79.29682 71.07549 67.73252 70.71659 78.10170 84.07138 93.87834 100.87484 104.37025 107.63324 106.89030 108.20174 107.53095 109.21864 104.91791 103.80147 106.36966 105.62182 105.02777 104.59151 104.83442 107.58644 104.78791 106.16048 105.87708 106.37486 107.42814 108.58494 105.87658 106.41887 105.05202 108.80460 104.79269 101.04130 91.96975 88.03378 87.15649 75.71733 63.63069 65.65385 68.32940 68.61076 62.82692 62.12857 51.85731 47.94011 46.43250 39.22569 33.59902 31.49893 32.81976 35.48563 39.36662 43.69278 44.18432 43.60684 39.26761 33.77273 31.62915 31.82410 31.02213 27.90589 29.25256 27.57676 26.91276 27.06756 28.19121 27.81813 28.32049 24.08700 24.44779 26.43850 27.04582 24.67723 22.56875 24.68628 24.62823 25.52540 25.92266
24.46422 25.77398 25.68724 25.55648 26.37095 26.29687 25.01467 26.11650 24.77853 25.21220 25.37458 25.89980 27.17931 26.06667 26.57527 26.20210 24.07982 26.23957 25.76861 26.14677 27.91758 27.02943 28.57358 28.85985 26.68659 30.26013 30.72650 28.46499 30.98305 32.75668 37.33723 39.59685 44.04603 49.45241 54.31259 60.64723 58.60940 59.21381 55.56723 53.66016 58.97627 69.31352 71.35398 72.38056 71.56994 62.27219 59.73577 59.51910 68.68894 74.76745 91.54500 97.93740 101.60267 104.27432 108.30618 110.41577 108.66358 109.46954 108.66074 106.93274 106.86855 108.07275 107.80664 107.61936 107.69703 107.71761 106.68791 106.95733 106.51177 105.46098 104.94095 106.17015 105.61034 103.55937 96.75699 101.72781 103.83129 97.10175 94.44658 84.05890 78.35357 74.15741 57.82481 59.58271 59.61522 61.89144 65.48120 59.92960 55.86461 53.27376 45.08095 37.55723 36.00852 32.27494 31.23359 31.11278 37.75728 38.20024 41.93476 41.11663 37.65593 34.14006 29.15220 26.36818 28.63171 27.55349 28.64894 26.39804 25.63087 27.19235 26.36597 25.36688 26.89437 24.12038 26.83749 24.49291 24.76794 21.49310 25.28317 26.09903 24.60480 24.63403 24.63344
25.40578 24.89424 27.13445 25.36909 22.78713 26.54242 25.03692 26.81435 26.82646 25.16018 24.04632 25.61375 24.00136 26.07161 26.12415 25.90685 26.09690 26.19539 25.03352 24.28276 26.44865 29.25951 27.47048 27.92839 28.80352 27.43702 26.44276 27.98794 26.95256 34.99774 36.76186 40.58858 46.59357 52.17725 54.46596 54.31764 52.18744 49.76396 48.12705 55.43000 59.44323 69.72868 67.39640 65.22405 60.11023 55.43436 50.92835 58.44048 66.14721 82.71471 87.88363 94.88149 98.89091 99.35769 105.08404 104.25855 105.48739 106.88466 105.13943 108.98451 105.71516 107.71667 105.28569 105.16742 105.22079 105.91163 104.62514 103.55842 101.34376 105.15264 95.49739 95.92782 94.75572 98.14696 95.33838 92.42647 91.52203 92.16318 88.29620 79.52129 75.41218 70.10787 59.31376 51.34705 55.45432 57.37017 58.99860 58.39196 55.91054 50.40406 43.82355 41.91129 37.15560 29.67555 27.59408 31.23536 34.33151 34.49946 37.46667 38.15206 38.37798 34.91541 33.25753 29.66226 26.98268 27.52350 27.24948 25.02083 23.29782 25.39197 26.70234 25.85219 26.10140 26.25452 26.06988 25.47097 24.79560 24.62074 27.09980 24.58453 23.71377 25.36813 25.01867
24.42634 24.91781 26.46984 23.85818 25.74137 24.51117 27.52361 26.10268 26.15191 24.53860 23.48788 24.75482 24.19747 24.73454 28.85359 28.36568 25.32515 24.83387 26.40813 26.46401 26.33504 28.27581 28.20964 28.12984 27.86993 26.14623 27.69135 28.59771 30.01270 32.33408 38.28350 40.56202 50.33532 53.09148 52.97533 46.96475 44.35686 43.14815 44.92309 54.05455 59.74075 63.68092 59.62535 58.06739 52.35107 50.86150 50.19978 61.45533 71.88696 78.47649 89.24461 93.65242 90.75525 95.43911 97.99030 100.37261 101.64219 104.15951 103.56024 104.61387 105.37191 102.29441 98.66261 100.22676 97.28564 102.87993 102.35602 99.22682 93.38432 91.58257 92.20301 93.19971 85.71162 85.41337 85.44536 83.60873 87.46680 90.75505 87.14749 76.83680 73.11533 61.74471 61.43645 52.05555 48.47006 50.05547 51.43158 49.43186 50.50225 48.29354 46.66058 44.57746 38.68289 31.32572 31.55953 27.34957 28.69008 30.66825 34.42493 35.82871 37.82763 35.46617 34.30481 33.58502 31.18853 30.17527 26.67815 24.96107 26.85743 25.97825 26.54978 24.91202 23.51785 22.77929 27.25589 26.18069 27.33522 24.64169 26.12999 24.85808 24.64208 24.32959 29.22529
25.22738 25.57422 23.42393 25.31680 25.15242 25.68207 25.56664 25.57019 25.30115 25.28660 25.76728 25.81083 26.56192 24.95378 24.97853 25.68283 25.74469 28.88224 27.51204 27.09066 26.70674 24.72135 24.96165 26.00759 26.92040 28.40953 28.93805 32.66889 31.15278 38.72540 38.68153 42.64642 44.92022 45.24275 45.56729 41.80043 39.01011 42.18844 48.22646 52.12114 57.31840 58.24820 54.79927 51.63989 47.61444 42.42477 45.42142 60.77379 73.76816 73.97530 83.31124 83.29167 86.57509 84.70396 87.74673 93.22829 97.62348 94.92289 95.99052 99.28736 97.38471 93.87342 91.30890 88.86587 91.55819 93.63887 98.99254 88.58463 88.82577 82.59771 82.98518 76.61925 78.13177 76.94341 80.48244 74.78471 75.16176 79.75586 82.24638 74.29695 67.93446 60.52860 57.97287 53.97045 48.91108 44.67807 40.34990 43.54692 41.80805 42.91680 44.00678 42.72867 40.11130 34.19872 32.19775 26.84441 27.23835 28.26743 27.74329 30.34108 34.22589 33.56633 34.89232 31.61105 32.50677 28.28365 27.20444 26.51836 27.55846 25.08133 26.08129 23.67937 22.41379 25.87116 23.23398 24.80839 23.66143 24.82111 24.35192 25.51226 26.36203 27.22786 28.21477
24.92493 26.07111 23.59065 24.51269 23.83638 24.72793 25.45904 27.12926 23.83553 26.56091 24.71118 24.38139 26.36595 27.11506 25.63379 25.96070 26.61592 27.28290 26.03277 26.97762 26.00844 26.16485 25.66342 26.04733 27.03639 30.05787 33.09416 33.98998 34.72311 35.57961 37.99916 39.39073 40.18585 40.93055 36.58335 34.85002 35.02713 38.86603 45.21954 53.46330 51.03185 53.08939 48.33377 47.89809 40.74830 41.67962 49.00105 55.63804 67.05198 74.04117 74.69587 77.03206 72.05696 75.81654 83.29197 89.35574 91.01344 91.53433 92.56967 93.93946 96.54776 85.91924 81.97795 79.74746 90.31086 86.56625 83.63329 80.53360 78.50550 73.96420 70.65361 63.40253 64.71894 63.38819 69.83922 69.48319 68.91976 73.04681 77.22491 74.47852 72.96495 57.67164 57.15163 51.32316 51.88660 46.59874 41.71882 37.58589 36.55569 38.74377 39.50169 40.75445 38.98923 35.50135 34.69301 29.75962 27.37751 28.92308 29.26658 30.56222 31.24939 33.18859 32.53145 30.29043 30.09740 30.19104 27.65462 26.59513 26.40257 25.51848 25.37921 24.82621 26.28595 27.38203 26.60944 24.50262 27.40645 26.18428 25.49757 25.72477 24.23970 26.19887 27.33348
26.10835 26.94509 25.81444 24.80350 27.25119 27.12952 23.86463 26.87951 24.37689 27.91609 23.31433 27.19661 24.55733 27.33102 27.51131 24.94696 25.00280 25.38239 24.26462 25.14872 26.14523 23.62744 25.31362 28.06617 28.35435 31.49650 33.10706 34.74176 35.37813 37.11782 37.13354 35.39847 35.78118 35.05831 34.82282 32.92682 37.93716 45.01612 48.52414 49.60677 48.25193 42.54998 40.92097 45.49128 41.59694 42.20453 50.68289 55.15113 63.47539 70.70877 73.08320 68.34217 64.98896 66.92965 84.35926 82.72157 84.27012 80.59116 79.95708 81.52365 89.42692 82.61066 73.55145 71.32123 70.60089 79.65289 83.55960 69.44384 66.10833 63.71163 59.60740 57.11528 57.09258 57.69405 61.45282 59.77230 59.54379 67.04222 73.34461 72.18107 69.32055 55.87836 51.55218 50.76081 48.65498 50.16564 48.00189 41.02037 37.73530 34.42770 36.18102 34.71567 35.44696 35.05578 32.73377 31.75492 28.78008 26.90119 25.22786 27.03354 29.79681 29.29743 28.85387 29.10951 29.79755 28.97174 28.26754 26.10380 24.89649 24.82599 24.53863 25.73179 25.44039 25.49377 26.18883 26.76441 25.76983 26.00037 25.49694 25.46048 27.73477 23.23619 24.44844
27.78456 26.34774 25.55351 23.61666 26.95433 25.88157 24.97560 26.38769 26.27405 23.90433 25.47419 25.92919 26.61854 26.97039 26.66199 27.61676 25.11040 25.95881 23.95133 22.32088 27.99742 25.15363 24.67899 27.80006 28.71933 31.18133 30.49350 30.98074 33.48273 37.19334 36.20977 31.71779 32.03472 30.68754 33.44011 35.29211 39.53069 44.04949 44.56016 47.27454 40.55191 36.17638 39.00076 35.33275 39.03571 45.09218 53.75570 58.89464 64.68419 68.51197 66.20780 59.99163 59.91169 63.99832 74.91436 78.10087 79.14969 73.92103 74.92028 79.99628 83.37067 80.23502 72.86744 64.92076 65.02582 74.24324 76.59036 72.71094 56.33304 55.62553 49.79531 46.06875 47.22638 47.60464 50.54154 53.50161 53.31348 58.81513 66.85326 69.08051 65.05639 60.11980 52.74995 40.63822 43.21447 46.50766 43.35144 42.20847 37.80090 33.68815 31.10553 34.33080 31.70196 32.78458 33.96681 32.88250 32.14394 27.24747 25.07265 26.86352 27.52363 27.64293 27.41293 28.51043 27.43388 28.99315 27.74770 25.63919 27.17387 26.57187 26.57490 24.20568 27.88828 24.52658 24.91144 24.89840 25.67148 27.64867 25.30745 23.56568 25.04736 25.78482 26.03982
27.30832 24.35680 25.09631 24.51973 24.30627 25.77288 26.52825 23.63372 25.08340 24.01590 24.55604 24.91082 24.12386 27.65444 24.04690 26.26639 28.11600 27.12112 22.51010 24.51197 27.14153 27.75382 26.21094 27.63180 28.64900 28.93773 30.81095 27.06247 33.75650 32.69347 31.79464 31.16856 29.57309 31.38212 29.67570 36.14195 43.22262 43.46426 42.52717 40.11660 37.97259 33.76309 33.33024 36.37371 44.58550 50.31576 57.32250 58.04878 59.13574 59.91482 58.57596 59.25214 55.72476 64.31485 70.13326 72.78927 68.75395 66.64006 66.79442 74.82638 76.78638 72.37153 67.32002 59.62267 57.26626 70.27482 74.35009 69.95374 62.74189 53.50788 42.92259 40.53389 41.36302 44.26438 47.21501 47.46119 49.69426 52.14026 59.52845 65.88264 67.09246 58.94978 53.45311 45.62198 36.52213 37.52628 40.62956 44.57749 40.02512 36.34655 31.84493 29.63826 28.98197 29.38677 34.34162 29.60829 30.56198 26.49092 28.08019 27.87685 25.44065 24.59214 26.95083 28.21779 28.05215 29.21148 28.50319 28.51618 22.52514 23.84276 26.79064 24.26435 23.55290 25.45977 23.30227 24.75643 25.78527 23.13186 27.35412 26.27197 24.46396 24.74644 24.85413
25.87199 25.13856 24.97574 26.32320 23.68603 24.13691 25.84857 22.69824 23.02992 25.88417 25.86758 26.61005 24.19022 26.67333 25.36245 26.43580 24.11834 26.82794 26.84517 22.52857 26.51905 25.51591 27.86451 26.81594 27.40312 25.92106 30.02494 29.11848 32.05555 32.18726 31.62233 29.13481 29.47226 31.90568 35.51582 37.44116 40.72390 45.25600 38.06672 35.84948 35.18850 31.48775 32.75202 41.48585 45.25823 53.69441 53.98433 55.63457 50.20949 53.73808 51.95664 49.10063 50.31833 59.12659 62.50242 66.86644 62.91177 57.78620 58.46632 65.52708 70.49434 64.30467 54.81378 53.10090 55.43514 57.15255 64.60134 68.71448 59.68687 48.29174 40.89348 40.69284 33.47976 38.77849 41.82926 36.58989 44.19025 51.36535 56.81693 63.81676 64.22815 58.08893 50.21892 46.51511 40.72218 33.58001 42.10888 41.45628 41.46753 37.60382 34.74081 32.51637 30.57661 26.54915 28.58783 30.15298 29.97681 29.21301 29.73369 25.54673 26.37379 24.86755 25.91630 27.70386 26.69069 25.36200 26.20941 27.07764 23.91098 25.51818 25.53205 23.41942 24.31666 25.40680 24.40278 22.81925 25.62489 25.95031 22.85069 27.12657 25.81767 25.80370 26.50525
26.42021 25.52369 27.08668 25.05725 23.48243 23.99934 25.25826 24.56326 26.31109 23.93743 22.96368 25.17526 27.62235 25.47325 26.38358 22.38393 23.36401 24.61219 25.71143 25.39207 22.75175 24.79723 26.16326 27.21709 25.66949 26.44486 29.27692 28.71087 30.86564 30.42280 29.30414 30.45712 29.30528 30.72617 33.80997 34.40266 42.19005 37.07321 35.91644 29.72293 28.84148 31.82209 33.37789 40.32260 49.32423 53.28703 49.49641 47.34396 43.77116 42.62017 40.45302 48.40832 48.57746 55.29301 63.18135 64.34374 60.32277 56.86167 56.66353 61.45666 68.10952 61.48206 54.47081 45.59974 48.67706 52.86402 62.20249 66.31094 60.92725 52.35431 45.15478 39.80515 34.17928 36.35234 37.79471 37.08824 41.94162 45.99609 54.80668 62.98959 65.77026 63.45468 53.51441 43.00422 37.94141 32.65574 36.98490 36.78501 41.87734 38.82561 36.31419 32.99569 31.60902 29.92992 27.40452 27.48457 29.60558 27.48189 28.83928 28.77202 25.07906 25.53473 25.49542 24.71387 24.36936 25.44751 28.20430 26.03025 25.85231 24.13066 23.79794 26.43034 25.24265 22.60057 26.50908 25.16928 24.70509 23.63722 24.68283 27.20200 25.12976 26.43112 24.75718
26.46912 26.31813 24.09096 24.62008 25.58668 23.97368 25.76533 26.36117 25.21126 25.91027 25.87074 24.18236 24.14629 25.56334 26.51058 24.75370 24.30293 25.50710 24.05065 27.70418 24.89622 25.25050 26.67494 24.72324 26.92036 25.96071 29.18844 27.68824 27.61085 27.33908 28.13515 28.98527 30.30704 29.96736 33.89156 37.51718 37.51556 32.10979 32.42572 27.87457 28.32738 28.24834 33.57772 41.86961 47.31535 46.43484 44.30401 36.90152 36.31436 43.11848 37.77548 42.36478 44.15964 54.16498 58.91962 58.48904 56.89489 49.09836 57.57315 60.53754 61.29791 59.33707 54.61361 46.75663 43.54186 51.49774 57.38242 63.00137 59.20905 51.15935 45.40911 38.12818 36.75233 34.21576 31.83507 36.98500 38.93163 45.96449 53.72406 58.90323 61.31571 57.28292 52.07178 45.37905 37.78788 32.01819 30.22704 35.31820 38.08927 38.84314 38.44063 35.43714 32.55667 30.84367 27.59991 28.73119 27.56935 27.56516 27.89703 26.77929 27.38919 27.52718 23.78063 26.83485 26.24103 23.63931 25.82130 25.86781 24.95455 25.01034 26.02585 27.32484 24.05783 26.99050 25.33214 27.91139 24.62407 25.63281 25.16772 26.24320 24.97039 27.56739 25.85852
26.95901 24.46243 25.52045 22.96759 25.02900 26.72211 25.75491 25.42463 26.57676 26.59161 24.47712 25.90226 25.27797 22.40875 26.05073 25.28300 26.85557 25.80710 23.72628 24.10641 26.70033 25.80553 27.45991 24.68339 25.76223 29.57156 29.14760 28.27420 28.59035 28.43387 24.10125 27.07596 28.92762 31.30722 32.87116 34.24902 34.38014 33.54585 26.99514 29.98090 30.77081 32.51075 36.23515 40.27756 47.31446 44.53210 40.42439 38.43946 33.65001 32.15283 34.94672 38.82290 44.36601 53.01628 60.68575 54.91822 49.29775 44.77270 53.03660 55.71133 57.05003 52.73646 47.71010 41.55761 36.90290 43.42069 58.96254 62.78236 56.96901 54.64638 45.67829 38.31241 34.93003 31.27913 31.88031 34.88116 42.83226 44.88236 51.76991 53.30683 57.32909 53.76322 53.24723 46.24111 39.35624 32.30841 29.16946 31.29997 31.71342 32.64633 34.21575 37.83363 30.91996 29.88734 26.39013 27.23017 26.03021 27.30424 28.02912 27.39642 26.75996 26.14426 27.07305 26.33539 25.12279 23.77782 26.12533 25.06809 24.44398 24.72036 26.85941 25.30401 25.81451 24.84831 24.01900 26.20139 26.16014 24.89720 23.48308 26.28832 25.53394 27.76428 26.63521
24.32661 24.05294 24.49965 26.00926 25.24689 26.30309 24.19361 28.68745 26.70939 25.17425 24.71723 23.39041 25.43081 24.92314 25.56875 25.34626 25.10681 26.45515 23.13879 26.56916 22.72975 24.39980 24.34913 26.65106 26.26175 28.27195 28.53214 27.55869 26.42126 25.79382 24.15067 26.85427 31.75247 30.51898 34.46403 31.09837 30.36006 30.11763 26.06075 26.24189 31.38003 37.23712 38.08314 42.22460 42.53677 42.12143 37.03087 34.62152 31.33338 30.82065 33.28503 35.15493 39.73369 51.24945 54.41568 52.71666 45.60047 40.75261 43.87879 48.91921 51.17165 46.09795 42.76053 38.77656 37.30894 39.14479 47.10849 54.39583 60.96997 51.36116 47.62769 39.43663 33.57186 30.19909 32.24409 37.51996 38.41192 45.74654 48.66368 50.48492 50.74946 51.51538 48.45752 40.44860 36.66188 32.33687 28.93369 29.70458 30.36078 31.52637 31.13464 36.44350 32.74617 30.64528 29.12769 27.31643 25.18381 25.56621 26.22570 26.95134 28.38321 27.61199 25.35961 26.51010 24.29272 25.11694 26.51468 26.26082 23.95794 25.01732 23.86628 22.65913 26.63218 25.22943 24.27957 27.22288 24.56414 24.50575 26.90300 23.89644 26.07665 25.20461 24.16434
24.73917 25.46179 24.89637 26.47714 24.78947 26.51736 27.14728 24.99525 25.27960 24.78837 23.74427 23.74573 26.89392 24.40310 25.80250 23.51025 26.31029 23.31645 25.46302 25.74615 25.45744 26.23354 25.48031 25.05692 26.86518 26.22647 25.27876 26.05445 25.60789 26.45510 27.02258 28.43217 26.20772 29.22485 31.48501 29.49599 28.95416 27.61025 26.89538 27.72990 28.74297 35.30329 39.47928 42.52354 41.42229 38.73115 32.99415 31.87347 30.45049 28.91122 35.57306 39.09772 42.92863 49.23217 51.41807 51.70735 46.98984 38.65417 42.24009 48.99819 49.76383 45.58542 41.64645 34.89599 35.88968 36.95751 49.28177 51.85545 55.08190 51.57100 45.29665 36.15457 31.85000 28.52332 31.30666 34.26466 36.23854 42.98049 45.39221 47.07871 47.07800 52.03099 48.98593 42.66733 37.11504 31.39947 27.79634 26.87645 29.66736 27.36055 30.32853 34.25175 32.44422 30.17309 29.45526 28.12033 23.98439 25.40666 25.68403 26.39784 27.92306 26.81591 27.18002 25.98260 28.79943 25.27645 26.83430 26.48311 28.17044 26.01910 26.62872 26.07449 25.98075 24.61182 26.33202 25.85456 26.23841 26.84688 25.47431 26.22003 26.99152 25.75365 25.11514
24.73075 25.54386 26.61912 26.08156 23.99475 27.54910 26.58817 26.44136 27.20536 25.45288 24.73181 25.24571 26.06663 24.67249 24.55789 23.24229 24.12435 24.07810 24.75554 24.83313 26.00208 25.46809 25.27067 24.49226 28.94545 29.42460 23.60191 25.37187 26.96592 26.87805 26.40915 28.91519 28.52281 29.06757 28.19589 29.51066 28.59798 27.85594 26.39247 28.20569 32.29792 36.50061 39.89800 40.47530 37.56543 35.79656 32.25063 28.45290 28.96484 31.16444 33.37193 37.38623 42.23178 45.88019 47.61349 48.44643 41.30123 38.50275 41.53436 48.44426 45.29368 39.27903 36.01570 29.81006 32.47465 36.84894 45.55149 51.77666 54.63747 51.37201 42.61991 38.23053 32.26346 25.55031 33.33457 29.94951 35.51034 37.76125 41.63005 39.12140 44.55614 43.43157 44.56801 41.01592 34.88502 32.97760 29.36648 25.86849 25.76168 28.49258 28.12067 29.57987 31.44052 31.11837 27.39449 28.19251 25.33829 27.75355 24.85493 28.12683 26.61539 26.83587 26.75309 28.01142 24.76495 23.76047 26.88918 27.57805 25.44882 25.22284 28.34937 25.01030 25.86210 24.55733 26.38465 25.84592 25.46318 24.10364 24.55185 26.81158 24.72606 24.27898 26.11110
23.94960 27.74118 24.61709 25.25289 24.40869 23.81875 27.45854 24.80371 24.45177 25.51546 26.67260 23.84434 25.13220 21.02542 24.20932 26.18631 24.95718 26.81471 26.07552 25.72226 25.05899 26.59418 23.45402 25.59699 25.82832 24.57098 23.46992 26.23694 25.87199 27.00476 24.74342 27.70753 28.02637 28.18216 26.76396 26.05422 24.64707 26.18692 27.92169 29.74335 33.83763 35.11918 38.75738 36.06687 33.24947 31.33329 30.01509 29.52798 26.28454 25.52908 39.09894 38.57798 39.74522 44.35027 47.32774 41.68379 33.22935 32.74489 39.63019 42.45948 44.38523 39.52802 32.70177 31.94237 30.22437 37.93269 43.48032 49.37733 49.77881 47.73043 44.71578 38.53793 32.50063 28.51014 27.57577 27.87643 31.23056 37.41455 39.41329 39.73394 41.03863 41.91596 41.85040 38.46912 34.02573 31.26355 29.03869 28.62642 23.24362 27.24510 28.95141 28.92425 29.71701 29.00096 29.45981 24.04053 27.16392 25.87978 26.12804 25.90663 25.46922 26.38544 27.44251 24.86732 23.89533 26.69946 22.14724 26.12711 25.64129 23.66048 26.02260 22.99855 24.28683 26.87157 26.70117 25.25865 26.49935 24.67452 23.96584 26.98602 25.10115 25.22196 26.57824
