308.23 315.47 324.51 93.57 98.39 44.29 20.41 0.44 -2.72 -3.02 0.81 -8.97 -21.78 -99.57 -93.37 -86.55 -90.91 -95.55 -115.73 -129.51 -160.33 -157.76 -153.83 -156.68 -159.86 -159.14 -160.33 -153.31 -140.04 -135.14 -126.16 -138.51 -148.74 -157.05 -163.38 -169.47 -169.27 -172.49 -166.75 -186.21 -183.93 -188.25 -191.19 -184.87 -179.46 -178.44 -188.96 -188.13 -193.55 -184.55 -190.20 -194.34 -375.15 -381.18 -375.69 -369.53 -373.21 -373.68 -376.23 -381.25 -413.00 -441.21 -445.89 -455.02 -444.80 -294.60 -288.06 -309.84 -289.77 -339.00 -388.42 -466.56 -506.81 -534.65 -538.40 -612.16 -634.83 -662.81 -687.20 -707.34 -831.22 -852.59 -885.71 -857.74 -797.56 -781.09 -815.10 -917.55 -1219.09 -1312.41 -1281.55 -1433.27 -1461.32 -1495.05 -1512.06 -1528.16 -1535.24 -1545.75 -1565.61 -1612.42 -1671.09 -1700.94 -1739.72 -1786.27 -1778.46 -1783.32 -1818.08 -1820.02 -1840.54 -1861.74 -1878.38 -1883.22 -1894.52 -1914.47 -1933.04 -1942.75 -1976.09 -1980.62 -2046.24 -2102.51 -2378.82 -2436.15 -2472.38 -2525.82 -2554.00 -2563.40 -2588.67 -2585.42 -2606.64 -2611.47 -2626.37 -2632.22 -2665.44 -2688.17 -2706.68 -2700.99
334.53 334.75 245.91 120.40 64.68 49.53 3.95 6.56 -2.09 -7.83 -9.54 -15.42 -22.39 -90.70 -79.61 -85.38 -91.83 -103.37 -117.34 -139.60 -147.31 -153.40 -155.88 -144.74 -151.48 -157.58 -157.37 -145.62 -137.87 -130.89 -132.01 -151.49 -153.48 -157.69 -167.13 -173.30 -170.68 -163.93 -165.88 -184.73 -180.88 -185.76 -183.45 -179.00 -176.82 -173.25 -182.66 -188.70 -183.23 -193.98 -190.43 -200.28 -381.79 -384.10 -375.04 -370.02 -374.46 -377.04 -378.58 -374.26 -401.47 -437.05 -431.24 -438.18 -408.80 -266.71 -243.21 -256.15 -254.96 -283.58 -306.74 -390.61 -455.18 -482.15 -519.61 -515.88 -526.50 -573.17 -649.67 -636.33 -684.23 -744.75 -689.60 -675.40 -663.82 -676.41 -692.75 -849.66 -916.59 -1054.99 -1162.03 -1133.94 -1227.82 -1362.84 -1485.42 -1490.04 -1516.80 -1542.25 -1568.05 -1616.72 -1632.64 -1672.48 -1730.04 -1746.30 -1752.69 -1767.05 -1790.95 -1800.61 -1832.19 -1840.12 -1872.14 -1879.02 -1899.35 -1899.02 -1917.39 -1936.92 -1938.28 -1954.99 -2013.79 -2052.35 -2361.02 -2359.74 -2462.94 -2477.92 -2477.63 -2550.49 -2560.66 -2560.69 -2560.57 -2602.70 -2588.80 -2616.53 -2634.61 -2671.67 -2674.79 -2671.75
340.98 350.76 247.84 122.90 58.50 14.62 2.73 -0.29 -4.79 -16.09 -20.36 -19.11 -15.53 -89.54 -76.93 -76.74 -93.42 -112.52 -129.52 -147.35 -147.94 -150.75 -150.80 -143.22 -153.17 -156.04 -147.92 -132.15 -127.99 -120.19 -126.36 -151.20 -160.87 -168.21 -160.31 -155.21 -143.17 -156.21 -150.13 -173.51 -171.71 -182.44 -178.45 -178.20 -173.76 -180.59 -195.98 -192.85 -192.25 -193.03 -195.12 -202.43 -376.90 -381.88 -377.22 -362.10 -370.34 -370.34 -373.19 -375.13 -396.27 -406.55 -408.50 -396.69 -379.40 -228.71 -228.79 -231.25 -223.28 -259.98 -296.44 -335.42 -380.62 -402.10 -419.35 -461.36 -465.04 -494.24 -573.09 -556.25 -615.90 -619.42 -639.72 -624.63 -626.64 -582.91 -631.01 -679.71 -735.47 -758.91 -844.63 -1031.08 -1140.42 -1333.40 -1406.99 -1482.50 -1506.44 -1529.99 -1552.48 -1602.49 -1623.86 -1652.76 -1701.29 -1725.92 -1724.59 -1759.47 -1775.56 -1794.76 -1815.52 -1833.74 -1869.33 -1880.15 -1889.16 -1891.45 -1900.81 -1911.57 -1924.01 -1921.52 -1977.74 -2031.93 -2339.76 -2357.52 -2425.67 -2439.14 -2438.80 -2441.62 -2497.38 -2505.08 -2538.83 -2543.25 -2572.17 -2593.29 -2607.67 -2644.72 -2644.04 -2644.55
346.86 347.68 259.28 119.01 40.05 17.69 8.97 -8.47 -11.49 -10.74 -20.49 -9.68 5.85 -76.73 -80.77 -77.76 -100.05 -122.69 -143.49 -151.34 -142.43 -141.48 -128.54 -142.56 -145.51 -139.57 -144.89 -133.76 -128.97 -129.18 -135.74 -151.89 -155.03 -160.66 -150.55 -141.98 -143.71 -147.91 -150.65 -170.21 -165.87 -166.40 -169.82 -177.18 -176.55 -181.42 -187.81 -200.68 -192.80 -201.94 -200.02 -197.34 -374.65 -376.54 -377.89 -365.82 -369.49 -374.16 -371.68 -371.88 -376.07 -372.07 -379.48 -373.49 -379.28 -232.94 -231.03 -236.10 -226.82 -246.29 -261.96 -296.62 -333.35 -385.12 -397.95 -417.82 -437.53 -468.13 -531.38 -541.74 -537.53 -585.20 -549.17 -551.66 -528.90 -549.68 -543.56 -543.88 -595.75 -663.08 -733.29 -899.76 -1009.21 -1121.84 -1187.48 -1310.61 -1487.95 -1529.69 -1542.26 -1577.20 -1611.04 -1646.76 -1682.62 -1707.68 -1695.68 -1738.52 -1778.69 -1783.13 -1808.44 -1837.49 -1867.86 -1873.34 -1884.98 -1893.90 -1893.97 -1901.63 -1923.77 -1908.94 -1952.36 -2004.10 -2278.19 -2330.17 -2387.41 -2429.93 -2410.34 -2403.59 -2430.96 -2484.00 -2498.36 -2535.29 -2537.08 -2539.90 -2550.83 -2568.95 -2607.19 -2608.07
350.27 352.81 261.20 85.69 34.15 11.29 -3.24 -8.67 -5.37 -4.51 -7.53 9.28 7.60 -66.27 -83.57 -94.44 -104.82 -136.18 -145.07 -150.18 -141.19 -109.02 -124.57 -127.03 -131.14 -121.18 -125.68 -126.12 -124.53 -122.45 -138.33 -140.66 -149.79 -149.26 -139.68 -134.65 -129.89 -137.58 -137.24 -158.23 -167.18 -155.97 -169.36 -168.72 -173.29 -180.43 -189.19 -190.52 -191.87 -197.69 -193.40 -196.43 -369.17 -375.96 -367.04 -367.59 -361.10 -375.81 -377.23 -376.37 -379.77 -377.90 -379.34 -383.34 -379.21 -222.46 -231.60 -226.07 -223.94 -244.66 -270.68 -291.48 -312.37 -349.68 -355.35 -408.80 -412.91 -426.56 -478.28 -495.34 -513.39 -504.74 -507.86 -501.94 -510.32 -492.35 -493.15 -485.05 -543.93 -580.21 -702.73 -807.70 -784.32 -872.38 -947.67 -1211.56 -1464.13 -1487.38 -1530.55 -1580.06 -1599.42 -1623.98 -1679.91 -1722.75 -1695.75 -1732.33 -1772.11 -1789.07 -1808.04 -1843.19 -1863.78 -1868.07 -1881.37 -1886.36 -1890.94 -1896.07 -1902.62 -1899.70 -1938.15 -1952.63 -2250.17 -2274.30 -2307.44 -2374.10 -2398.47 -2401.29 -2420.31 -2429.14 -2475.85 -2473.49 -2483.04 -2507.86 -2509.96 -2567.80 -2569.11 -2563.75
365.20 364.96 258.44 105.20 60.94 21.65 -1.10 -4.46 2.65 11.71 5.07 11.70 24.80 -60.57 -82.07 -103.79 -125.74 -141.74 -130.23 -139.31 -118.18 -99.93 -101.79 -119.76 -122.68 -103.67 -106.15 -109.34 -113.56 -115.82 -116.69 -130.07 -135.29 -136.80 -128.14 -128.59 -132.90 -131.75 -146.59 -162.42 -165.66 -162.69 -170.62 -169.31 -174.37 -185.97 -189.13 -193.63 -201.97 -197.46 -197.03 -186.80 -374.57 -370.42 -368.93 -365.52 -373.77 -374.98 -372.18 -372.16 -378.49 -373.93 -376.92 -375.17 -382.29 -229.36 -227.25 -231.31 -232.95 -233.39 -251.77 -257.28 -267.78 -309.28 -305.16 -310.75 -354.78 -363.15 -441.57 -438.72 -461.30 -472.54 -457.11 -468.78 -482.55 -464.36 -457.81 -442.23 -446.98 -544.01 -621.05 -622.92 -676.02 -702.98 -858.07 -1043.33 -1304.58 -1432.68 -1462.74 -1582.65 -1600.23 -1613.49 -1650.75 -1709.38 -1719.18 -1736.49 -1775.04 -1794.50 -1819.99 -1848.57 -1861.53 -1873.57 -1881.75 -1890.68 -1884.31 -1898.02 -1904.74 -1900.49 -1929.89 -1956.11 -2240.39 -2247.09 -2259.36 -2305.84 -2329.66 -2339.67 -2350.24 -2377.75 -2407.64 -2420.56 -2428.54 -2456.16 -2496.26 -2518.10 -2530.24 -2528.08
369.71 371.66 254.21 142.79 71.25 30.83 1.98 -1.17 17.45 35.52 40.52 35.02 28.85 -52.64 -78.40 -99.87 -116.14 -131.93 -128.74 -107.03 -82.69 -84.07 -87.96 -110.90 -109.09 -100.66 -101.18 -97.11 -109.90 -110.63 -119.70 -121.13 -128.97 -133.97 -123.50 -134.89 -145.78 -144.56 -155.28 -174.45 -174.24 -168.79 -169.90 -179.81 -179.18 -197.28 -179.23 -199.78 -200.87 -192.25 -195.38 -196.36 -366.77 -365.19 -368.25 -366.10 -368.50 -369.92 -372.18 -380.30 -374.93 -379.95 -373.68 -376.73 -379.18 -234.60 -227.26 -229.27 -223.46 -232.64 -226.97 -235.84 -247.36 -259.29 -264.17 -286.94 -321.69 -353.27 -395.15 -412.07 -435.29 -422.60 -437.06 -430.08 -432.87 -441.43 -430.37 -426.19 -421.04 -415.62 -479.06 -490.13 -574.54 -608.86 -742.00 -998.17 -1242.32 -1290.15 -1443.64 -1527.50 -1593.93 -1602.85 -1645.25 -1702.81 -1730.80 -1743.77 -1773.59 -1829.32 -1848.09 -1870.60 -1871.25 -1881.72 -1884.95 -1888.08 -1894.70 -1904.67 -1915.54 -1904.71 -1930.19 -1953.85 -2225.63 -2241.37 -2255.52 -2271.66 -2284.09 -2300.50 -2307.87 -2347.66 -2363.24 -2380.80 -2408.30 -2428.16 -2438.63 -2492.01 -2495.70 -2494.99
349.23 349.12 373.88 86.19 60.64 26.32 21.66 26.55 66.98 53.19 47.26 54.93 34.88 -62.42 -73.40 -87.75 -105.33 -129.00 -132.13 -110.11 -79.00 -70.69 -92.26 -114.45 -105.18 -103.24 -89.61 -97.89 -92.77 -106.32 -121.75 -124.43 -127.02 -133.41 -135.96 -142.74 -159.11 -160.63 -164.17 -191.40 -187.70 -179.51 -178.36 -181.67 -191.78 -196.01 -197.31 -189.60 -196.88 -187.92 -188.24 -182.60 -371.70 -356.11 -369.30 -373.57 -369.95 -377.28 -374.27 -377.30 -376.63 -372.40 -381.59 -384.18 -377.87 -227.45 -230.32 -224.84 -227.64 -229.55 -227.99 -225.79 -241.71 -238.36 -262.54 -270.52 -292.04 -313.09 -374.70 -384.91 -374.65 -373.10 -386.81 -411.12 -394.71 -413.74 -410.14 -392.16 -380.38 -392.89 -376.00 -335.72 -383.18 -499.31 -642.44 -922.77 -1206.78 -1385.60 -1470.53 -1538.44 -1557.28 -1607.22 -1643.84 -1696.61 -1717.71 -1757.12 -1780.50 -1842.31 -1868.79 -1879.30 -1881.58 -1886.59 -1887.13 -1895.64 -1910.67 -1906.35 -1922.44 -1909.22 -1930.55 -1951.78 -2211.18 -2222.42 -2243.38 -2262.30 -2263.29 -2280.92 -2294.08 -2295.74 -2339.52 -2361.69 -2387.24 -2378.43 -2417.22 -2424.89 -2462.62 -2466.65
404.65 405.37 288.90 135.63 57.51 34.41 30.52 64.61 73.09 84.37 57.28 43.00 17.23 64.04 47.67 51.03 28.81 17.03 12.81 40.07 67.11 73.09 69.84 46.75 52.96 68.32 -87.88 -87.45 -100.22 -109.56 -116.43 -136.00 -144.60 -146.72 -151.22 -151.87 -160.07 -164.41 -163.47 -160.84 -174.68 -159.28 -170.00 -171.99 -174.78 -174.91 -170.63 -178.05 -163.58 -159.67 -157.48 -165.97 -181.95 -176.53 -190.18 -185.10 -195.58 -191.93 -190.37 -194.32 -194.06 -205.04 -195.96 -195.47 -197.12 -285.49 -293.62 -288.94 -286.73 -292.52 -290.02 -289.68 -290.38 -290.32 -305.07 -322.76 -330.73 -346.83 -465.46 -481.42 -484.23 -495.10 -488.17 -477.66 -500.65 -475.03 -457.23 -478.37 -476.88 -487.27 -473.41 -306.52 -348.34 -366.18 -540.13 -718.12 -1032.36 -1242.18 -1471.17 -1504.69 -1552.08 -1602.38 -1609.87 -1727.43 -1712.63 -1764.97 -1822.69 -1861.68 -1869.06 -1882.80 -1876.71 -1889.38 -1880.40 -1893.54 -1901.25 -1909.07 -1931.11 -1924.74 -1937.61 -1948.69 -1952.90 -1966.43 -1989.64 -2003.14 -2010.89 -2007.03 -2022.46 -2033.16 -2041.52 -2073.05 -2103.37 -2123.52 -2130.51 -2177.99 -2187.34 -2183.99
382.43 379.36 283.99 169.87 114.05 34.49 46.73 60.79 84.36 69.65 49.98 25.75 14.78 59.63 52.71 41.09 19.53 19.17 24.68 38.18 60.40 70.89 64.01 54.02 62.31 72.82 -83.30 -81.42 -107.31 -112.79 -129.57 -131.04 -135.72 -142.89 -138.75 -139.34 -146.53 -150.22 -147.23 -150.74 -154.49 -155.89 -175.13 -171.34 -168.38 -172.75 -162.79 -169.96 -155.93 -159.84 -161.54 -161.31 -181.06 -183.42 -191.11 -189.27 -195.62 -197.97 -195.65 -197.95 -198.14 -198.73 -198.06 -196.62 -193.96 -295.76 -292.88 -284.95 -282.41 -286.53 -287.48 -288.35 -288.95 -291.44 -292.08 -305.31 -304.25 -327.67 -440.41 -461.24 -471.06 -473.29 -472.93 -476.64 -449.76 -448.62 -450.92 -440.77 -452.25 -460.06 -458.12 -292.50 -337.14 -376.93 -522.41 -696.12 -859.83 -896.88 -1127.32 -1377.44 -1477.70 -1481.93 -1624.61 -1703.00 -1727.17 -1771.47 -1842.45 -1884.79 -1888.21 -1894.28 -1903.07 -1909.20 -1908.14 -1901.52 -1915.00 -1919.92 -1929.52 -1940.75 -1942.23 -1953.32 -1967.12 -1974.88 -1984.34 -1992.27 -1991.67 -2000.87 -2005.65 -2024.71 -2034.68 -2036.72 -2062.27 -2087.90 -2110.92 -2165.29 -2153.45 -2155.46
601.87 604.59 489.75 231.07 221.17 99.09 49.86 56.83 98.82 82.11 71.15 29.41 35.23 95.16 92.06 60.18 49.82 27.31 25.10 50.97 57.81 91.14 78.13 64.57 70.67 77.59 -76.52 -78.37 -105.52 -103.17 -112.83 -111.07 -115.70 -124.76 -125.67 -120.03 -129.69 -137.87 -137.49 -145.54 -140.36 -156.14 -161.83 -168.69 -172.40 -166.11 -165.47 -161.65 -153.76 -150.77 -149.29 -156.76 -182.88 -185.96 -192.52 -193.39 -193.24 -187.63 -192.66 -191.65 -191.62 -189.95 -197.88 -193.61 -194.41 -288.31 -285.82 -284.91 -289.50 -284.64 -287.81 -291.25 -292.34 -285.16 -290.89 -289.79 -292.83 -307.61 -419.98 -446.43 -453.57 -454.92 -460.96 -441.45 -440.48 -441.32 -439.87 -430.14 -439.31 -437.78 -433.99 -270.30 -312.37 -326.50 -358.77 -567.05 -623.90 -730.80 -1094.43 -1086.10 -1310.59 -1464.66 -1687.17 -1730.55 -1754.97 -1809.30 -1842.89 -1886.97 -1915.35 -1923.79 -1935.58 -1921.26 -1934.40 -1929.89 -1942.60 -1941.02 -1937.58 -1944.91 -1953.66 -1975.30 -1978.89 -1979.79 -1986.66 -1988.60 -1991.48 -1997.53 -2002.37 -2017.75 -2025.41 -2036.67 -2054.73 -2069.45 -2086.75 -2123.18 -2129.99 -2137.40
731.62 734.73 547.42 355.47 237.55 153.47 102.37 154.83 117.43 151.81 134.47 104.32 92.62 113.40 97.24 77.98 53.40 25.49 26.88 48.45 82.01 94.28 91.45 80.79 74.37 83.76 -70.12 -87.19 -106.57 -105.35 -95.26 -101.37 -110.17 -115.64 -118.43 -115.08 -118.27 -127.11 -133.24 -138.82 -146.89 -156.15 -165.69 -171.86 -164.19 -157.97 -157.57 -168.19 -156.46 -148.05 -143.09 -151.37 -178.64 -185.81 -186.32 -189.68 -188.66 -187.28 -190.28 -189.21 -185.15 -192.84 -189.83 -190.65 -190.99 -288.15 -284.01 -282.59 -285.01 -288.52 -290.23 -291.42 -292.54 -289.30 -285.50 -289.17 -295.22 -291.51 -406.11 -427.51 -418.52 -435.33 -435.53 -435.66 -426.37 -424.34 -416.28 -422.64 -425.75 -423.25 -433.34 -255.15 -272.01 -294.21 -308.11 -347.72 -440.54 -510.76 -738.14 -1017.46 -1096.45 -1426.06 -1650.20 -1731.76 -1770.79 -1804.81 -1881.35 -1902.58 -1926.59 -1945.98 -1942.86 -1954.77 -1944.76 -1951.73 -1945.53 -1957.59 -1962.97 -1960.31 -1978.76 -1980.98 -1996.38 -2000.28 -1999.71 -2002.98 -2001.87 -2011.49 -2010.97 -2016.08 -2027.66 -2031.91 -2045.95 -2064.99 -2081.19 -2111.31 -2122.65 -2119.40
803.59 808.97 768.37 307.96 271.28 169.53 177.65 233.15 185.47 192.42 163.60 162.62 114.45 110.04 90.47 74.74 58.81 52.90 36.24 43.43 79.31 105.30 98.70 93.11 94.79 94.31 -62.41 -92.77 -91.94 -102.91 -96.90 -93.54 -112.17 -118.06 -124.86 -123.98 -112.07 -125.54 -148.82 -143.53 -160.65 -166.14 -164.88 -168.44 -161.23 -153.90 -154.16 -156.50 -147.31 -144.23 -144.61 -150.85 -174.93 -181.95 -183.34 -183.52 -178.19 -180.01 -179.16 -182.33 -184.28 -184.02 -196.97 -192.95 -196.96 -282.73 -282.48 -285.30 -287.07 -279.51 -284.60 -284.73 -289.01 -291.13 -289.92 -295.06 -290.12 -291.42 -398.33 -410.85 -420.11 -424.89 -427.18 -416.94 -417.68 -416.72 -417.09 -409.73 -421.96 -421.01 -427.69 -255.07 -258.24 -267.34 -300.10 -335.48 -368.00 -468.41 -686.03 -936.61 -1160.35 -1565.54 -1646.91 -1750.80 -1778.93 -1839.17 -1895.06 -1912.21 -1943.35 -1956.71 -1970.86 -1967.70 -1966.95 -1970.41 -1964.07 -1971.26 -1978.58 -1974.30 -1983.09 -1989.34 -2011.74 -2008.67 -2027.76 -2024.76 -2014.92 -2009.32 -2011.14 -2024.01 -2022.44 -2029.21 -2045.55 -2063.20 -2077.94 -2095.22 -2105.51 -2109.38
759.78 758.46 653.87 433.04 297.66 235.74 259.20 304.80 296.97 223.88 189.47 178.14 131.47 119.63 108.17 106.40 84.04 75.71 55.88 52.83 87.92 113.11 117.11 108.71 105.95 110.99 -64.61 -77.16 -93.94 -94.63 -93.01 -99.62 -110.60 -132.11 -129.82 -131.16 -125.33 -144.63 -155.77 -156.57 -164.00 -166.59 -166.29 -167.80 -155.07 -148.19 -142.97 -144.40 -145.76 -138.41 -140.90 -144.41 -176.09 -178.19 -185.32 -184.78 -170.84 -174.24 -181.48 -174.84 -187.08 -188.21 -191.82 -185.49 -195.42 -281.23 -278.05 -284.31 -276.75 -287.78 -282.19 -286.93 -287.81 -296.18 -290.80 -289.53 -299.45 -292.27 -400.65 -415.41 -415.65 -420.84 -407.53 -406.05 -404.89 -409.80 -407.29 -402.13 -406.97 -412.85 -424.83 -247.08 -247.83 -254.99 -267.07 -294.48 -360.50 -421.19 -599.72 -832.87 -959.36 -1357.18 -1645.16 -1742.98 -1794.95 -1857.97 -1909.69 -1907.61 -1944.17 -1966.29 -1977.86 -1970.57 -1974.83 -1978.07 -1969.52 -1982.50 -1988.58 -1994.31 -2001.88 -2011.36 -2018.84 -2032.41 -2032.13 -2028.21 -2026.05 -2023.89 -2018.20 -2025.48 -2027.23 -2034.00 -2049.27 -2057.59 -2063.16 -2088.26 -2091.07 -2094.36
681.37 682.90 567.51 447.23 401.08 321.93 313.76 367.23 334.06 326.12 284.53 191.02 112.62 138.74 146.62 125.05 100.01 67.34 53.09 63.77 107.97 114.48 127.63 127.58 128.34 117.69 -52.57 -57.46 -75.09 -88.92 -98.08 -97.10 -121.51 -131.41 -154.44 -132.15 -148.87 -160.00 -160.24 -158.70 -170.25 -172.61 -164.84 -161.53 -157.11 -148.70 -131.79 -135.67 -142.62 -143.00 -141.77 -151.68 -170.07 -180.91 -185.99 -180.39 -176.17 -168.71 -170.67 -176.25 -184.61 -181.33 -192.31 -185.68 -193.65 -285.30 -282.52 -281.19 -282.09 -290.84 -286.45 -283.09 -286.98 -285.54 -292.85 -289.95 -289.58 -288.49 -396.16 -411.81 -420.55 -411.71 -404.66 -404.89 -407.16 -403.24 -403.14 -406.79 -399.17 -409.47 -409.04 -237.71 -230.13 -243.79 -255.65 -298.44 -313.29 -415.29 -582.25 -670.65 -770.51 -1294.23 -1651.32 -1725.98 -1793.12 -1848.83 -1878.67 -1924.08 -1951.21 -1975.66 -1987.82 -1987.07 -1985.53 -1985.42 -1994.91 -2001.33 -2004.04 -2002.73 -2017.39 -2029.77 -2035.26 -2037.05 -2043.30 -2039.80 -2039.85 -2030.56 -2020.89 -2033.01 -2031.54 -2040.61 -2042.62 -2052.05 -2059.90 -2088.24 -2084.96 -2093.82
621.59 618.08 547.13 449.85 406.38 404.12 400.66 376.22 393.83 366.66 334.08 207.26 151.87 179.64 179.52 149.96 125.07 65.99 56.00 97.23 115.05 145.52 151.28 149.11 136.24 118.36 -43.71 -52.56 -67.20 -86.03 -91.31 -111.83 -132.96 -155.51 -155.23 -161.88 -165.73 -168.24 -164.51 -162.10 -177.34 -170.63 -171.96 -162.96 -155.14 -138.78 -124.49 -126.94 -125.32 -129.73 -150.00 -147.18 -172.45 -177.23 -180.30 -164.68 -162.06 -166.31 -167.59 -166.69 -172.97 -177.67 -180.49 -178.72 -190.90 -278.85 -277.29 -281.17 -280.41 -286.09 -286.60 -284.50 -292.64 -289.49 -289.20 -292.37 -284.52 -289.65 -402.92 -406.53 -408.03 -404.05 -395.76 -399.55 -406.92 -397.89 -399.78 -395.34 -395.29 -399.73 -400.17 -222.78 -228.09 -239.37 -247.49 -254.97 -274.08 -303.25 -392.44 -573.40 -841.05 -991.31 -1685.68 -1709.59 -1748.11 -1830.53 -1871.55 -1922.93 -1953.18 -1982.02 -1983.28 -1993.93 -2000.09 -2000.34 -2005.25 -2006.05 -2013.55 -2009.47 -2035.16 -2041.93 -2044.21 -2042.60 -2045.71 -2038.79 -2033.74 -2031.59 -2025.23 -2031.78 -2031.86 -2036.93 -2050.13 -2052.18 -2064.30 -2074.10 -2086.15 -2078.30
603.34 606.44 548.92 443.99 410.97 411.07 416.07 411.04 407.94 374.89 317.58 273.00 174.37 204.72 178.50 130.57 107.48 71.85 79.75 122.88 147.71 153.08 161.15 145.07 132.61 110.34 -41.29 -50.58 -69.32 -78.95 -94.97 -93.39 -132.72 -157.80 -159.04 -173.85 -172.94 -176.55 -181.48 -172.37 -170.67 -179.71 -168.16 -160.64 -155.57 -139.93 -123.72 -119.41 -117.47 -131.03 -141.04 -141.98 -164.44 -164.57 -163.83 -162.02 -158.18 -159.78 -159.19 -163.80 -160.39 -172.94 -173.38 -183.05 -178.09 -276.26 -276.01 -279.63 -278.92 -286.86 -286.16 -280.20 -285.10 -287.14 -285.65 -287.74 -289.36 -286.85 -399.22 -404.38 -404.07 -396.34 -397.74 -398.23 -399.32 -400.53 -401.36 -394.96 -397.02 -392.67 -400.47 -218.02 -221.22 -228.05 -237.07 -250.10 -262.43 -276.26 -380.42 -532.42 -625.73 -976.64 -1314.30 -1714.97 -1735.74 -1814.17 -1861.65 -1889.01 -1946.74 -1974.18 -1985.40 -1995.99 -1998.13 -1999.60 -2002.57 -2019.27 -2019.20 -2034.73 -2042.41 -2042.02 -2044.28 -2048.72 -2043.45 -2038.49 -2032.91 -2035.81 -2036.30 -2029.52 -2032.32 -2037.04 -2042.29 -2049.77 -2064.49 -2076.31 -2081.14 -2085.23
578.77 579.47 580.32 385.55 385.89 409.09 407.77 415.04 418.11 394.08 372.11 308.76 239.35 218.16 165.26 115.62 95.08 84.00 105.67 138.93 156.90 141.64 149.68 133.87 114.69 103.94 -44.04 -48.69 -57.15 -68.82 -91.32 -102.25 -133.66 -134.98 -148.15 -162.50 -176.54 -169.28 -163.83 -162.54 -164.11 -169.23 -164.75 -167.18 -146.43 -135.12 -120.84 -115.47 -113.61 -123.03 -134.48 -142.05 -160.96 -169.86 -162.86 -166.59 -157.43 -162.27 -155.35 -163.81 -168.75 -170.35 -172.71 -175.91 -175.63 -266.89 -275.82 -273.33 -282.15 -281.95 -283.66 -286.48 -281.73 -293.89 -286.38 -286.82 -286.55 -292.75 -398.90 -399.81 -398.56 -400.04 -396.61 -396.93 -395.57 -395.44 -395.44 -393.79 -394.54 -400.04 -400.56 -219.40 -222.33 -226.89 -226.45 -228.61 -253.83 -276.50 -310.45 -416.36 -608.56 -923.31 -1063.22 -1466.38 -1742.14 -1798.28 -1835.30 -1898.78 -1917.89 -1955.01 -1982.64 -1989.90 -1999.99 -2003.43 -2000.99 -2018.41 -2025.26 -2027.52 -2044.60 -2040.03 -2049.92 -2050.89 -2050.27 -2042.85 -2041.33 -2040.03 -2041.13 -2034.46 -2031.25 -2041.03 -2045.23 -2051.49 -2064.06 -2082.05 -2086.40 -2082.70
557.97 556.22 482.75 401.11 375.95 394.63 405.15 409.02 409.19 421.86 418.77 369.51 245.16 216.59 176.48 122.96 95.62 108.16 153.64 164.19 159.86 148.59 130.10 105.05 94.85 81.48 -55.68 -57.69 -53.97 -69.94 -103.70 -101.28 -115.94 -123.96 -137.40 -160.03 -172.68 -161.55 -162.88 -153.88 -149.04 -149.67 -162.50 -155.86 -157.11 -135.63 -116.98 -129.08 -123.81 -133.92 -132.05 -138.19 -164.30 -167.49 -176.09 -174.63 -177.55 -160.27 -160.40 -164.65 -166.04 -171.20 -176.41 -168.27 -177.68 -262.53 -270.32 -270.80 -274.30 -279.92 -278.76 -280.59 -286.72 -288.95 -289.10 -282.65 -289.52 -292.77 -389.08 -394.07 -391.61 -395.40 -395.41 -397.07 -391.73 -401.36 -397.34 -400.94 -394.62 -397.15 -398.26 -218.15 -218.06 -218.08 -224.61 -224.54 -237.10 -247.19 -270.92 -382.34 -559.17 -681.28 -1014.07 -1234.71 -1570.88 -1785.45 -1805.83 -1861.02 -1911.99 -1946.75 -1966.50 -1984.07 -1987.54 -2000.54 -2000.96 -2011.82 -2024.81 -2024.88 -2029.85 -2039.98 -2050.93 -2052.03 -2048.12 -2047.68 -2043.99 -2043.02 -2036.87 -2035.40 -2033.69 -2038.53 -2038.88 -2057.20 -2063.92 -2073.31 -2083.35 -2082.20
554.70 559.64 466.56 415.86 322.57 298.16 346.20 363.17 400.51 407.84 425.21 354.94 280.99 226.00 196.47 148.88 150.57 159.99 180.55 154.89 151.85 137.51 122.13 91.99 70.11 70.50 -76.46 -72.91 -73.56 -87.19 -109.76 -104.65 -109.63 -125.63 -135.85 -145.27 -171.78 -169.95 -144.78 -141.87 -127.65 -138.04 -152.02 -153.02 -141.66 -143.20 -142.68 -142.09 -139.71 -144.66 -135.75 -142.24 -165.05 -170.88 -177.98 -186.25 -177.60 -167.43 -162.47 -162.56 -172.40 -173.03 -175.48 -175.37 -169.10 -266.95 -272.17 -274.95 -273.24 -280.30 -277.22 -280.75 -284.54 -286.31 -281.25 -283.83 -285.03 -290.30 -399.26 -397.27 -396.08 -397.56 -392.03 -392.76 -399.34 -400.09 -400.45 -392.79 -400.69 -396.63 -393.24 -218.57 -216.02 -219.10 -218.98 -217.90 -225.59 -237.00 -265.05 -290.12 -432.34 -526.08 -836.08 -1142.94 -1445.40 -1648.44 -1780.32 -1806.31 -1882.00 -1910.65 -1960.96 -1987.28 -1991.59 -1998.53 -2008.26 -2012.18 -2015.72 -2026.67 -2027.26 -2037.87 -2043.34 -2048.09 -2041.77 -2047.23 -2042.13 -2037.95 -2042.09 -2039.72 -2034.39 -2042.27 -2049.00 -2061.99 -2063.26 -2073.39 -2088.70 -2083.56
678.65 680.95 698.68 495.99 476.59 466.16 523.42 569.11 593.84 608.89 625.60 567.08 499.84 176.88 82.74 120.28 77.85 59.91 45.05 5.85 -3.82 -22.38 -30.05 -75.47 -71.90 -77.63 -87.47 -67.43 -68.23 -97.84 -108.60 -108.29 -115.47 -119.72 -142.00 -147.39 -163.47 -156.48 -141.29 -138.49 -137.59 -136.43 -137.71 -147.10 -149.95 -151.64 -159.14 -153.08 -164.21 -162.41 -161.43 -157.43 -156.83 -166.99 -184.81 -176.73 -169.48 -168.86 -162.57 -163.52 -158.91 -163.16 -168.92 -169.44 -165.18 -287.18 -289.64 -288.57 -287.96 -297.73 -299.99 -298.80 -298.72 -297.44 -300.41 -303.16 -304.89 -302.90 -404.52 -399.67 -405.67 -403.43 -399.32 -403.47 -408.53 -403.07 -401.78 -405.72 -409.01 -400.17 -403.51 -220.81 -217.58 -217.94 -221.26 -224.68 -224.66 -237.30 -254.43 -267.25 -324.15 -461.49 -721.37 -939.83 -1535.01 -1714.30 -1753.68 -1861.53 -1894.03 -1949.08 -1965.67 -2012.40 -2039.34 -2043.88 -2046.39 -2049.94 -2058.69 -2012.36 -2016.53 -2022.10 -2572.35 -2572.98 -2575.97 -2583.08 -2582.45 -2583.93 -2576.70 -2579.04 -2581.44 -2586.23 -2585.99 -2592.91 -2608.01 -2628.78 -2631.99 -2627.04
647.60 646.18 560.34 474.02 419.87 459.89 514.30 558.70 583.61 591.66 599.51 611.00 573.50 263.94 194.88 149.61 134.28 107.41 29.64 -15.17 -8.67 -33.36 -62.86 -72.67 -78.87 -84.59 -99.85 -86.66 -91.66 -96.25 -127.90 -124.03 -135.30 -159.93 -151.71 -153.68 -152.12 -144.31 -138.80 -141.88 -127.88 -130.96 -146.87 -140.79 -137.96 -149.61 -164.23 -170.34 -174.15 -171.27 -164.08 -166.72 -162.12 -169.91 -182.45 -180.64 -179.28 -172.34 -163.10 -168.68 -167.01 -173.91 -178.75 -174.34 -169.63 -294.20 -298.49 -295.04 -297.95 -298.65 -305.58 -296.26 -292.25 -304.19 -301.98 -296.07 -301.02 -303.65 -398.03 -401.72 -402.81 -403.17 -409.44 -407.77 -402.56 -407.18 -406.67 -401.14 -404.06 -406.39 -408.07 -216.86 -216.31 -219.74 -219.90 -219.72 -219.69 -229.95 -232.72 -291.71 -345.73 -389.45 -605.15 -982.08 -1384.97 -1598.46 -1664.39 -1771.56 -1889.40 -1908.10 -1952.25 -1972.92 -2012.87 -2023.44 -2047.10 -2040.80 -2049.30 -2002.88 -2004.81 -2012.13 -2568.29 -2564.47 -2575.26 -2576.06 -2577.36 -2578.88 -2580.38 -2582.72 -2584.50 -2578.35 -2591.79 -2599.87 -2612.78 -2638.56 -2632.30 -2631.74
635.65 632.38 543.75 453.05 418.83 468.57 508.69 557.03 558.29 574.45 587.71 578.23 602.45 343.08 242.32 219.95 151.15 93.49 14.91 10.09 9.53 -22.13 -27.36 -50.07 -63.00 -91.20 -107.07 -112.49 -115.64 -128.08 -138.80 -144.52 -155.51 -155.69 -166.56 -152.87 -150.39 -138.46 -129.22 -131.02 -119.42 -120.38 -129.65 -133.23 -144.05 -162.90 -163.02 -179.40 -176.87 -179.67 -169.70 -177.83 -171.50 -173.05 -178.80 -185.30 -181.94 -180.31 -176.26 -171.08 -174.53 -172.47 -184.43 -188.43 -185.62 -295.84 -300.24 -300.04 -299.12 -292.81 -304.52 -303.49 -302.51 -300.25 -303.75 -301.73 -302.08 -303.84 -395.33 -406.52 -402.14 -402.34 -403.94 -406.05 -407.32 -405.69 -406.05 -402.82 -403.21 -403.44 -405.41 -218.78 -211.20 -216.00 -213.97 -220.25 -221.74 -224.50 -230.79 -266.71 -338.88 -408.61 -627.82 -948.90 -1309.04 -1389.02 -1555.01 -1640.50 -1817.15 -1876.00 -1920.27 -1970.39 -1989.98 -2002.16 -2011.29 -2030.44 -2028.29 -1994.20 -2005.81 -2009.81 -2558.91 -2561.06 -2573.58 -2571.93 -2576.69 -2579.51 -2579.45 -2582.54 -2583.93 -2585.39 -2596.53 -2610.23 -2613.39 -2626.77 -2639.49 -2636.16
561.47 563.30 572.07 377.05 353.76 410.34 469.08 490.88 516.53 521.06 547.29 574.02 582.91 318.65 274.39 245.31 172.43 112.18 47.58 48.02 15.09 -11.82 -27.84 -44.58 -60.95 -87.00 -131.95 -127.07 -121.01 -127.83 -147.86 -150.03 -161.98 -162.86 -153.44 -141.64 -130.17 -121.91 -123.19 -110.37 -114.15 -113.34 -124.29 -131.06 -144.97 -146.82 -180.92 -184.35 -186.73 -178.88 -181.67 -183.39 -185.33 -178.26 -177.79 -181.72 -179.02 -181.35 -184.39 -178.33 -178.28 -184.17 -179.87 -189.47 -187.99 -303.24 -300.26 -295.09 -298.45 -297.29 -307.32 -304.02 -304.78 -305.81 -304.28 -297.63 -297.84 -307.90 -402.43 -403.21 -409.31 -400.56 -399.26 -402.68 -408.07 -401.56 -404.37 -404.00 -404.75 -400.40 -407.77 -218.33 -216.79 -223.18 -217.48 -214.11 -225.19 -212.43 -223.67 -278.42 -311.95 -389.70 -543.94 -568.13 -986.61 -1398.94 -1466.23 -1541.20 -1705.09 -1832.19 -1848.13 -1917.21 -1962.42 -1973.56 -2005.28 -2008.16 -2022.79 -1990.59 -1990.81 -2001.70 -2561.03 -2560.92 -2572.18 -2576.06 -2582.57 -2589.84 -2580.16 -2583.47 -2590.28 -2602.00 -2601.74 -2622.95 -2621.09 -2639.80 -2641.88 -2643.58
530.46 535.80 469.76 364.87 345.99 349.63 392.00 424.03 474.75 501.20 520.21 523.69 545.38 263.94 196.57 185.90 204.81 139.66 123.01 69.20 20.29 -36.78 -47.82 -59.45 -62.31 -90.26 -130.71 -133.84 -135.92 -137.40 -129.79 -140.31 -159.23 -164.28 -144.96 -126.25 -121.45 -109.98 -107.79 -111.73 -109.79 -105.00 -120.82 -134.29 -155.75 -162.49 -182.81 -181.41 -183.10 -173.14 -181.23 -180.64 -183.72 -180.18 -180.54 -174.17 -180.77 -179.15 -185.76 -183.57 -182.90 -176.57 -182.51 -180.94 -184.87 -301.61 -301.12 -298.54 -307.38 -303.39 -302.89 -305.59 -305.83 -307.82 -310.05 -308.00 -306.52 -301.88 -407.59 -404.81 -404.08 -403.55 -399.52 -402.05 -402.73 -401.43 -403.76 -399.72 -408.24 -404.22 -405.93 -221.00 -217.98 -216.47 -222.29 -218.59 -220.37 -220.50 -215.15 -229.81 -281.55 -347.44 -385.22 -652.25 -1024.06 -1316.73 -1373.74 -1550.80 -1663.66 -1705.96 -1800.14 -1880.35 -1905.17 -1954.09 -1968.83 -1976.91 -2006.64 -1984.68 -1987.13 -2001.26 -2548.19 -2560.84 -2572.03 -2574.56 -2584.19 -2592.23 -2591.40 -2596.99 -2599.41 -2606.73 -2617.61 -2616.32 -2626.13 -2648.33 -2653.50 -2663.38
534.38 540.15 483.65 380.28 354.67 321.98 339.31 362.40 402.81 425.38 429.66 425.27 412.88 143.10 99.91 160.05 188.60 179.15 133.46 80.22 8.87 -11.21 -48.43 -72.29 -81.78 -89.44 -130.51 -122.36 -121.00 -112.46 -115.91 -137.95 -161.69 -146.16 -126.61 -109.40 -109.80 -99.29 -97.94 -117.16 -116.02 -114.80 -120.31 -155.84 -159.39 -172.79 -186.34 -187.10 -181.41 -169.47 -169.98 -184.54 -187.07 -178.87 -176.08 -164.32 -167.97 -173.67 -187.45 -180.93 -184.15 -180.43 -178.85 -177.10 -180.56 -298.79 -298.63 -303.86 -302.95 -309.24 -306.88 -298.82 -304.89 -307.07 -303.39 -306.53 -305.50 -304.46 -399.61 -402.81 -402.50 -403.81 -401.98 -405.54 -401.50 -407.52 -401.31 -403.49 -396.40 -400.91 -402.28 -222.64 -219.74 -224.85 -220.62 -216.32 -223.71 -219.70 -223.91 -233.38 -254.69 -301.16 -381.08 -720.65 -987.28 -1260.00 -1406.65 -1558.63 -1606.67 -1677.25 -1739.81 -1802.52 -1835.54 -1920.34 -1953.78 -1961.57 -2006.69 -1965.69 -1982.33 -1998.91 -2559.65 -2567.16 -2568.80 -2579.69 -2584.65 -2593.14 -2590.97 -2596.06 -2601.26 -2614.91 -2621.69 -2634.18 -2632.58 -2654.22 -2666.49 -2669.13
606.44 606.80 519.56 412.02 402.02 335.70 310.74 342.56 356.41 364.81 348.01 344.13 342.84 62.93 47.07 99.77 177.11 164.50 123.72 80.01 18.99 -20.87 -47.98 -63.19 -81.51 -90.14 -105.07 -108.91 -97.91 -110.41 -117.72 -139.10 -142.20 -135.33 -127.63 -106.53 -108.58 -95.16 -108.92 -126.91 -135.88 -135.04 -155.66 -151.49 -161.75 -176.30 -182.71 -180.30 -176.31 -163.57 -166.34 -158.68 -165.85 -162.88 -163.71 -159.49 -167.08 -176.45 -178.13 -180.88 -181.20 -179.23 -177.57 -178.59 -180.73 -302.90 -306.16 -300.26 -309.45 -303.26 -305.74 -299.47 -293.85 -306.07 -306.42 -301.86 -306.30 -306.98 -404.52 -404.02 -403.31 -405.64 -404.09 -406.19 -407.33 -406.66 -397.59 -407.88 -400.54 -407.38 -401.36 -216.19 -212.48 -219.81 -221.13 -217.92 -225.96 -225.22 -230.57 -242.64 -285.25 -345.71 -375.51 -550.43 -893.46 -1245.31 -1351.74 -1483.13 -1522.47 -1601.18 -1663.17 -1713.28 -1825.66 -1878.40 -1912.69 -1972.09 -2007.10 -1966.38 -1985.22 -1996.91 -2567.11 -2577.55 -2581.44 -2587.04 -2587.62 -2592.84 -2604.69 -2609.75 -2618.06 -2619.95 -2635.25 -2644.20 -2650.72 -2663.74 -2678.41 -2671.29
611.44 609.67 539.28 463.40 399.51 338.34 307.80 328.22 330.98 346.63 344.18 315.86 302.54 21.37 37.07 88.37 142.08 155.60 125.26 74.24 51.90 -7.20 -45.87 -48.91 -61.61 -71.84 -100.64 -93.05 -91.92 -102.93 -134.42 -133.90 -126.92 -121.48 -101.13 -106.54 -98.20 -114.83 -119.53 -157.68 -156.16 -147.88 -156.95 -160.70 -165.95 -179.48 -185.76 -177.70 -169.53 -162.57 -161.57 -159.93 -154.24 -161.11 -155.17 -152.08 -148.78 -164.57 -174.11 -173.69 -177.53 -175.96 -182.04 -183.72 -188.40 -302.02 -306.10 -306.10 -300.26 -306.53 -302.62 -295.52 -298.06 -302.48 -306.29 -301.46 -305.31 -301.71 -406.18 -407.84 -400.76 -398.65 -400.27 -400.78 -408.85 -401.84 -403.64 -409.69 -404.10 -402.58 -403.59 -217.81 -218.80 -216.43 -222.90 -213.93 -221.40 -220.06 -243.42 -270.89 -311.38 -365.50 -380.03 -515.97 -818.87 -1018.28 -1224.33 -1327.87 -1476.18 -1520.23 -1602.71 -1687.31 -1769.04 -1843.90 -1896.36 -1977.13 -2011.51 -1970.17 -1991.07 -2004.67 -2575.14 -2570.17 -2580.04 -2589.85 -2599.18 -2601.02 -2615.41 -2613.04 -2624.58 -2639.42 -2633.84 -2647.08 -2649.08 -2670.52 -2688.83 -2685.87
603.57 603.37 605.98 420.32 405.72 352.95 309.02 307.31 304.89 340.82 340.94 319.56 305.34 -1.81 6.03 52.69 123.00 143.60 112.90 90.14 65.98 -23.35 -38.60 -55.34 -51.17 -55.52 -81.06 -96.09 -104.97 -121.97 -130.61 -121.01 -114.26 -97.21 -99.26 -96.05 -107.38 -110.83 -128.65 -158.94 -162.55 -166.91 -171.72 -172.10 -182.36 -189.90 -174.67 -161.55 -164.18 -159.82 -155.97 -145.23 -147.64 -148.92 -152.66 -150.83 -145.26 -152.80 -163.51 -169.95 -175.07 -186.74 -181.98 -177.93 -177.53 -302.48 -304.58 -306.36 -304.83 -298.34 -302.16 -298.77 -298.05 -306.64 -308.68 -303.47 -302.90 -307.34 -404.45 -396.08 -400.26 -407.71 -401.77 -397.07 -405.39 -405.78 -405.57 -402.87 -410.07 -408.63 -402.98 -216.19 -219.62 -217.60 -221.18 -215.33 -219.92 -226.33 -239.01 -261.22 -294.08 -302.34 -341.32 -530.60 -864.97 -1073.06 -1248.48 -1285.28 -1329.14 -1441.91 -1511.57 -1606.39 -1657.04 -1821.48 -1845.84 -1950.15 -1995.77 -1967.35 -2004.56 -2007.16 -2567.25 -2576.61 -2577.85 -2588.39 -2595.12 -2605.38 -2615.33 -2619.66 -2627.75 -2636.85 -2637.92 -2648.86 -2664.11 -2690.49 -2697.94 -2697.90
599.85 607.19 531.30 427.24 385.00 346.05 307.04 275.30 292.40 298.45 330.53 316.84 285.47 -15.43 -4.86 54.03 68.52 103.88 113.04 59.18 26.08 -28.96 -34.44 -61.33 -60.39 -65.82 -87.81 -109.06 -126.22 -123.03 -111.90 -101.26 -93.53 -100.54 -82.27 -90.19 -114.76 -117.99 -143.42 -167.90 -183.46 -177.57 -179.51 -182.89 -181.14 -179.93 -166.76 -157.18 -153.92 -156.53 -147.69 -137.61 -139.29 -139.02 -145.07 -147.55 -149.98 -159.61 -158.55 -166.34 -176.63 -182.15 -186.62 -182.19 -182.79 -301.34 -300.95 -296.72 -299.74 -301.57 -301.45 -301.62 -296.29 -301.24 -298.25 -306.78 -300.81 -303.17 -400.26 -396.28 -402.86 -405.57 -406.88 -405.22 -407.08 -398.57 -402.39 -401.80 -406.55 -406.79 -402.26 -219.83 -221.29 -216.97 -220.90 -213.34 -223.83 -233.68 -231.27 -246.57 -283.13 -296.04 -299.84 -523.81 -861.26 -1011.48 -1147.51 -1270.67 -1291.21 -1363.99 -1461.86 -1491.42 -1655.81 -1750.44 -1854.05 -1899.31 -1956.08 -1969.92 -2006.43 -2014.20 -2573.67 -2576.98 -2577.33 -2587.75 -2594.48 -2601.15 -2599.43 -2616.59 -2626.50 -2640.21 -2644.64 -2659.21 -2668.92 -2690.88 -2700.68 -2696.71
613.25 610.63 533.56 418.79 354.15 311.83 278.31 269.84 270.18 289.22 306.92 288.06 271.93 -34.18 -8.60 25.34 66.03 89.37 90.68 56.52 0.30 -12.56 -42.02 -50.43 -66.29 -79.53 -95.45 -115.66 -114.29 -107.88 -102.62 -87.54 -83.80 -86.89 -85.81 -91.53 -111.99 -140.95 -145.35 -161.81 -170.93 -170.09 -174.55 -179.01 -177.68 -168.35 -159.18 -144.66 -138.68 -142.24 -137.45 -147.32 -142.46 -142.05 -147.40 -148.13 -160.19 -163.97 -169.65 -175.74 -185.90 -185.18 -181.69 -178.66 -175.27 -290.29 -291.17 -296.73 -301.29 -298.87 -299.83 -297.87 -300.90 -301.66 -303.20 -295.47 -302.70 -303.38 -396.90 -405.52 -407.51 -400.33 -401.49 -403.44 -406.27 -406.36 -407.48 -402.84 -402.57 -400.67 -401.65 -214.78 -218.01 -214.63 -224.05 -213.23 -217.93 -217.56 -219.47 -226.51 -231.54 -280.14 -304.80 -480.89 -779.33 -1046.75 -1085.28 -1200.94 -1270.09 -1329.19 -1366.31 -1518.54 -1563.01 -1747.49 -1832.71 -1866.50 -1929.29 -1995.32 -2007.57 -2020.26 -2565.13 -2567.27 -2574.82 -2579.99 -2583.80 -2595.13 -2605.24 -2615.78 -2625.39 -2629.68 -2643.14 -2649.57 -2663.14 -2680.22 -2697.06 -2694.70
601.11 595.37 512.09 419.25 350.96 267.48 263.84 259.47 285.42 289.77 276.01 280.77 248.45 -34.46 -25.74 46.73 64.15 90.51 86.02 62.52 41.48 -3.82 -14.89 -36.26 -45.70 -70.00 -100.60 -97.98 -102.67 -96.83 -81.41 -73.27 -70.48 -66.87 -77.12 -88.63 -110.34 -112.30 -129.66 -150.23 -156.46 -158.83 -161.99 -171.03 -169.54 -166.40 -150.96 -140.24 -132.47 -127.28 -133.48 -139.84 -156.94 -155.26 -160.10 -148.58 -161.17 -167.73 -173.48 -179.59 -173.79 -181.46 -174.18 -176.53 -168.63 -287.35 -290.34 -298.32 -305.29 -311.97 -301.89 -298.62 -293.41 -295.04 -289.21 -294.94 -297.36 -305.38 -404.91 -400.82 -403.93 -405.59 -404.80 -402.32 -400.79 -403.22 -405.92 -399.37 -405.08 -407.43 -409.53 -220.58 -219.48 -214.07 -220.28 -220.15 -221.21 -218.55 -216.53 -222.03 -248.00 -270.26 -334.21 -369.25 -582.81 -842.57 -1122.85 -1145.13 -1236.22 -1251.75 -1310.28 -1477.52 -1550.41 -1740.43 -1812.10 -1853.78 -1885.33 -1948.02 -1981.79 -1993.10 -2539.73 -2560.39 -2559.08 -2576.42 -2574.10 -2580.92 -2598.32 -2615.57 -2627.80 -2626.71 -2642.35 -2656.99 -2663.86 -2682.26 -2692.96 -2693.24
288.48 287.03 215.73 97.73 63.56 17.46 -6.40 -31.27 1.27 -9.23 -0.35 -15.42 -30.60 679.87 707.71 770.78 798.07 828.02 817.60 791.75 789.58 757.81 735.52 724.88 698.13 680.73 188.29 175.75 172.80 164.82 183.07 207.83 200.76 198.23 191.82 176.30 157.69 168.27 149.84 -134.93 -147.06 -155.77 -158.75 -166.86 -174.42 -166.45 -151.92 -142.43 -120.20 -118.35 -126.17 -133.47 -156.93 -156.14 -169.69 -162.87 -173.21 -170.10 -181.84 -180.77 -171.57 -168.19 -169.70 -161.82 -179.44 -171.58 -178.72 -181.27 -187.78 -178.52 -186.21 -172.42 -167.96 -166.94 -163.24 -172.21 -177.74 -181.54 -175.93 -182.11 -185.89 -182.62 -191.12 -185.09 -186.02 -183.70 -185.05 -184.05 -185.09 -184.09 -184.09 -270.41 -261.61 -265.99 -262.21 -264.82 -267.43 -259.48 -266.82 -271.38 -265.49 -310.39 -389.95 -406.05 -502.03 -712.64 -851.88 -954.55 -1139.04 -1179.37 -1206.95 -1299.55 -1540.99 -1653.96 -1706.04 -1781.82 -1828.09 -1899.44 -1944.26 -1959.08 -2143.04 -2164.88 -2185.58 -2197.97 -2201.06 -2211.98 -2220.06 -2242.10 -2253.25 -2263.36 -2269.80 -2282.06 -2294.65 -2303.88 -2322.94 -2324.10
252.62 251.05 161.33 53.82 31.28 30.01 -7.43 -15.83 -40.61 -28.48 -42.44 -28.75 -28.94 686.60 702.08 731.41 771.59 776.51 807.39 790.54 786.88 784.36 772.78 744.02 720.91 689.85 191.80 191.60 188.69 186.66 188.39 199.16 195.64 198.50 189.48 166.54 159.68 156.64 135.60 -136.49 -155.94 -160.29 -166.98 -166.06 -168.42 -163.33 -164.10 -148.18 -131.39 -131.30 -128.83 -130.55 -141.00 -154.87 -151.78 -155.55 -162.60 -165.70 -178.88 -165.91 -159.75 -158.12 -160.16 -171.05 -171.56 -179.82 -185.70 -177.45 -179.06 -171.75 -167.75 -176.40 -168.98 -168.03 -165.75 -170.52 -182.75 -181.67 -183.47 -182.10 -185.34 -187.40 -186.11 -188.89 -187.78 -186.70 -183.09 -178.17 -188.07 -179.18 -180.73 -264.09 -265.37 -269.86 -267.46 -260.21 -262.44 -266.28 -260.44 -268.92 -269.70 -270.71 -336.57 -395.66 -391.33 -649.51 -709.02 -853.57 -911.91 -1039.22 -1183.11 -1289.39 -1444.83 -1586.37 -1676.69 -1738.40 -1780.05 -1851.20 -1900.69 -1907.74 -2130.28 -2113.01 -2137.85 -2143.71 -2175.49 -2180.22 -2193.46 -2228.67 -2244.30 -2250.05 -2272.51 -2275.24 -2285.97 -2307.16 -2314.61 -2307.99
254.71 251.39 160.22 29.50 17.35 2.44 0.18 -20.44 -30.82 -39.52 -47.14 -54.62 -55.89 661.59 676.36 687.18 705.59 763.38 760.90 775.50 785.55 787.04 778.94 760.94 736.47 698.85 191.33 192.28 194.37 206.01 207.57 202.12 190.25 187.65 170.78 151.09 134.35 136.36 135.80 -155.04 -169.46 -170.44 -170.66 -161.60 -149.47 -149.10 -157.00 -151.54 -132.89 -118.93 -126.19 -124.99 -137.53 -135.65 -144.72 -149.66 -149.87 -155.66 -169.32 -150.81 -149.66 -150.96 -156.00 -166.25 -171.91 -175.60 -174.89 -174.11 -167.92 -168.24 -163.86 -167.28 -168.31 -157.63 -161.52 -177.57 -176.46 -179.38 -181.52 -177.52 -179.39 -191.44 -181.48 -184.60 -180.44 -184.22 -191.36 -193.52 -189.15 -184.68 -185.26 -264.01 -262.22 -259.15 -270.44 -263.11 -269.87 -265.68 -262.72 -266.27 -266.83 -269.93 -269.51 -317.53 -273.10 -418.60 -556.56 -572.58 -790.07 -949.45 -1087.18 -1172.90 -1359.96 -1503.88 -1637.08 -1678.93 -1757.95 -1777.31 -1824.21 -1853.43 -2032.68 -2023.81 -2036.41 -2064.00 -2070.44 -2124.00 -2168.95 -2189.38 -2225.00 -2228.22 -2244.67 -2261.03 -2266.04 -2286.07 -2294.48 -2297.69
336.30 332.03 200.91 40.21 16.92 3.25 0.38 -8.37 -26.55 -35.85 -39.46 -52.29 -46.27 678.66 667.83 678.92 667.70 701.31 715.39 760.77 767.36 774.33 769.62 759.21 765.96 728.21 228.49 216.40 215.42 218.16 212.03 198.67 180.13 177.98 156.00 137.94 121.80 128.55 118.08 -154.41 -165.38 -174.35 -166.93 -159.82 -147.22 -142.03 -139.94 -129.86 -127.51 -122.92 -117.78 -123.27 -132.63 -137.05 -131.41 -139.62 -143.40 -143.55 -147.99 -142.56 -136.41 -138.12 -152.27 -158.75 -161.56 -174.64 -175.32 -158.82 -153.70 -164.33 -167.06 -154.65 -161.12 -163.00 -171.21 -170.73 -175.60 -170.31 -172.93 -174.22 -178.28 -182.23 -184.92 -180.68 -183.44 -181.12 -180.22 -185.82 -185.65 -185.66 -188.06 -267.32 -263.20 -264.60 -258.64 -261.95 -263.13 -266.69 -264.13 -266.02 -264.02 -271.62 -263.12 -280.48 -231.16 -235.25 -422.81 -498.22 -609.00 -782.47 -874.94 -1020.45 -1312.79 -1407.31 -1505.68 -1569.70 -1684.16 -1726.67 -1763.00 -1764.93 -1950.33 -2001.57 -2014.92 -2049.63 -2055.25 -2076.70 -2111.54 -2135.52 -2192.84 -2220.30 -2232.05 -2245.18 -2265.66 -2280.07 -2277.67 -2282.48
286.46 282.23 207.33 47.53 32.81 24.81 40.99 0.92 9.99 -18.02 -17.02 -32.40 -41.97 694.03 684.98 665.04 655.02 681.25 708.93 687.89 735.65 748.98 775.57 769.59 775.06 752.19 234.41 221.12 220.23 209.23 190.35 183.76 176.70 159.21 148.11 133.77 116.93 120.39 103.74 -163.25 -161.23 -158.79 -169.40 -166.69 -154.99 -137.68 -126.82 -114.80 -112.83 -113.30 -100.62 -117.17 -125.53 -127.44 -123.56 -123.84 -133.09 -132.55 -141.23 -139.23 -134.10 -134.92 -136.90 -152.16 -163.80 -164.70 -166.31 -162.70 -153.03 -150.65 -154.41 -153.16 -155.41 -153.70 -163.10 -170.07 -164.66 -173.25 -170.98 -173.55 -173.58 -177.09 -178.54 -185.49 -177.60 -181.81 -186.34 -186.32 -187.03 -184.68 -187.33 -262.94 -264.44 -269.06 -272.18 -265.74 -268.06 -264.94 -262.37 -267.13 -257.49 -264.87 -272.01 -283.13 -233.43 -234.78 -236.14 -345.65 -526.81 -588.49 -786.76 -1028.10 -1123.92 -1334.77 -1465.86 -1509.95 -1560.53 -1543.99 -1652.48 -1739.54 -1900.50 -1930.65 -1907.83 -1967.87 -1996.04 -2047.14 -2044.98 -2090.76 -2177.45 -2194.34 -2192.08 -2223.33 -2232.44 -2252.11 -2256.34 -2252.59
374.08 373.80 333.02 53.68 56.57 70.89 82.56 63.63 15.74 11.13 12.85 -17.10 -13.13 726.59 710.73 666.75 651.12 679.44 690.23 682.62 685.02 713.38 741.53 759.85 766.69 763.04 266.73 236.43 222.36 208.09 184.00 157.94 150.92 152.65 125.95 121.01 100.86 99.25 106.29 -158.80 -139.76 -152.05 -162.02 -166.54 -158.29 -139.33 -106.51 -103.79 -100.91 -101.48 -100.09 -100.79 -112.24 -118.58 -112.16 -122.36 -116.43 -131.65 -128.44 -134.10 -128.69 -129.42 -137.78 -143.89 -147.91 -156.53 -153.13 -157.69 -147.33 -153.96 -148.66 -153.52 -142.79 -152.42 -154.91 -157.27 -160.78 -166.61 -164.25 -165.97 -173.15 -177.61 -178.35 -178.36 -177.06 -182.50 -182.20 -182.16 -180.52 -179.79 -186.74 -258.84 -267.46 -260.45 -265.64 -270.60 -260.68 -263.44 -270.58 -264.16 -261.69 -270.73 -271.02 -272.61 -230.91 -223.44 -237.67 -237.31 -342.48 -572.31 -727.48 -1035.99 -1173.86 -1230.16 -1397.73 -1458.47 -1478.00 -1505.75 -1535.06 -1605.96 -1807.24 -1816.96 -1839.97 -1888.88 -1895.53 -1953.72 -2001.21 -2005.02 -2105.88 -2156.28 -2185.02 -2203.54 -2195.91 -2218.04 -2224.55 -2224.22
304.63 306.90 212.73 92.56 67.75 101.73 148.42 138.55 76.40 40.53 17.06 13.96 4.26 722.65 705.59 669.68 653.18 657.79 668.52 662.59 672.51 713.46 725.79 740.19 746.42 766.65 279.75 253.28 226.27 211.23 190.86 164.75 146.65 137.09 127.34 110.08 99.00 110.76 115.02 -140.22 -140.26 -135.69 -151.71 -156.80 -151.09 -145.40 -102.95 -82.25 -92.45 -88.07 -94.79 -99.90 -116.34 -115.16 -112.75 -126.21 -125.49 -126.93 -131.64 -137.67 -130.97 -127.53 -134.59 -137.09 -138.05 -140.90 -148.69 -143.99 -155.04 -149.72 -153.72 -149.79 -157.18 -147.64 -161.16 -155.07 -164.54 -161.64 -151.25 -160.90 -177.66 -177.32 -173.80 -176.86 -169.75 -177.25 -176.29 -175.76 -185.78 -186.93 -187.10 -261.10 -266.77 -266.35 -265.26 -265.84 -267.39 -268.24 -265.07 -263.14 -266.79 -261.62 -267.38 -271.99 -221.01 -224.96 -222.50 -233.63 -328.55 -417.98 -818.67 -1016.75 -1170.73 -1185.89 -1286.96 -1401.82 -1409.35 -1392.58 -1394.38 -1392.10 -1651.23 -1686.13 -1722.63 -1781.96 -1825.90 -1893.00 -1920.74 -1979.46 -2025.03 -2080.29 -2107.11 -2117.38 -2154.95 -2188.93 -2179.74 -2174.63
307.69 311.97 197.19 70.42 111.62 164.72 195.08 200.05 123.92 95.40 44.05 34.75 28.79 725.24 725.64 700.29 663.99 650.43 644.99 640.15 650.71 674.06 698.05 713.82 743.38 757.40 288.33 259.78 260.80 235.16 204.92 158.06 150.55 140.33 119.92 108.62 98.77 112.79 124.31 -124.34 -117.57 -128.89 -145.41 -154.62 -150.70 -127.91 -98.37 -81.07 -89.89 -88.98 -96.53 -97.83 -123.66 -129.53 -120.89 -133.02 -140.03 -143.09 -146.85 -135.30 -133.58 -136.83 -132.80 -137.96 -133.60 -143.85 -136.50 -147.21 -141.52 -151.25 -150.32 -150.63 -147.65 -154.09 -157.18 -169.83 -174.21 -166.30 -170.70 -164.08 -175.57 -171.91 -169.78 -170.94 -179.20 -175.34 -172.40 -178.28 -174.90 -181.30 -176.48 -257.83 -263.62 -267.29 -264.62 -263.70 -267.21 -264.25 -269.49 -266.99 -264.43 -263.72 -267.58 -269.57 -213.56 -221.88 -218.21 -217.68 -228.99 -370.20 -551.30 -905.65 -1017.77 -1117.60 -1258.43 -1328.90 -1322.91 -1332.41 -1322.03 -1369.47 -1571.27 -1606.87 -1669.33 -1677.05 -1697.44 -1784.69 -1875.72 -1903.94 -1933.47 -1949.58 -2005.31 -2072.09 -2081.02 -2131.07 -2134.52 -2132.24
433.05 422.84 279.14 115.30 186.87 240.29 225.08 231.24 183.47 106.22 73.25 64.19 40.72 741.05 715.31 712.58 701.72 686.15 652.91 652.54 634.80 652.57 670.84 704.92 716.80 748.02 265.92 267.90 241.38 226.70 223.47 187.66 157.09 144.00 126.63 112.04 100.83 104.55 120.37 -119.48 -108.74 -114.15 -130.56 -138.45 -138.55 -109.05 -94.61 -83.80 -89.23 -99.69 -103.46 -113.24 -121.71 -131.47 -140.42 -141.59 -149.70 -156.70 -149.43 -142.59 -140.41 -138.00 -143.48 -132.92 -140.44 -141.13 -143.64 -147.20 -139.75 -154.43 -161.61 -161.21 -167.75 -166.84 -166.85 -179.68 -184.74 -179.96 -169.14 -171.08 -176.43 -175.34 -174.16 -178.97 -169.59 -174.35 -179.21 -174.38 -174.80 -178.10 -185.58 -262.07 -266.93 -265.59 -259.89 -265.80 -264.26 -270.02 -262.53 -265.13 -266.54 -260.68 -263.70 -269.99 -219.70 -216.92 -216.91 -219.94 -225.33 -319.90 -472.65 -738.23 -844.66 -974.97 -1097.10 -1185.73 -1302.32 -1264.92 -1285.48 -1310.54 -1533.46 -1540.20 -1567.06 -1587.44 -1647.40 -1649.85 -1702.50 -1739.40 -1792.64 -1905.77 -1964.56 -2010.71 -2030.47 -2032.33 -2082.37 -2074.23
402.36 403.11 277.54 185.91 176.56 261.61 263.62 270.35 209.63 142.03 89.06 93.82 64.36 728.56 708.51 717.66 708.32 689.80 678.90 659.49 633.68 651.32 642.83 683.50 696.31 716.18 239.50 242.25 242.90 221.35 214.44 191.79 144.71 141.25 125.56 107.51 95.77 103.72 118.76 -124.27 -100.96 -108.11 -119.98 -123.00 -111.18 -102.08 -91.91 -80.67 -85.85 -97.17 -104.42 -122.92 -135.67 -151.57 -152.97 -151.03 -155.77 -168.37 -160.41 -149.92 -151.85 -147.80 -154.02 -162.00 -166.01 -164.27 -157.71 -150.76 -157.40 -169.37 -178.36 -181.23 -173.30 -167.14 -185.89 -182.84 -183.04 -182.73 -176.89 -181.42 -177.54 -178.95 -172.47 -175.49 -169.99 -172.09 -170.48 -179.05 -179.76 -182.36 -182.08 -265.18 -263.19 -267.01 -262.58 -267.24 -264.49 -263.98 -260.45 -270.18 -267.12 -260.74 -268.97 -267.11 -212.93 -214.95 -217.64 -221.16 -232.11 -238.10 -388.36 -571.36 -640.00 -797.58 -1026.43 -1166.01 -1258.73 -1227.60 -1205.68 -1244.89 -1426.84 -1449.80 -1455.33 -1498.96 -1508.52 -1552.90 -1627.69 -1649.16 -1756.25 -1786.67 -1863.33 -1970.73 -1975.10 -2025.98 -2007.81 -2010.48
441.21 433.83 495.63 192.93 243.27 279.73 331.44 319.10 271.45 155.87 92.23 71.98 47.33 724.85 699.69 690.75 699.94 707.11 695.36 674.94 667.22 641.80 642.05 651.25 687.60 693.98 218.13 239.71 211.44 205.61 187.62 189.37 136.23 106.90 109.99 95.14 106.86 104.90 129.19 -127.97 -106.52 -95.90 -103.33 -105.32 -100.25 -93.10 -80.21 -81.00 -84.04 -109.38 -122.40 -136.04 -142.87 -154.67 -146.24 -140.37 -143.62 -159.98 -171.33 -160.15 -153.30 -160.43 -168.62 -172.47 -178.66 -173.30 -172.04 -166.98 -169.87 -177.11 -177.01 -180.05 -187.01 -181.96 -179.29 -184.55 -185.45 -190.57 -178.91 -186.81 -180.53 -181.80 -176.98 -177.41 -178.99 -172.91 -185.80 -182.10 -181.27 -180.88 -186.82 -261.45 -267.16 -263.21 -258.86 -262.46 -258.42 -266.22 -264.42 -264.03 -260.97 -264.21 -261.91 -267.45 -216.65 -215.94 -209.33 -217.40 -225.12 -230.30 -264.90 -472.32 -587.91 -834.23 -1032.64 -1195.40 -1217.43 -1154.13 -1155.09 -1169.24 -1359.05 -1341.18 -1344.61 -1405.70 -1384.55 -1431.24 -1499.58 -1546.83 -1668.78 -1702.55 -1751.17 -1815.72 -1883.34 -1922.29 -1943.21 -1942.12
689.73 688.63 483.22 332.73 288.22 340.68 373.09 361.54 306.81 207.10 111.08 92.41 18.90 708.58 690.88 679.07 679.25 686.92 692.72 686.02 659.43 637.18 629.19 638.09 652.55 680.28 209.60 212.88 180.04 179.78 163.25 128.52 118.50 98.36 105.19 102.24 113.49 120.77 136.72 -120.02 -107.59 -90.17 -94.75 -80.53 -74.96 -75.37 -79.31 -81.60 -94.67 -104.43 -119.14 -126.98 -144.72 -142.61 -130.96 -138.63 -151.88 -155.94 -166.74 -166.36 -167.07 -167.00 -166.36 -168.38 -187.09 -183.54 -176.07 -161.57 -170.42 -172.56 -183.34 -178.96 -183.77 -181.02 -187.05 -188.89 -183.72 -191.25 -181.82 -190.26 -191.25 -186.28 -185.22 -187.16 -188.56 -183.93 -180.72 -186.03 -187.19 -192.96 -186.89 -267.51 -263.08 -264.01 -257.78 -263.49 -261.08 -261.29 -267.69 -269.20 -265.33 -263.89 -261.25 -267.33 -215.53 -209.80 -215.28 -216.18 -219.76 -230.42 -343.23 -440.77 -673.91 -874.47 -1064.68 -1180.07 -1173.08 -1141.29 -1110.12 -1085.80 -1266.53 -1297.19 -1253.71 -1285.10 -1348.64 -1349.44 -1361.52 -1469.63 -1521.57 -1581.61 -1673.22 -1702.06 -1784.89 -1872.42 -1862.68 -1856.17
737.93 737.18 636.97 405.51 361.38 391.56 414.82 402.42 336.70 216.13 146.78 68.77 -0.27 -30.60 -51.29 -75.00 -71.44 -70.10 -75.43 -84.48 -83.59 -99.71 -110.31 -109.65 -92.04 -72.76 25.80 24.00 11.85 -12.39 -28.50 -43.50 -50.19 -47.77 -51.95 -48.46 -27.31 -14.92 -2.48 43.71 75.09 95.03 87.51 90.81 101.27 94.24 89.83 85.23 74.68 60.71 43.47 33.62 -127.48 -118.73 -113.78 -127.83 -134.81 -151.63 -150.00 -146.59 -156.11 -152.81 -146.93 -157.18 -169.07 -173.36 -170.80 -172.55 -163.56 -167.49 -163.10 -175.25 -177.46 -171.29 -170.86 -164.59 -165.80 -174.64 -216.87 -209.68 -211.57 -215.85 -216.51 -208.72 -214.92 -215.33 -215.75 -212.45 -215.85 -215.86 -214.65 -251.61 -249.98 -250.52 -243.42 -239.99 -242.33 -243.29 -246.45 -246.44 -246.67 -241.59 -243.29 -242.87 -215.74 -218.51 -217.14 -219.42 -221.59 -237.42 -372.95 -516.33 -753.44 -899.17 -1061.24 -1136.71 -1148.31 -1099.31 -1056.35 -1049.39 -1084.10 -1075.01 -1089.27 -1094.75 -1090.05 -1077.26 -1077.77 -1164.13 -1249.22 -1298.16 -1391.76 -1512.81 -1516.23 -1649.26 -1648.22 -1647.55
912.57 910.18 710.60 446.87 445.11 481.77 448.58 386.75 290.32 252.83 134.45 56.75 -2.81 -39.20 -47.58 -62.69 -76.50 -84.93 -94.87 -98.07 -101.16 -120.56 -127.06 -115.39 -98.07 -93.65 17.81 11.15 -2.69 -20.06 -32.37 -53.55 -47.32 -40.65 -35.83 -28.26 -18.67 -0.00 20.64 90.55 82.96 99.45 96.80 100.75 102.90 100.40 84.71 85.04 79.55 63.22 40.28 43.84 -124.07 -110.40 -108.47 -119.44 -131.93 -130.88 -143.20 -135.69 -153.41 -152.17 -140.07 -145.77 -161.32 -169.60 -172.48 -174.84 -178.36 -173.45 -167.87 -174.49 -170.84 -169.20 -163.90 -164.20 -161.32 -175.96 -202.33 -210.73 -208.94 -214.43 -214.66 -211.33 -207.33 -206.73 -213.02 -201.07 -214.02 -216.65 -216.55 -242.09 -246.58 -245.87 -243.06 -237.94 -244.36 -245.76 -244.03 -248.77 -246.83 -246.12 -245.36 -244.99 -216.67 -219.97 -216.57 -219.56 -228.57 -231.56 -354.03 -594.30 -825.29 -863.59 -1014.65 -1052.96 -1115.71 -1055.65 -1040.97 -1029.10 -1084.87 -1044.90 -1024.66 -1016.66 -1020.63 -1049.21 -1057.93 -1051.58 -1094.34 -1212.52 -1328.03 -1393.07 -1455.99 -1482.63 -1563.48 -1560.71
897.02 901.48 685.31 574.35 520.58 512.44 461.87 370.82 317.35 180.32 115.28 28.30 28.81 -26.37 -52.06 -53.73 -72.67 -76.35 -100.46 -107.40 -114.81 -111.11 -118.71 -128.26 -125.88 -116.51 -2.88 -10.68 -13.89 -36.24 -39.93 -42.53 -34.06 -26.42 -33.65 8.46 6.60 32.68 47.31 106.25 106.04 115.77 102.01 100.26 102.91 98.38 83.00 73.62 67.16 62.35 53.58 36.96 -115.27 -115.35 -109.14 -118.89 -126.13 -121.93 -114.99 -129.16 -139.01 -143.39 -137.36 -139.70 -154.98 -165.96 -157.19 -164.00 -170.46 -172.71 -183.67 -174.86 -167.01 -161.90 -156.46 -160.84 -154.81 -153.75 -199.36 -199.73 -200.93 -210.37 -205.24 -206.15 -212.52 -213.07 -209.78 -209.92 -209.50 -211.01 -215.61 -243.58 -244.52 -242.13 -247.98 -234.14 -242.13 -237.70 -244.50 -247.92 -238.69 -253.31 -245.40 -250.73 -214.83 -223.53 -217.65 -221.74 -226.60 -241.36 -242.28 -557.20 -785.14 -840.46 -950.30 -1077.87 -1090.88 -1047.17 -1021.60 -994.44 -1035.64 -1029.93 -980.43 -986.77 -944.47 -962.37 -967.54 -990.63 -1056.19 -1082.75 -1174.76 -1376.33 -1377.35 -1475.57 -1485.01 -1482.85
802.30 801.81 813.89 474.68 499.87 441.93 331.29 308.65 271.68 241.34 120.62 113.11 52.80 37.28 -1.07 -28.52 -42.46 -70.25 -83.94 -97.54 -95.22 -113.45 -121.52 -121.98 -129.03 -121.44 -22.83 -25.81 -31.58 -40.40 -46.64 -43.94 -20.34 1.68 17.16 36.86 20.07 48.33 73.24 139.43 121.98 103.98 102.59 96.59 92.03 83.96 61.17 61.24 61.51 63.09 58.20 48.91 -116.98 -101.85 -105.17 -103.15 -113.59 -118.40 -110.42 -119.70 -127.44 -136.64 -134.12 -129.74 -135.43 -141.19 -151.63 -158.77 -162.05 -173.03 -179.78 -172.75 -168.45 -156.89 -159.16 -152.43 -141.76 -149.98 -190.00 -192.87 -201.50 -200.84 -203.58 -210.27 -201.93 -210.99 -210.25 -211.15 -207.00 -212.79 -212.85 -245.95 -240.01 -246.91 -239.37 -242.37 -244.09 -243.44 -254.25 -242.61 -247.13 -244.31 -240.58 -247.76 -222.42 -218.23 -216.84 -224.79 -231.32 -238.99 -259.66 -622.01 -850.30 -869.05 -932.76 -1058.90 -1072.21 -1013.45 -999.58 -979.53 -984.96 -947.28 -921.70 -929.08 -903.49 -893.63 -899.82 -900.55 -973.58 -1004.77 -1073.78 -1187.15 -1285.83 -1360.79 -1413.52 -1409.62
744.26 746.82 610.25 448.93 385.04 349.57 232.76 270.22 325.25 329.38 263.07 146.17 130.52 64.23 42.72 9.99 -2.39 -43.40 -60.97 -76.17 -97.14 -94.90 -95.91 -125.80 -130.13 -130.29 -40.10 -34.58 -44.97 -43.11 -41.11 -30.53 -13.88 14.33 18.52 56.41 53.94 67.20 78.42 136.58 112.22 101.39 95.51 94.80 85.04 66.68 62.36 61.87 57.97 64.52 65.60 62.53 -109.31 -101.59 -87.99 -97.40 -102.86 -106.77 -98.32 -109.84 -122.46 -127.20 -137.90 -131.84 -134.41 -139.99 -138.12 -148.71 -157.22 -169.80 -175.52 -172.94 -161.11 -163.41 -145.93 -147.84 -146.16 -151.59 -187.40 -188.61 -193.16 -199.03 -207.63 -204.93 -209.07 -218.72 -211.91 -215.66 -209.75 -209.34 -212.76 -243.75 -251.10 -242.10 -240.77 -247.80 -248.93 -246.66 -249.39 -246.58 -248.06 -246.51 -247.96 -245.32 -217.14 -227.16 -221.82 -228.61 -238.29 -246.71 -273.86 -509.12 -757.77 -868.25 -981.61 -1036.44 -1046.58 -1001.91 -999.30 -934.70 -956.80 -936.94 -911.97 -865.62 -853.79 -857.85 -859.61 -884.60 -921.22 -935.86 -967.27 -1081.09 -1200.59 -1316.89 -1346.03 -1350.88
732.90 739.57 557.78 387.50 266.41 204.14 226.54 246.59 327.76 327.87 264.00 188.92 150.80 77.11 36.90 16.13 18.30 0.93 -16.70 -55.97 -70.42 -70.27 -78.40 -97.92 -120.42 -130.09 -31.66 -40.12 -34.24 -43.97 -39.82 -29.36 -6.28 5.25 44.22 63.73 88.63 92.99 91.01 130.08 104.58 97.96 97.08 80.45 73.19 66.91 64.97 64.14 65.37 76.34 76.88 70.91 -114.60 -100.51 -92.85 -92.30 -96.66 -101.85 -108.40 -112.45 -116.45 -129.69 -135.03 -136.58 -140.92 -142.23 -141.18 -154.22 -166.08 -174.09 -177.29 -159.71 -144.65 -148.39 -141.91 -140.74 -143.52 -148.03 -184.22 -188.23 -185.39 -202.12 -204.44 -217.59 -213.76 -213.25 -214.99 -212.40 -214.75 -215.27 -210.18 -245.22 -249.42 -243.72 -241.90 -242.86 -248.87 -239.11 -247.74 -244.99 -245.62 -248.20 -244.72 -251.72 -217.89 -228.52 -230.00 -234.58 -233.44 -267.51 -296.83 -426.72 -668.69 -910.10 -990.46 -1003.71 -1037.28 -975.12 -956.66 -910.44 -936.28 -918.01 -869.50 -828.88 -804.22 -797.36 -813.12 -817.60 -862.66 -885.70 -952.47 -1038.85 -1102.82 -1303.30 -1299.37 -1297.89
549.77 554.33 592.75 271.23 253.44 193.97 160.05 211.29 292.43 296.51 240.38 228.31 208.74 127.82 98.54 48.84 61.91 43.79 5.70 -18.71 -32.80 -35.34 -71.19 -94.93 -109.41 -102.91 -23.56 -33.80 -28.07 -27.16 -25.21 -15.59 8.57 10.54 44.05 78.66 100.30 92.61 88.56 124.65 102.80 90.17 87.56 80.78 71.99 69.42 77.42 78.20 89.48 88.99 81.37 74.50 -102.55 -101.34 -89.17 -86.68 -101.47 -106.31 -104.20 -119.50 -129.75 -132.02 -152.48 -154.32 -153.16 -156.22 -159.02 -155.63 -163.99 -162.50 -163.13 -160.47 -147.25 -141.95 -144.12 -135.67 -141.07 -145.44 -177.68 -193.36 -193.99 -203.05 -200.14 -208.89 -213.16 -216.53 -213.91 -215.26 -210.27 -216.95 -213.84 -239.54 -248.39 -248.10 -250.35 -244.79 -252.96 -247.86 -251.10 -247.38 -244.02 -239.00 -247.88 -252.87 -211.88 -219.11 -225.21 -238.09 -232.83 -267.09 -296.26 -463.28 -574.68 -799.18 -945.41 -974.99 -998.34 -962.12 -941.12 -898.24 -912.80 -898.12 -864.27 -813.40 -790.72 -784.91 -780.77 -769.22 -801.42 -845.35 -916.52 -1011.68 -1097.01 -1194.46 -1253.44 -1253.31
497.49 500.64 360.99 276.23 214.79 161.09 136.57 195.89 232.81 219.87 212.26 221.59 233.02 159.87 116.85 65.61 71.79 65.41 4.89 -20.84 -32.37 -67.14 -79.56 -109.47 -96.42 -91.15 -6.54 -2.20 -8.17 -12.83 -9.12 -6.02 13.13 19.64 52.67 85.21 92.87 95.30 79.78 110.03 94.60 87.66 80.97 71.82 70.70 79.30 92.55 100.72 102.71 100.03 95.01 79.47 -98.55 -86.39 -90.30 -91.93 -104.12 -113.00 -120.29 -130.47 -134.24 -148.49 -149.03 -150.07 -154.77 -149.99 -157.45 -159.33 -150.21 -154.85 -155.09 -145.10 -151.43 -142.85 -134.61 -139.88 -149.20 -150.30 -192.25 -196.97 -202.19 -201.17 -212.31 -213.63 -212.04 -210.51 -211.90 -210.98 -208.97 -214.11 -213.70 -246.44 -245.41 -248.77 -244.49 -247.59 -241.51 -245.19 -243.88 -244.86 -246.21 -242.00 -254.00 -253.12 -222.12 -220.67 -213.27 -230.37 -231.22 -257.27 -353.63 -398.92 -580.36 -761.67 -933.38 -957.26 -987.90 -955.48 -910.41 -875.68 -881.42 -863.96 -806.87 -760.11 -762.25 -737.96 -741.60 -766.48 -803.14 -838.34 -859.27 -983.68 -1035.79 -1169.38 -1214.17 -1210.49
487.66 485.27 365.79 237.49 169.11 115.21 134.42 176.57 203.70 191.53 165.45 190.10 207.32 196.16 161.44 107.99 79.14 55.75 -10.97 -60.59 -62.49 -84.40 -90.28 -94.45 -75.45 -59.83 10.96 -2.09 4.15 12.46 5.23 6.86 19.70 35.16 53.38 78.89 96.16 88.99 68.91 102.74 93.49 90.03 80.56 74.26 81.34 89.59 98.45 109.11 126.09 109.67 103.43 91.22 -83.41 -84.23 -94.57 -98.75 -108.23 -112.46 -121.07 -137.67 -141.72 -139.42 -134.14 -137.42 -139.28 -148.60 -155.53 -156.64 -142.71 -150.40 -141.48 -151.72 -146.30 -144.16 -142.93 -145.81 -150.44 -156.31 -198.06 -200.29 -207.48 -203.61 -213.49 -217.40 -216.86 -207.46 -207.37 -205.92 -200.29 -202.93 -211.08 -245.98 -252.72 -241.26 -245.83 -247.09 -236.75 -242.10 -242.99 -242.35 -248.20 -250.05 -249.33 -247.56 -215.81 -217.81 -222.04 -229.95 -232.86 -242.67 -332.79 -483.31 -604.06 -690.53 -891.56 -920.35 -956.33 -912.32 -875.35 -832.62 -854.08 -840.14 -771.47 -759.19 -722.19 -724.44 -723.67 -726.17 -771.02 -793.98 -836.66 -926.19 -959.06 -1171.77 -1168.08 -1170.85
539.85 544.65 414.14 253.37 179.51 110.18 102.96 118.37 144.92 138.15 138.69 151.54 196.16 182.38 155.76 98.10 91.83 61.81 -6.78 -76.32 -72.39 -77.33 -71.31 -79.07 -67.26 -71.58 24.88 11.40 25.56 37.41 41.87 36.33 23.96 46.00 68.49 90.76 98.73 89.18 75.10 108.74 95.47 83.79 84.51 88.45 98.61 98.40 111.93 132.25 128.40 121.28 104.25 101.57 -74.78 -81.35 -89.41 -102.76 -108.31 -130.25 -131.35 -129.00 -135.10 -126.97 -127.62 -119.42 -134.34 -141.31 -139.50 -139.76 -128.96 -142.07 -146.19 -147.43 -151.07 -141.87 -149.49 -140.04 -153.04 -162.26 -205.15 -204.83 -202.86 -214.85 -216.04 -212.43 -213.74 -211.27 -201.42 -194.96 -191.90 -206.64 -212.32 -248.24 -247.07 -246.02 -237.18 -231.30 -233.61 -241.63 -242.90 -239.39 -246.79 -243.97 -248.27 -250.86 -214.90 -215.91 -222.19 -219.25 -234.31 -244.35 -306.81 -457.90 -527.31 -660.93 -787.86 -816.60 -880.18 -882.60 -858.58 -795.26 -823.37 -776.86 -731.24 -678.02 -687.29 -693.77 -686.85 -690.92 -728.53 -748.96 -806.40 -846.46 -936.27 -1022.12 -1115.62 -1117.05
501.76 504.72 388.36 254.97 219.99 128.75 73.03 75.48 56.14 79.59 119.27 158.65 198.09 186.71 153.41 96.56 62.42 7.29 -29.62 -53.76 -49.89 -63.17 -39.49 -49.86 -32.27 -56.70 33.44 17.86 31.71 54.57 68.63 67.40 52.92 64.17 88.71 107.65 98.55 82.14 77.66 100.20 100.23 96.40 98.26 98.61 104.46 116.56 123.58 146.12 145.58 139.63 125.74 108.85 -78.56 -82.13 -87.57 -100.73 -94.50 -104.33 -120.84 -128.05 -121.97 -125.91 -112.17 -122.31 -122.21 -127.38 -129.72 -133.68 -137.56 -137.57 -148.64 -161.43 -156.93 -164.77 -154.01 -154.43 -155.81 -158.13 -204.84 -211.07 -208.42 -207.79 -214.49 -213.22 -218.07 -210.81 -194.80 -185.78 -192.59 -200.33 -211.61 -237.06 -239.33 -235.13 -233.26 -233.77 -230.51 -238.82 -238.69 -245.71 -246.28 -246.60 -247.44 -243.25 -214.32 -218.97 -215.29 -218.80 -227.93 -243.14 -251.24 -336.47 -398.58 -589.20 -637.90 -714.22 -809.26 -773.83 -773.37 -780.69 -773.69 -747.49 -694.17 -675.64 -640.08 -657.46 -660.44 -681.06 -706.36 -748.50 -758.31 -794.21 -886.03 -1016.43 -1050.40 -1053.60
460.32 460.01 373.68 251.11 228.41 148.02 79.72 63.50 52.08 78.66 114.10 179.30 196.24 191.34 184.05 117.57 54.52 1.34 5.96 -24.10 -23.79 -36.18 -21.83 -18.54 -25.05 -31.60 49.74 35.65 45.03 48.84 76.95 77.76 76.18 92.58 119.24 122.01 110.21 90.57 82.86 117.05 114.01 106.90 104.95 120.89 128.77 122.28 135.49 154.07 167.17 141.72 128.18 102.51 -75.05 -86.57 -82.54 -100.11 -92.14 -102.47 -118.36 -123.04 -121.04 -114.40 -114.12 -117.55 -117.82 -127.97 -126.54 -132.69 -141.79 -138.74 -156.75 -162.56 -167.17 -160.09 -160.66 -161.30 -157.73 -161.88 -199.10 -211.95 -210.03 -213.68 -203.12 -202.45 -208.29 -201.91 -197.59 -188.83 -191.45 -192.98 -201.67 -237.04 -232.78 -232.68 -234.52 -234.61 -234.60 -236.88 -241.91 -234.23 -249.75 -249.09 -240.98 -245.25 -213.92 -212.52 -217.08 -219.06 -227.63 -231.83 -240.90 -244.95 -253.28 -342.38 -399.58 -444.11 -603.26 -706.06 -734.30 -718.94 -736.29 -680.21 -653.86 -635.13 -629.49 -607.27 -621.66 -639.43 -637.32 -676.58 -705.75 -761.50 -779.62 -983.54 -980.26 -976.04
617.69 613.23 523.29 387.77 333.46 321.35 272.64 228.92 210.66 246.71 270.23 341.30 395.10 590.46 576.57 539.62 469.75 418.99 390.40 376.55 364.62 365.63 370.06 397.20 389.56 371.93 277.17 249.88 250.34 269.52 286.91 305.56 306.51 333.31 344.65 340.89 319.43 313.07 291.67 45.87 33.59 19.86 19.23 39.02 56.39 58.06 65.70 73.15 75.99 57.66 16.21 -1.83 -59.51 -69.14 -81.62 -72.95 -76.16 -81.80 -98.32 -113.09 -117.95 -101.61 -95.37 -96.61 -104.16 -122.76 -124.29 -129.16 -126.27 -139.26 -151.73 -157.33 -161.27 -162.12 -159.17 -156.88 -165.31 -169.70 -175.50 -180.67 -165.96 -166.58 -167.91 -166.85 -162.05 -162.45 -150.97 -153.30 -154.81 -152.79 -157.96 -177.95 -179.92 -184.27 -186.50 -183.57 -187.78 -190.33 -196.61 -201.10 -201.10 -196.62 -200.09 -202.80 -174.30 -175.94 -176.14 -180.00 -182.92 -173.85 -190.31 -189.49 -198.46 -206.42 -217.30 -313.34 -380.59 -578.85 -667.37 -673.72 -871.87 -843.17 -804.88 -772.92 -771.32 -766.11 -768.69 -793.37 -777.79 -817.49 -836.17 -902.25 -966.17 -1046.34 -1102.77 -1104.81
536.72 537.62 535.24 377.20 305.00 284.81 245.10 226.86 208.13 237.61 283.00 341.70 358.12 589.92 567.13 545.16 511.02 470.14 456.30 413.98 402.81 405.81 399.16 413.26 427.29 408.34 297.67 261.98 259.31 275.33 300.75 337.02 344.80 356.86 368.46 345.36 321.10 305.63 311.15 55.63 46.33 31.31 36.69 61.67 71.98 65.55 76.01 76.03 68.94 27.98 -2.51 -11.48 -72.80 -81.33 -93.18 -91.45 -85.77 -88.71 -97.37 -119.81 -122.49 -122.95 -116.97 -105.84 -113.30 -137.82 -137.37 -129.80 -133.76 -135.65 -150.20 -160.58 -159.08 -162.92 -168.64 -163.26 -169.33 -168.83 -170.50 -165.77 -163.75 -159.03 -158.38 -158.84 -152.54 -152.80 -153.56 -151.76 -144.64 -156.97 -160.24 -183.06 -180.42 -186.13 -189.27 -186.86 -190.63 -199.68 -190.89 -192.79 -197.91 -191.14 -202.56 -196.50 -172.83 -171.11 -170.20 -170.81 -178.71 -182.76 -175.73 -179.54 -179.69 -188.71 -218.67 -235.26 -339.88 -377.71 -635.39 -597.06 -844.16 -773.16 -748.56 -738.35 -723.24 -715.41 -734.54 -732.64 -757.03 -754.18 -807.57 -864.30 -899.65 -1011.15 -1032.74 -1026.27
444.03 440.81 459.50 299.86 270.26 265.78 235.34 194.66 201.91 230.24 275.74 316.02 354.02 541.76 551.89 545.73 531.88 512.09 483.53 454.37 466.24 478.72 458.20 453.95 426.09 420.37 318.28 296.83 271.06 289.61 340.92 378.13 384.79 379.89 358.76 322.54 305.68 298.56 319.21 76.97 59.06 61.33 59.86 63.52 63.69 55.14 60.09 52.96 43.54 19.42 -11.72 -14.06 -91.12 -91.39 -101.59 -95.01 -85.27 -85.99 -104.78 -120.26 -129.32 -126.98 -116.00 -119.28 -130.19 -155.71 -152.50 -148.87 -138.42 -143.67 -152.84 -160.74 -159.20 -154.24 -160.53 -161.50 -163.36 -159.56 -175.52 -170.09 -151.86 -153.95 -149.54 -148.05 -144.62 -147.65 -141.89 -147.49 -144.99 -150.95 -153.76 -178.28 -182.72 -182.23 -189.68 -189.36 -196.02 -195.60 -195.13 -194.56 -201.84 -196.20 -193.14 -203.06 -176.62 -174.99 -178.20 -174.90 -176.82 -180.08 -178.41 -175.59 -179.64 -178.89 -200.72 -217.77 -235.96 -316.18 -421.40 -508.64 -768.20 -754.17 -735.13 -699.57 -708.88 -695.53 -687.26 -692.64 -714.60 -727.19 -746.77 -775.62 -831.46 -883.93 -955.34 -957.37
409.25 414.61 344.90 261.74 248.30 246.07 220.41 201.80 196.22 212.17 263.73 296.58 319.79 527.82 542.12 553.10 537.55 523.74 551.51 554.94 557.21 513.79 514.34 482.42 456.50 453.81 360.26 332.31 347.23 362.43 417.51 412.88 406.98 376.89 344.21 296.43 286.73 297.75 309.30 66.94 54.12 51.53 52.80 46.07 55.27 47.70 37.79 16.11 11.12 -3.57 -13.11 -28.40 -86.94 -98.65 -107.61 -97.62 -106.96 -110.89 -112.59 -124.21 -127.38 -128.39 -133.77 -132.40 -142.22 -156.55 -161.12 -157.17 -154.85 -149.58 -155.09 -158.86 -155.53 -152.73 -152.65 -149.55 -156.96 -161.39 -170.17 -159.91 -151.98 -147.26 -139.77 -136.09 -144.33 -142.84 -145.12 -142.92 -145.05 -148.49 -153.53 -174.58 -186.92 -186.77 -191.29 -198.00 -191.69 -192.78 -195.94 -198.12 -202.89 -195.85 -195.22 -203.70 -171.33 -179.77 -179.22 -176.05 -181.02 -176.76 -179.14 -176.37 -176.35 -172.61 -173.43 -201.03 -231.33 -312.29 -371.21 -501.45 -734.67 -707.01 -686.12 -679.68 -674.04 -670.43 -677.37 -675.34 -699.55 -717.11 -722.27 -764.81 -810.41 -884.18 -890.41 -888.14
408.56 413.75 345.69 254.61 233.68 219.12 207.55 196.42 183.09 205.26 239.43 297.74 311.36 508.98 500.04 508.78 537.09 563.24 585.06 604.11 576.60 518.20 514.94 496.75 485.17 487.06 401.55 383.86 379.96 441.12 433.14 429.64 384.96 370.50 319.52 275.47 265.95 273.54 301.35 52.43 39.78 35.46 19.64 35.72 38.35 42.20 21.27 1.46 -15.39 -16.93 -21.60 -30.33 -93.62 -97.15 -104.82 -116.86 -124.84 -124.18 -132.00 -127.39 -130.87 -127.84 -126.77 -137.90 -144.68 -153.76 -166.72 -160.48 -157.06 -158.35 -159.85 -153.79 -153.48 -138.00 -136.70 -141.29 -148.50 -143.51 -157.61 -153.02 -147.27 -142.38 -143.87 -139.53 -136.36 -137.33 -141.86 -147.98 -154.43 -157.49 -156.38 -181.45 -182.45 -191.94 -191.14 -191.50 -191.68 -187.86 -192.21 -192.54 -200.81 -205.60 -201.39 -198.89 -171.71 -176.90 -172.27 -177.17 -177.86 -173.15 -178.76 -179.90 -179.20 -174.05 -176.54 -191.33 -217.97 -231.70 -362.24 -405.74 -707.21 -673.75 -662.94 -639.08 -646.94 -645.57 -658.66 -673.95 -678.10 -694.27 -709.90 -753.24 -777.92 -827.70 -846.67 -843.35
399.24 395.34 323.46 221.74 222.64 190.02 183.26 182.39 190.32 217.96 229.08 271.76 282.87 467.72 474.83 471.65 541.03 580.21 590.34 601.94 566.31 537.62 518.49 478.28 469.71 492.06 407.08 411.91 432.55 452.03 467.68 417.16 346.58 332.43 290.16 256.25 251.33 252.97 249.42 16.83 2.28 7.01 -7.40 8.92 16.87 11.85 -0.84 -25.94 -31.79 -38.25 -37.20 -42.22 -90.77 -99.80 -106.94 -117.23 -117.07 -126.74 -134.71 -125.98 -118.41 -131.33 -134.49 -144.55 -133.61 -142.70 -147.74 -156.46 -148.14 -141.97 -143.23 -148.34 -139.84 -131.72 -132.66 -128.86 -141.36 -131.48 -142.54 -147.69 -144.01 -140.79 -143.09 -141.66 -142.38 -149.04 -149.20 -151.16 -154.99 -162.27 -161.52 -192.95 -189.55 -189.70 -190.38 -186.39 -190.93 -194.37 -188.87 -197.33 -197.41 -198.56 -201.51 -200.46 -174.79 -168.65 -173.03 -170.74 -178.50 -175.07 -176.54 -171.15 -174.78 -178.28 -172.56 -187.02 -200.28 -232.87 -278.66 -330.76 -671.86 -634.96 -630.41 -619.07 -616.12 -620.48 -627.55 -657.17 -665.10 -686.15 -707.64 -733.45 -751.99 -787.39 -811.15 -810.15
399.98 404.58 336.35 218.77 187.12 186.19 181.54 168.87 179.34 206.18 216.22 230.25 224.58 435.82 437.84 471.58 495.98 562.57 573.28 556.05 534.43 514.11 478.93 460.67 441.90 457.48 402.47 406.54 424.34 456.75 469.86 452.09 400.56 314.05 290.86 255.36 245.90 235.97 248.47 4.30 2.78 -8.48 -6.74 -8.12 4.03 -13.46 -24.13 -26.26 -40.29 -46.82 -48.15 -45.12 -93.88 -106.20 -116.95 -109.07 -112.57 -116.18 -123.25 -115.08 -116.15 -122.52 -126.55 -131.61 -129.37 -130.27 -145.21 -149.09 -134.80 -129.92 -132.88 -127.27 -121.52 -123.98 -124.97 -123.96 -123.62 -131.48 -137.15 -139.02 -145.92 -140.04 -144.77 -140.56 -144.19 -149.05 -152.66 -153.12 -160.70 -164.70 -173.12 -189.59 -191.78 -194.09 -186.37 -187.42 -194.63 -188.38 -192.67 -198.19 -196.64 -198.36 -204.26 -196.89 -174.42 -168.39 -176.04 -176.54 -175.91 -179.20 -177.31 -178.17 -182.57 -169.52 -179.45 -180.62 -198.31 -221.07 -276.57 -319.75 -616.18 -607.27 -583.10 -585.59 -597.65 -606.37 -628.89 -637.90 -660.61 -680.47 -710.99 -734.26 -762.36 -818.64 -799.92 -799.71
460.10 455.92 342.96 219.31 209.18 195.82 198.41 197.46 185.19 167.21 179.90 190.64 199.61 391.58 421.40 448.51 482.33 498.67 484.53 471.87 460.58 459.51 431.93 416.36 404.97 440.08 373.87 394.78 413.19 433.73 473.70 442.72 374.17 317.19 294.17 259.50 249.30 238.55 237.30 -10.89 -19.41 -29.36 -26.18 -20.24 -18.69 -22.62 -36.10 -46.31 -41.06 -49.41 -48.07 -45.79 -107.75 -113.36 -110.16 -98.34 -90.43 -94.06 -104.82 -115.88 -99.17 -111.19 -118.29 -107.38 -111.04 -136.38 -141.80 -139.88 -133.18 -128.57 -111.41 -122.53 -122.08 -127.06 -119.98 -124.28 -126.86 -130.57 -138.14 -143.39 -139.98 -143.64 -146.31 -150.60 -150.31 -155.68 -154.10 -156.27 -164.59 -170.00 -174.87 -196.46 -192.01 -190.28 -191.83 -190.66 -189.22 -190.99 -201.82 -201.47 -206.47 -199.02 -200.05 -201.09 -172.40 -176.90 -178.66 -175.05 -176.03 -179.71 -177.49 -178.94 -173.58 -181.85 -175.28 -175.99 -179.85 -215.09 -241.79 -270.97 -560.50 -555.03 -567.09 -547.52 -552.07 -560.23 -576.85 -623.92 -641.57 -688.51 -702.81 -741.47 -787.57 -837.45 -833.28 -836.34
420.77 410.43 341.58 225.31 219.55 230.66 246.05 219.89 193.73 181.52 167.00 175.08 173.19 377.66 409.12 425.42 437.84 433.72 436.85 440.70 441.42 429.79 392.31 385.03 388.09 410.86 365.35 379.33 367.37 403.54 440.10 423.53 379.51 318.34 292.62 269.91 274.17 238.12 238.83 -4.45 -9.49 -22.14 -25.36 -25.07 -35.12 -37.60 -40.48 -46.57 -47.89 -48.02 -50.61 -41.13 -106.58 -108.44 -104.04 -99.68 -84.79 -90.93 -91.96 -98.60 -87.86 -93.40 -95.08 -97.01 -107.53 -124.78 -131.98 -129.37 -120.99 -112.61 -113.44 -105.93 -113.78 -125.20 -122.30 -120.93 -129.73 -134.98 -139.07 -140.67 -147.03 -142.36 -145.93 -158.95 -160.27 -154.99 -157.50 -155.13 -156.21 -171.50 -175.79 -197.77 -198.29 -191.10 -196.19 -199.14 -201.97 -201.36 -196.14 -202.47 -200.63 -195.01 -199.36 -200.29 -178.76 -175.53 -175.53 -169.86 -181.56 -177.46 -178.13 -176.42 -174.91 -184.18 -177.82 -178.03 -178.00 -193.79 -233.63 -269.33 -550.70 -544.21 -515.98 -534.59 -521.54 -539.16 -559.76 -575.00 -641.21 -664.64 -695.37 -793.56 -801.04 -841.66 -891.75 -888.73
449.87 445.03 467.66 284.71 263.08 277.13 263.20 252.85 202.02 178.24 176.17 165.44 171.09 368.79 404.52 409.60 420.37 420.05 412.51 423.93 454.92 441.22 402.70 383.65 367.69 386.90 332.66 331.64 329.74 374.02 423.47 394.15 394.34 346.00 305.32 312.56 339.04 299.76 277.74 28.12 25.31 9.22 -10.73 -11.41 -22.66 -25.85 -26.73 -32.32 -36.28 -39.08 -20.23 -28.95 -89.96 -103.31 -95.40 -89.63 -82.58 -74.80 -70.56 -79.81 -92.66 -83.32 -80.79 -84.88 -101.71 -117.75 -125.31 -121.52 -122.18 -106.62 -106.46 -101.95 -108.27 -121.21 -122.39 -126.02 -134.18 -135.64 -151.68 -146.97 -150.99 -152.91 -155.41 -162.50 -169.34 -167.03 -158.78 -150.97 -159.96 -163.51 -179.19 -199.17 -192.59 -194.51 -202.37 -197.73 -200.13 -203.02 -200.61 -195.74 -200.22 -200.21 -201.99 -198.52 -175.05 -171.91 -179.14 -175.57 -175.62 -176.26 -174.29 -176.62 -181.30 -176.06 -177.68 -175.31 -179.06 -188.52 -226.27 -255.03 -519.23 -489.11 -501.43 -485.79 -512.26 -502.85 -535.57 -566.70 -620.86 -657.31 -728.36 -795.51 -850.09 -875.50 -904.99 -902.01
517.75 517.51 509.23 327.51 281.78 298.25 290.47 244.07 199.41 187.19 162.52 150.93 156.31 359.87 377.88 373.92 389.60 394.01 408.56 438.39 461.93 466.67 416.82 378.11 366.68 358.20 303.95 309.46 312.90 359.05 396.08 412.34 388.08 363.17 340.63 340.60 347.49 339.10 323.70 60.61 56.94 29.57 6.89 -6.73 -15.91 -20.38 -15.69 -20.29 -24.31 -26.56 -15.78 -1.21 -61.45 -65.65 -66.01 -71.51 -67.85 -56.38 -57.34 -72.19 -80.91 -81.96 -65.72 -69.56 -100.67 -109.35 -101.09 -98.17 -108.12 -98.66 -107.59 -103.54 -113.97 -117.74 -127.28 -137.32 -139.59 -141.43 -153.71 -157.59 -146.99 -158.28 -163.58 -172.32 -169.12 -163.17 -166.18 -161.84 -160.11 -168.27 -174.03 -200.17 -194.95 -195.96 -198.38 -196.27 -197.68 -195.52 -199.74 -193.87 -191.15 -193.15 -197.17 -198.96 -173.49 -173.21 -173.55 -168.90 -173.14 -174.32 -176.56 -182.35 -172.94 -175.32 -174.67 -177.43 -176.82 -183.13 -201.14 -213.17 -457.52 -459.60 -470.19 -479.75 -478.02 -480.73 -503.69 -532.43 -590.53 -640.01 -730.38 -777.75 -839.14 -878.96 -890.83 -882.94
551.99 554.21 456.08 341.56 353.64 296.08 283.00 231.65 200.55 173.49 150.29 147.35 146.71 350.86 363.81 361.82 353.93 384.73 401.83 429.51 456.11 457.09 445.62 407.10 375.47 353.41 290.05 296.25 309.63 352.27 384.27 407.18 402.48 391.20 391.94 389.73 394.37 370.34 345.52 80.71 73.59 41.12 1.00 -7.30 -3.70 2.96 -8.63 -9.55 -14.48 -16.22 -4.69 6.14 -36.60 -40.22 -57.65 -63.77 -50.65 -54.12 -48.91 -58.69 -62.44 -58.86 -60.14 -69.70 -71.31 -95.62 -99.26 -104.26 -101.89 -108.57 -105.13 -106.43 -114.41 -123.73 -128.68 -138.12 -136.93 -133.30 -156.30 -160.63 -168.03 -163.52 -172.78 -174.80 -173.28 -180.73 -169.12 -171.47 -164.68 -176.44 -176.84 -199.31 -192.87 -192.69 -193.30 -189.50 -191.26 -194.44 -194.02 -197.53 -193.38 -196.08 -192.52 -195.68 -171.65 -170.29 -169.38 -183.04 -177.98 -176.99 -180.23 -175.24 -176.15 -174.13 -178.06 -179.28 -172.32 -170.84 -167.99 -193.41 -439.34 -434.15 -442.51 -443.40 -447.52 -450.95 -474.26 -511.12 -554.94 -588.84 -679.17 -767.69 -787.07 -847.11 -853.34 -852.65
713.54 711.15 607.83 573.87 565.51 503.06 442.76 401.87 362.19 355.76 332.02 317.48 303.16 -33.75 -42.92 -42.36 -34.95 -13.42 12.56 45.40 48.29 67.94 36.03 20.32 -11.07 -20.46 12.90 26.09 64.58 93.10 103.22 110.06 101.32 97.18 109.67 128.69 125.56 113.94 105.18 288.28 253.21 219.37 198.77 186.48 185.91 195.50 185.24 175.14 159.22 157.98 166.85 177.57 -31.79 -29.89 -36.24 -32.48 -38.30 -36.36 -31.20 -35.85 -34.58 -41.28 -41.29 -52.84 -53.08 -92.94 -90.65 -99.81 -103.33 -102.55 -113.44 -106.30 -119.73 -126.34 -129.61 -140.74 -138.65 -132.08 -157.94 -161.71 -159.09 -173.75 -175.38 -186.59 -183.56 -185.03 -175.74 -179.51 -177.82 -183.03 -181.52 -174.42 -170.39 -167.09 -176.20 -172.83 -176.75 -179.41 -182.11 -182.02 -178.89 -181.54 -180.24 -185.14 -180.79 -172.93 -182.46 -180.78 -183.41 -183.57 -183.64 -180.70 -185.64 -181.51 -178.69 -180.95 -180.73 -177.22 -176.21 -176.17 -248.89 -250.11 -248.98 -250.25 -250.61 -257.28 -277.29 -311.20 -323.73 -358.73 -460.10 -556.73 -588.63 -616.46 -622.03 -630.31
764.26 768.43 737.66 611.52 627.43 560.21 500.33 438.32 395.47 370.34 351.50 337.06 312.86 -29.05 -34.18 -42.52 -49.58 -39.06 -11.69 19.71 30.81 32.11 18.95 -14.68 -19.82 -27.55 10.74 52.11 57.76 84.00 99.48 86.35 77.74 73.07 81.35 116.33 125.01 119.97 116.21 305.91 288.93 244.20 219.14 200.69 219.43 229.25 217.04 198.34 186.89 186.66 169.83 184.44 -32.21 -21.88 -34.38 -42.51 -33.47 -39.79 -40.57 -43.84 -38.90 -33.73 -31.04 -28.52 -45.49 -75.25 -76.55 -95.17 -94.24 -108.20 -104.77 -107.92 -109.70 -116.61 -125.98 -134.52 -136.56 -134.59 -152.55 -154.20 -164.76 -157.99 -172.21 -174.49 -185.53 -186.62 -185.18 -186.04 -186.95 -174.66 -178.38 -166.50 -167.86 -176.86 -183.88 -180.18 -179.24 -182.12 -177.77 -189.65 -183.74 -183.29 -178.26 -182.13 -185.31 -185.78 -188.28 -180.63 -188.42 -183.77 -189.23 -189.32 -182.97 -177.34 -184.96 -189.12 -184.03 -171.73 -174.62 -177.80 -251.21 -250.30 -251.48 -254.49 -247.98 -254.70 -256.65 -283.10 -315.95 -347.72 -441.79 -510.00 -510.62 -562.60 -570.42 -569.87
876.55 866.22 765.53 663.24 644.73 573.66 513.91 461.07 409.52 388.94 386.04 361.74 345.67 -16.98 -36.92 -51.73 -46.88 -37.45 -10.20 -5.13 -1.70 -10.71 0.71 -20.94 -28.06 -40.63 17.36 41.04 56.02 59.71 59.46 62.30 55.30 59.83 75.15 89.56 92.90 102.21 111.16 313.16 303.24 264.86 226.36 224.89 223.23 237.47 233.07 218.61 202.53 208.03 184.99 191.70 -21.42 -26.87 -33.30 -42.57 -32.04 -44.74 -42.89 -48.03 -52.05 -35.18 -31.02 -21.80 -34.34 -66.51 -75.29 -88.42 -92.15 -104.71 -106.39 -109.33 -121.23 -114.60 -134.93 -141.98 -141.56 -137.50 -151.12 -156.53 -164.51 -170.60 -168.95 -173.21 -181.43 -180.99 -180.21 -178.54 -175.20 -172.41 -170.49 -165.61 -171.40 -178.28 -180.83 -174.08 -175.59 -179.28 -183.72 -179.27 -182.55 -181.76 -180.64 -178.12 -184.31 -188.48 -179.48 -183.34 -180.48 -189.34 -182.87 -182.34 -186.37 -189.71 -181.29 -179.70 -189.63 -173.97 -169.02 -168.50 -247.25 -251.74 -245.96 -250.20 -250.73 -246.67 -250.61 -266.56 -277.42 -344.41 -375.29 -468.08 -467.03 -506.31 -521.00 -521.19
843.01 847.74 847.16 674.22 659.32 613.15 531.74 489.29 449.66 419.87 400.08 367.30 348.03 -20.82 -37.44 -50.16 -52.48 -31.28 -22.47 -8.25 -12.98 -24.96 -30.74 -36.69 -40.59 -36.14 11.70 52.74 49.08 57.95 48.68 24.71 23.63 52.44 47.17 47.08 49.89 66.68 96.62 306.83 318.00 283.67 259.89 249.22 239.05 243.29 237.88 223.61 224.02 206.69 205.98 189.54 -29.01 -36.07 -44.35 -39.98 -40.34 -47.01 -52.32 -62.27 -66.17 -60.90 -47.46 -37.16 -38.08 -67.98 -77.39 -98.56 -98.30 -105.90 -111.62 -116.81 -118.10 -124.70 -135.12 -133.57 -142.60 -146.58 -166.69 -164.19 -159.71 -176.06 -170.97 -172.31 -168.39 -176.70 -181.72 -173.86 -169.66 -178.65 -175.07 -172.90 -178.43 -175.66 -174.93 -174.72 -169.02 -183.14 -180.61 -176.85 -182.88 -175.38 -183.92 -175.55 -180.11 -178.79 -184.33 -183.56 -185.19 -178.27 -184.44 -182.20 -182.89 -186.51 -185.61 -183.14 -186.05 -176.56 -175.76 -170.15 -244.40 -248.37 -248.72 -245.27 -247.34 -247.56 -246.36 -250.53 -265.41 -280.42 -307.01 -405.00 -416.92 -469.37 -459.22 -469.30
822.52 823.65 742.43 697.74 654.45 593.52 504.13 450.50 435.83 412.74 385.88 372.59 351.11 -11.81 -30.19 -36.40 -38.31 -46.24 -34.54 -30.14 -42.36 -36.23 -35.50 -48.09 -41.23 -28.57 24.30 48.15 62.89 42.65 23.25 12.16 16.38 33.20 32.81 24.37 28.67 38.84 88.81 306.52 319.69 289.71 266.60 251.36 239.72 235.65 223.16 220.01 214.62 205.56 196.33 190.31 -43.92 -44.04 -49.72 -56.71 -55.49 -60.91 -68.20 -66.40 -62.91 -68.16 -47.25 -46.94 -47.63 -69.38 -92.21 -98.39 -113.41 -104.05 -115.56 -124.14 -122.11 -118.96 -121.69 -132.89 -139.70 -151.70 -166.49 -165.43 -178.49 -180.51 -176.40 -175.76 -170.96 -176.66 -173.53 -165.87 -173.18 -175.98 -179.21 -178.24 -176.16 -174.30 -172.48 -170.59 -170.75 -177.14 -182.76 -183.18 -176.85 -181.14 -172.32 -181.04 -180.37 -181.92 -182.28 -184.00 -184.58 -184.70 -186.08 -180.66 -190.63 -186.60 -185.78 -182.65 -186.11 -176.77 -171.88 -164.71 -243.78 -243.86 -241.94 -239.96 -243.08 -250.15 -251.56 -244.03 -255.28 -252.50 -255.21 -319.93 -349.81 -383.58 -416.23 -410.08
817.96 812.80 735.82 645.15 628.90 544.60 443.78 405.83 378.52 377.70 376.08 342.99 342.33 -31.79 -10.55 -36.99 -45.32 -53.62 -54.37 -56.93 -50.91 -49.89 -48.09 -53.14 -34.76 -36.15 29.10 42.65 47.38 40.89 21.96 -8.62 -4.02 10.62 9.30 13.69 36.94 41.64 80.08 311.57 303.99 292.51 255.80 245.59 235.08 230.11 221.65 211.33 208.61 195.92 192.15 176.42 -45.84 -49.18 -46.62 -56.06 -49.36 -56.67 -57.15 -61.33 -69.33 -78.15 -62.93 -45.90 -46.98 -71.81 -82.50 -99.30 -101.20 -115.90 -113.83 -114.86 -115.08 -127.03 -116.97 -132.60 -140.68 -146.47 -174.62 -164.56 -172.31 -174.25 -179.28 -178.63 -178.35 -176.21 -168.88 -173.57 -167.10 -168.67 -181.60 -178.66 -176.97 -176.44 -173.04 -167.54 -179.82 -176.93 -179.14 -176.89 -179.10 -178.10 -171.21 -172.65 -172.15 -180.20 -183.87 -183.37 -181.91 -178.36 -183.64 -189.98 -186.47 -180.68 -177.73 -182.69 -184.52 -165.68 -169.01 -162.25 -232.89 -238.53 -241.43 -234.85 -237.28 -241.56 -245.02 -253.78 -248.49 -250.48 -253.41 -270.79 -281.18 -318.57 -346.92 -346.87
736.97 740.77 687.39 592.33 526.51 482.77 424.22 394.98 377.58 347.96 325.73 328.33 333.28 3.40 2.03 -10.64 -34.55 -50.61 -54.78 -52.58 -49.82 -57.34 -69.21 -54.65 -46.19 -39.49 -7.53 28.00 19.71 21.47 1.93 -4.11 -13.83 -3.86 0.76 24.85 41.25 75.69 79.99 290.88 288.42 256.59 245.07 231.89 219.84 212.90 200.36 202.61 202.77 196.39 179.19 170.57 -42.99 -38.96 -42.40 -39.04 -41.97 -35.37 -46.83 -52.44 -70.80 -77.44 -73.53 -58.46 -49.01 -74.18 -73.12 -85.81 -99.71 -101.45 -105.26 -103.72 -107.17 -104.76 -114.34 -129.74 -144.53 -145.26 -163.78 -173.82 -173.69 -169.42 -181.11 -179.49 -173.96 -172.70 -169.72 -172.00 -173.40 -180.39 -180.62 -168.57 -162.36 -170.69 -170.52 -178.64 -177.04 -172.26 -176.05 -175.85 -167.80 -171.39 -171.96 -178.33 -175.47 -177.70 -189.40 -177.69 -186.80 -189.42 -180.63 -182.18 -187.59 -186.37 -182.88 -183.88 -181.51 -172.95 -171.95 -161.48 -233.56 -225.66 -230.05 -231.05 -235.62 -239.72 -237.32 -246.28 -254.14 -245.20 -253.05 -266.31 -259.22 -292.40 -297.21 -296.77
657.88 657.91 648.10 588.23 534.08 485.36 427.65 433.87 400.60 362.56 318.34 319.24 339.54 18.44 34.23 -6.01 -19.09 -32.27 -27.12 -31.38 -37.92 -46.76 -54.05 -60.14 -53.23 -42.72 -17.54 -23.53 4.14 -4.78 -5.64 -16.26 -17.58 -16.50 -15.50 6.28 48.67 55.68 63.79 276.37 265.96 243.09 227.36 224.81 203.26 212.86 197.15 197.04 191.58 184.68 187.53 183.88 -24.78 -20.23 -24.18 -23.56 -34.88 -39.78 -37.89 -47.90 -64.29 -75.05 -79.54 -72.38 -50.97 -83.17 -78.41 -87.87 -86.28 -91.85 -96.02 -99.17 -108.61 -110.35 -116.20 -123.65 -139.52 -145.15 -158.10 -158.96 -163.53 -172.23 -173.76 -165.91 -163.81 -169.26 -158.86 -168.99 -177.55 -178.97 -175.37 -162.95 -163.30 -164.18 -171.37 -171.45 -164.92 -160.71 -168.78 -164.26 -166.64 -166.95 -169.46 -174.02 -174.56 -183.39 -182.71 -182.77 -187.00 -182.88 -189.55 -182.75 -183.52 -185.05 -185.96 -178.52 -183.36 -173.24 -168.09 -160.71 -242.86 -228.66 -228.05 -222.87 -223.52 -238.11 -244.49 -244.09 -241.71 -249.77 -250.13 -252.12 -253.33 -269.62 -299.07 -295.54
576.85 578.67 620.54 562.57 552.57 518.34 491.06 483.87 450.86 377.63 323.33 342.99 383.15 63.50 52.29 30.92 -11.90 -15.49 -4.54 0.74 -19.12 -29.50 -58.80 -59.54 -67.33 -59.65 -38.81 -33.18 -18.39 -11.45 -15.26 -16.47 -24.49 -19.64 -21.51 -12.36 20.17 49.75 58.41 270.98 256.51 247.10 220.71 213.25 209.81 204.08 202.63 185.74 189.95 198.54 195.33 185.96 -16.18 -11.56 -21.27 -27.23 -37.82 -34.01 -34.08 -43.72 -53.56 -68.16 -79.65 -85.84 -68.77 -80.71 -74.98 -82.61 -90.50 -91.63 -99.12 -103.43 -106.20 -107.18 -115.41 -125.23 -133.76 -133.02 -148.11 -148.11 -161.64 -156.23 -163.35 -161.03 -157.60 -153.39 -153.06 -172.21 -175.44 -177.22 -167.11 -163.80 -162.43 -165.08 -163.79 -164.90 -154.70 -159.11 -160.17 -161.75 -161.93 -162.56 -166.44 -172.26 -175.56 -181.01 -181.96 -177.42 -182.81 -185.74 -185.46 -180.72 -179.10 -188.67 -182.13 -176.74 -176.90 -171.19 -174.03 -172.86 -233.76 -223.67 -216.34 -215.20 -222.01 -227.14 -235.33 -246.55 -241.75 -248.28 -254.97 -252.12 -250.46 -265.12 -246.35 -248.75
647.16 646.06 589.70 557.86 553.65 556.11 539.20 510.28 501.63 437.21 387.62 375.53 401.61 70.92 61.45 38.85 8.58 -12.57 8.65 23.38 -1.36 -21.54 -44.75 -57.90 -65.83 -64.31 -38.94 -43.20 -38.01 -24.23 -17.22 -14.17 -28.41 -25.41 -23.35 -18.41 16.66 37.42 49.83 264.94 256.74 232.25 226.81 215.01 211.62 203.37 203.98 207.79 211.48 203.72 212.04 207.76 -6.99 -15.00 -10.79 -23.86 -34.97 -38.06 -49.31 -44.29 -52.96 -50.34 -69.07 -78.41 -88.23 -90.85 -83.35 -79.68 -83.33 -93.90 -100.34 -109.13 -110.20 -112.96 -122.72 -133.94 -130.21 -126.22 -135.67 -135.09 -141.52 -146.40 -145.03 -153.86 -152.03 -155.57 -161.27 -169.84 -174.73 -165.78 -163.77 -156.08 -154.29 -152.69 -162.39 -158.86 -162.81 -154.99 -164.45 -156.78 -163.06 -170.82 -172.44 -172.09 -179.34 -181.67 -177.95 -180.24 -178.44 -172.72 -180.05 -180.91 -182.21 -180.52 -182.29 -176.16 -179.03 -175.71 -170.65 -165.78 -232.76 -228.01 -228.47 -219.64 -219.14 -234.14 -240.09 -240.99 -245.95 -246.78 -251.38 -250.76 -254.29 -242.54 -243.92 -248.50
640.45 642.08 604.35 547.70 540.89 560.89 549.51 531.93 488.20 492.83 410.77 402.37 412.74 69.52 51.70 18.68 -2.05 -6.54 17.46 41.45 13.22 -5.20 -26.77 -43.41 -52.09 -64.40 -36.74 -44.56 -43.77 -42.01 -33.99 -38.16 -42.01 -34.94 -21.19 -21.86 13.61 28.46 56.84 276.25 268.00 253.73 240.98 241.26 220.29 233.19 229.17 229.81 214.61 221.86 212.50 208.48 -7.27 -18.17 -17.78 -30.57 -45.12 -51.23 -57.33 -61.07 -53.51 -48.23 -63.06 -83.27 -98.20 -99.09 -91.18 -82.79 -82.00 -87.90 -91.57 -104.30 -117.36 -115.89 -121.73 -127.17 -122.21 -122.09 -133.84 -142.84 -142.42 -148.04 -148.54 -140.52 -152.16 -159.07 -165.59 -163.16 -172.33 -172.61 -161.81 -152.28 -147.32 -149.32 -157.39 -158.54 -158.05 -155.22 -152.40 -160.31 -165.46 -161.43 -171.61 -171.79 -176.87 -183.13 -179.83 -176.24 -180.70 -170.99 -172.06 -175.98 -182.30 -183.60 -187.75 -181.39 -181.30 -166.99 -165.74 -164.34 -227.58 -222.95 -226.06 -211.85 -217.43 -224.85 -232.29 -239.27 -250.41 -251.37 -247.98 -250.77 -252.26 -245.87 -247.49 -249.70
619.73 620.63 586.13 522.29 521.01 549.00 566.86 551.85 551.22 501.93 459.15 429.49 458.49 85.07 57.12 20.98 12.79 10.77 57.48 65.06 35.61 17.71 -20.88 -43.37 -43.92 -45.32 -27.48 -23.05 -40.52 -52.06 -39.90 -46.95 -44.83 -30.62 -25.25 -3.64 35.39 45.95 46.47 277.58 281.84 266.42 260.30 243.01 251.69 255.59 263.12 240.10 225.66 218.85 220.86 212.49 -15.92 -24.25 -37.97 -44.81 -41.26 -56.19 -72.02 -74.07 -71.10 -61.97 -72.04 -88.28 -98.77 -111.22 -95.13 -78.75 -83.79 -80.11 -91.03 -95.48 -109.50 -110.27 -107.40 -112.62 -108.74 -107.96 -128.52 -137.14 -140.24 -140.46 -146.33 -151.96 -160.45 -157.14 -164.98 -169.44 -164.05 -158.90 -158.49 -146.98 -152.69 -146.31 -151.45 -150.41 -148.44 -147.73 -152.09 -153.13 -158.56 -163.47 -168.52 -173.82 -176.25 -179.60 -178.98 -184.77 -172.63 -187.66 -174.68 -174.56 -176.65 -175.69 -182.82 -178.62 -174.91 -164.29 -164.98 -149.32 -225.82 -220.32 -217.26 -216.05 -225.22 -228.07 -234.09 -243.32 -243.27 -248.14 -249.00 -253.73 -248.90 -244.89 -240.54 -241.62
273.25 273.59 226.21 190.56 180.72 191.47 223.24 219.18 240.39 191.03 148.85 156.69 140.84 879.05 835.14 804.42 766.50 802.66 844.79 836.96 818.48 775.31 755.10 736.97 714.40 702.70 4.22 1.35 -23.27 -33.18 -45.85 -40.76 -35.50 -10.27 -4.72 24.22 52.20 46.71 62.92 30.40 44.05 39.80 38.70 19.98 23.65 36.46 31.13 26.02 -0.29 -14.08 -10.47 -11.06 -13.77 -34.80 -47.24 -47.13 -58.00 -63.02 -82.46 -79.42 -81.92 -72.72 -78.96 -98.19 -96.05 -104.06 -84.16 -79.85 -76.09 -74.05 -79.76 -75.21 -94.70 -96.19 -93.31 -97.80 -101.45 -103.29 -119.25 -125.54 -132.50 -134.46 -135.08 -144.56 -154.06 -149.78 -156.18 -154.90 -153.42 -152.89 -150.41 -148.19 -143.57 -140.50 -142.77 -143.10 -146.11 -142.95 -146.55 -150.59 -159.86 -164.22 -171.08 -167.94 -158.78 -171.51 -168.45 -172.77 -174.36 -164.26 -163.67 -159.87 -165.44 -165.99 -166.89 -163.99 -165.63 -168.27 -151.72 -153.98 -149.08 -147.61 -136.35 -138.70 -141.68 -146.76 -158.47 -163.50 -168.38 -176.80 -174.86 -167.73 -167.73 -169.71 -166.23 -170.91
256.51 251.23 250.52 166.70 172.59 188.15 208.84 219.36 233.77 209.39 179.51 185.14 165.80 879.13 839.51 814.14 802.00 854.29 891.89 892.30 861.62 818.54 758.15 761.17 738.66 727.56 4.64 -0.67 -21.06 -47.55 -45.08 -53.75 -41.23 -28.13 -1.25 18.56 44.14 52.48 61.52 18.14 23.50 31.46 11.99 24.79 16.37 28.05 37.95 18.08 -7.32 -10.16 -5.12 -7.44 -3.38 -27.93 -34.08 -52.77 -64.96 -74.06 -82.72 -87.84 -98.08 -86.32 -90.02 -108.33 -108.32 -106.93 -99.69 -88.81 -85.20 -76.09 -79.52 -80.56 -85.15 -87.20 -91.98 -86.77 -104.35 -104.40 -121.93 -126.93 -132.15 -140.46 -140.55 -143.32 -147.74 -157.23 -149.12 -141.63 -149.23 -152.52 -148.04 -147.25 -141.47 -136.21 -129.85 -135.00 -140.68 -137.01 -140.96 -153.93 -158.96 -157.78 -165.78 -165.93 -157.04 -162.19 -172.07 -170.47 -169.92 -158.37 -162.75 -158.91 -160.64 -161.98 -166.38 -162.90 -159.71 -156.23 -156.00 -148.63 -142.50 -142.75 -134.18 -140.49 -138.88 -144.96 -151.03 -153.55 -159.84 -166.13 -170.43 -171.51 -171.65 -168.64 -179.60 -179.01
233.53 233.76 210.40 180.26 170.38 179.61 191.05 203.37 216.30 217.90 196.92 190.38 176.67 922.87 925.57 872.13 874.12 867.12 934.57 942.39 897.43 887.20 820.12 797.32 754.53 736.97 16.38 6.06 -23.09 -39.24 -43.87 -49.97 -53.47 -30.60 -11.07 9.97 35.30 48.13 57.28 4.14 -16.45 6.22 -3.76 6.62 20.86 20.35 10.77 6.41 -15.06 -9.67 -13.38 -6.90 -5.35 -10.61 -26.05 -39.24 -49.10 -59.29 -67.57 -85.52 -96.65 -97.22 -104.57 -109.83 -101.85 -109.59 -113.38 -100.86 -85.00 -78.85 -67.05 -73.11 -79.27 -80.25 -85.86 -96.65 -98.83 -103.48 -115.65 -127.20 -135.48 -135.82 -141.03 -142.44 -138.63 -140.65 -138.45 -140.55 -143.90 -149.36 -137.41 -139.81 -139.54 -138.40 -138.10 -143.74 -136.97 -142.45 -143.96 -148.69 -153.09 -157.10 -152.62 -159.48 -154.70 -162.44 -158.66 -163.84 -162.89 -167.36 -160.22 -158.78 -153.32 -158.06 -155.87 -158.02 -156.63 -154.26 -156.26 -155.26 -146.67 -146.18 -138.84 -138.59 -143.23 -139.44 -149.90 -154.08 -154.47 -156.38 -158.50 -168.45 -167.91 -169.70 -158.29 -160.59
227.03 225.53 200.85 175.36 172.82 182.80 188.71 189.82 188.52 191.15 183.62 179.66 190.65 941.66 932.86 921.39 914.26 939.94 955.59 956.42 953.00 904.91 855.30 800.91 742.31 739.95 14.24 -8.44 -21.57 -32.06 -38.01 -43.79 -56.69 -40.71 -33.30 2.29 17.94 37.79 23.48 -24.61 -28.02 -19.23 -23.16 -2.99 -10.23 -8.53 0.08 -5.67 -27.42 -19.55 -19.41 -15.66 -2.29 -11.12 -21.54 -28.09 -44.50 -54.28 -54.92 -64.02 -75.79 -106.37 -105.97 -99.44 -106.73 -123.36 -121.66 -117.72 -96.35 -88.18 -71.14 -77.10 -71.92 -78.58 -88.36 -94.72 -103.63 -107.45 -122.86 -128.68 -132.63 -132.31 -135.17 -137.48 -138.18 -135.65 -141.71 -137.26 -133.74 -135.21 -134.18 -146.97 -133.77 -125.15 -135.60 -133.92 -140.35 -135.93 -147.71 -138.44 -144.37 -151.34 -151.16 -159.07 -154.54 -156.19 -154.01 -156.72 -162.02 -151.70 -161.33 -152.41 -153.84 -152.09 -151.12 -156.67 -158.69 -153.34 -158.19 -156.87 -141.94 -146.53 -148.02 -143.82 -150.88 -140.14 -146.57 -147.30 -156.12 -156.22 -162.32 -161.64 -168.48 -168.20 -155.39 -158.11
206.41 204.45 206.01 167.77 167.30 181.03 190.85 186.46 182.21 180.49 174.23 179.23 180.60 946.42 954.04 946.89 945.59 959.01 965.92 948.29 943.36 900.67 834.80 804.40 749.44 725.61 9.35 -6.48 -11.43 -6.16 -11.08 -30.56 -55.66 -50.23 -34.69 -6.49 3.76 1.94 0.43 -43.89 -48.49 -42.59 -46.03 -45.03 -32.20 -32.38 -16.73 -21.93 -25.29 -38.40 -34.58 -34.79 -15.31 -12.43 -19.44 -26.83 -43.53 -39.71 -47.39 -62.23 -72.85 -78.28 -85.10 -96.04 -102.90 -143.45 -121.91 -116.53 -106.12 -86.09 -74.68 -73.84 -73.92 -83.11 -92.62 -91.95 -109.06 -118.18 -121.73 -127.02 -133.07 -135.09 -137.99 -132.68 -130.93 -131.51 -132.09 -132.75 -132.08 -129.97 -125.59 -136.65 -129.71 -137.15 -135.10 -129.56 -131.61 -137.76 -143.02 -137.61 -150.56 -150.54 -146.79 -155.69 -153.62 -161.58 -154.66 -152.85 -154.38 -152.33 -157.08 -156.88 -155.21 -150.74 -154.53 -155.26 -150.09 -159.81 -158.06 -164.69 -161.66 -152.27 -152.18 -156.89 -150.45 -146.25 -144.22 -149.51 -146.05 -148.80 -148.80 -155.14 -159.88 -149.92 -144.57 -154.71
194.26 193.95 181.42 164.32 163.68 171.47 182.31 183.02 184.90 177.44 172.16 172.57 193.60 949.67 949.63 951.40 957.47 952.11 959.22 945.10 917.27 865.85 837.61 781.83 754.15 734.48 10.09 5.66 7.51 13.03 -6.27 -33.15 -42.53 -51.09 -23.61 -21.27 -9.47 -11.74 -27.92 -57.45 -63.17 -53.71 -52.67 -60.65 -49.95 -32.23 -22.11 -23.17 -20.30 -38.09 -44.32 -59.71 -38.01 -31.24 -23.04 -32.72 -39.17 -37.08 -48.55 -58.72 -58.45 -71.44 -83.37 -87.15 -113.84 -145.59 -125.83 -118.46 -109.31 -85.86 -79.49 -73.09 -79.09 -83.36 -96.35 -106.47 -109.18 -117.80 -127.81 -126.64 -135.58 -143.99 -148.16 -139.76 -146.94 -134.38 -134.48 -134.19 -131.74 -121.55 -122.68 -129.52 -126.89 -128.21 -132.30 -134.54 -138.34 -138.62 -143.78 -145.01 -150.89 -156.21 -151.06 -162.13 -156.49 -158.23 -158.53 -156.33 -159.77 -163.13 -158.81 -160.38 -151.89 -155.30 -159.67 -155.03 -161.51 -162.12 -168.37 -171.88 -161.05 -154.36 -154.05 -155.51 -153.29 -150.84 -142.62 -140.89 -141.96 -146.21 -144.49 -153.62 -146.48 -147.61 -141.36 -135.38
193.55 194.19 176.00 168.26 163.72 166.92 180.33 174.88 178.18 169.05 167.69 173.15 188.82 950.93 958.20 955.07 956.87 959.45 947.77 931.15 890.89 867.84 846.67 820.46 767.74 731.36 27.92 23.28 16.97 19.38 -17.49 -23.86 -47.81 -53.65 -48.36 -41.18 -37.86 -38.79 -51.88 -70.91 -74.39 -68.44 -63.95 -71.84 -60.27 -32.76 -25.41 -18.20 -22.49 -32.16 -46.64 -46.28 -44.61 -40.12 -25.83 -32.42 -44.53 -56.20 -52.77 -53.90 -58.43 -77.15 -96.40 -106.15 -118.71 -151.11 -128.32 -114.24 -104.40 -86.60 -69.69 -72.94 -90.08 -90.75 -102.84 -106.75 -119.71 -127.67 -137.86 -132.87 -145.96 -152.67 -151.90 -152.97 -147.67 -141.28 -135.58 -125.80 -129.77 -122.68 -122.38 -131.41 -135.08 -135.71 -139.11 -130.29 -138.79 -140.85 -157.25 -157.72 -150.80 -165.20 -161.39 -173.44 -161.49 -164.82 -165.04 -161.47 -163.48 -164.43 -161.33 -162.86 -159.21 -157.91 -155.64 -162.94 -165.84 -169.03 -170.69 -165.52 -161.25 -158.33 -165.49 -171.10 -159.76 -157.49 -146.10 -146.90 -140.01 -138.90 -140.24 -147.04 -151.92 -148.66 -139.89 -146.29
202.49 201.35 193.95 158.29 161.74 174.46 173.17 165.33 163.78 167.27 168.05 179.26 192.77 938.89 940.42 941.43 939.25 947.06 948.41 924.04 899.02 879.66 867.94 828.26 801.02 754.89 39.42 15.03 14.46 -7.79 -27.01 -46.13 -58.67 -60.16 -65.95 -62.06 -70.16 -63.66 -56.02 -88.63 -77.23 -80.24 -90.15 -96.65 -71.17 -54.80 -39.28 -28.54 -14.97 -22.31 -42.17 -53.19 -41.60 -49.93 -47.61 -47.30 -47.31 -64.82 -53.88 -64.74 -72.74 -83.23 -98.10 -116.25 -130.43 -146.53 -127.85 -117.74 -104.61 -86.18 -96.95 -103.95 -106.11 -105.09 -110.09 -119.55 -127.35 -138.67 -148.58 -151.69 -151.16 -162.98 -169.72 -162.08 -158.32 -159.16 -147.17 -140.90 -135.41 -126.61 -127.40 -133.18 -144.13 -146.22 -145.13 -137.92 -138.97 -143.30 -155.25 -149.02 -167.13 -168.40 -175.77 -175.09 -165.29 -169.76 -165.47 -170.90 -167.65 -168.97 -165.14 -168.54 -167.11 -166.05 -164.52 -166.79 -169.25 -172.69 -173.23 -171.30 -162.77 -167.06 -161.15 -172.59 -171.88 -164.76 -153.17 -147.08 -146.35 -141.74 -143.12 -151.43 -154.33 -146.98 -147.35 -152.00
195.57 200.04 187.01 169.98 166.20 169.92 169.03 176.01 174.96 167.00 168.22 179.79 199.86 948.02 936.30 930.42 937.63 940.22 924.91 904.39 888.69 891.29 896.27 839.69 819.42 774.04 18.99 -10.67 -16.77 -25.89 -46.05 -58.57 -57.65 -43.74 -49.59 -65.87 -75.03 -73.21 -76.98 -86.18 -84.16 -92.57 -99.98 -91.71 -85.60 -56.23 -44.08 -25.83 -23.10 -26.81 -48.53 -46.04 -45.11 -49.49 -54.50 -60.27 -59.60 -67.51 -74.19 -67.91 -74.52 -96.45 -106.71 -106.42 -115.98 -138.67 -127.72 -111.37 -106.38 -106.18 -119.54 -120.86 -108.57 -103.81 -118.41 -137.83 -139.75 -148.83 -156.59 -156.35 -154.75 -162.23 -170.96 -165.24 -164.29 -161.21 -154.81 -149.66 -143.49 -132.70 -131.70 -142.85 -142.47 -153.66 -147.43 -147.35 -145.26 -144.02 -155.16 -155.86 -161.12 -161.13 -168.65 -175.30 -167.14 -167.59 -167.69 -173.97 -172.32 -180.33 -172.57 -168.22 -162.07 -171.61 -168.05 -172.52 -173.64 -172.70 -174.00 -174.48 -171.80 -171.41 -175.28 -167.00 -161.52 -168.51 -162.04 -155.23 -140.97 -150.51 -145.43 -148.80 -158.91 -153.48 -155.96 -160.57
200.52 196.37 186.29 170.63 164.46 168.22 167.77 168.87 175.64 170.31 165.46 183.32 190.32 939.95 926.52 919.04 923.71 931.85 917.00 900.78 873.46 861.96 860.97 842.24 804.97 767.97 9.22 -27.98 -18.52 -12.60 -23.65 -27.51 -33.61 -28.94 -44.35 -52.80 -67.48 -65.22 -76.53 -95.07 -75.58 -85.63 -101.18 -117.35 -113.38 -93.16 -39.41 -39.13 -24.00 -39.23 -48.03 -52.32 -35.92 -42.73 -58.24 -67.43 -67.21 -72.51 -82.32 -68.80 -78.25 -93.70 -95.79 -101.03 -104.65 -127.74 -134.29 -131.74 -123.80 -117.97 -135.77 -117.05 -110.30 -120.84 -122.28 -138.69 -141.00 -157.53 -165.26 -165.67 -163.68 -168.77 -175.36 -166.09 -165.55 -163.81 -158.72 -151.21 -148.18 -142.58 -144.35 -151.01 -151.74 -157.35 -150.98 -147.88 -141.86 -149.66 -145.28 -149.37 -156.77 -158.43 -158.72 -167.39 -162.15 -161.27 -170.61 -170.91 -174.88 -176.64 -171.19 -171.47 -171.28 -176.10 -167.64 -171.04 -172.01 -160.93 -168.97 -172.83 -174.80 -173.96 -176.15 -174.29 -168.74 -157.06 -161.83 -148.93 -152.13 -153.98 -150.21 -157.50 -155.65 -160.22 -165.94 -168.94
