517.32 517.08 410.56 257.33 213.06 173.77 151.02 147.66 154.77 163.83 157.19 163.82 176.92 -15.52 -37.02 -58.74 -80.69 -96.69 -85.18 -94.26 -73.13 -54.88 -56.74 -74.71 -77.63 -58.62 -112.30 -115.49 -119.71 -121.97 -122.84 -136.22 -141.44 -142.94 -134.29 -134.73 -139.05 -137.89 -152.74 -327.14 -330.39 -327.41 -335.35 -334.03 -339.10 -350.69 -353.85 -358.35 -366.70 -362.18 -361.75 -351.52 -679.58 -675.42 -673.93 -670.53 -678.77 -679.99 -677.18 -677.17 -683.50 -678.94 -681.92 -680.18 -687.30 -809.96 -807.85 -811.91 -813.55 -813.99 -832.37 -837.88 -848.38 -889.88 -885.76 -891.35 -935.38 -943.75 -983.22 -980.36 -1002.94 -1014.19 -998.76 -1010.43 -1024.20 -1006.00 -999.46 -983.88 -988.63 -1085.66 -1162.70 -1068.13 -1121.23 -1148.20 -1303.29 -1488.55 -1749.80 -1877.90 -1907.96 -2027.87 -2045.45 -2058.71 -2095.96 -2154.60 -1887.12 -1904.44 -1942.99 -1962.45 -1987.94 -2016.52 -2029.47 -2041.51 -2049.70 -2058.62 -2052.26 -2065.96 -2072.68 -1900.49 -1929.89 -1956.11 -1991.62 -1998.31 -2010.58 -2057.07 -2080.89 -2090.90 -2101.46 -2128.98 -2158.87 -2171.79 -2179.77 -2207.39 -2247.49 -2269.33 -2281.47 -2279.31
521.83 523.78 406.33 294.91 223.37 182.95 154.10 150.95 169.57 187.64 192.64 187.14 180.98 -7.59 -33.35 -54.82 -71.09 -86.87 -83.69 -61.98 -37.64 -39.02 -42.91 -65.85 -64.04 -55.60 -107.33 -103.26 -116.05 -116.77 -125.85 -127.27 -135.11 -140.12 -129.64 -141.04 -151.93 -150.70 -161.43 -339.17 -338.96 -333.51 -334.62 -344.53 -343.90 -362.01 -343.96 -364.51 -365.59 -356.97 -360.10 -361.09 -671.77 -670.19 -673.25 -671.10 -673.50 -674.93 -677.18 -685.31 -679.94 -684.95 -678.69 -681.73 -684.18 -815.20 -807.86 -809.87 -804.06 -813.24 -807.58 -816.44 -827.96 -839.89 -844.77 -867.54 -902.29 -933.87 -936.79 -953.72 -976.94 -964.24 -978.71 -971.73 -974.51 -983.08 -972.01 -967.84 -962.69 -957.26 -1020.71 -935.35 -1019.76 -1054.08 -1187.22 -1443.39 -1687.54 -1735.36 -1888.86 -1972.72 -2039.15 -2048.07 -2090.47 -2148.03 -1898.74 -1911.71 -1941.53 -1997.26 -2016.03 -2038.55 -2039.19 -2049.66 -2052.89 -2056.03 -2062.65 -2072.61 -2083.48 -1904.71 -1930.19 -1953.85 -1976.85 -1992.60 -2006.75 -2022.89 -2035.32 -2051.73 -2059.09 -2098.89 -2114.46 -2132.03 -2159.53 -2179.39 -2189.86 -2243.24 -2246.93 -2246.22
501.35 501.25 526.00 238.31 212.76 178.44 173.78 178.67 219.10 205.31 199.38 207.05 187.00 -17.37 -28.35 -42.70 -60.28 -83.95 -87.08 -65.06 -33.95 -25.64 -47.21 -69.40 -60.13 -58.19 -95.76 -104.04 -98.92 -112.47 -127.89 -130.58 -133.17 -139.56 -142.11 -148.88 -165.26 -166.77 -170.32 -356.13 -352.43 -344.24 -343.08 -346.39 -356.50 -360.74 -362.03 -354.33 -361.60 -352.64 -352.97 -347.32 -676.70 -661.11 -674.31 -678.57 -674.96 -682.29 -679.27 -682.31 -681.63 -677.40 -686.60 -689.18 -682.88 -808.05 -810.92 -805.44 -808.24 -810.15 -808.59 -806.39 -822.31 -818.96 -843.14 -851.12 -872.64 -893.69 -916.34 -926.55 -916.29 -914.75 -928.45 -952.77 -936.36 -955.39 -951.78 -933.80 -922.03 -934.54 -917.65 -780.94 -828.39 -944.53 -1087.66 -1367.99 -1652.00 -1830.82 -1915.75 -1983.66 -2002.50 -2052.43 -2089.06 -2141.83 -1885.65 -1925.06 -1948.44 -2010.25 -2036.73 -2047.25 -2049.52 -2054.53 -2055.07 -2063.59 -2078.61 -2074.29 -2090.38 -1909.22 -1930.55 -1951.78 -1962.41 -1973.65 -1994.61 -2013.53 -2014.52 -2032.15 -2045.31 -2046.97 -2090.75 -2112.92 -2138.47 -2129.66 -2168.45 -2176.12 -2213.85 -2217.87
1084.95 1085.67 969.20 815.93 737.81 714.71 710.83 744.91 753.39 764.68 737.58 723.31 697.54 886.99 870.63 873.98 851.76 839.98 835.76 863.02 890.07 896.04 892.79 869.70 875.91 891.28 -89.26 -88.83 -101.60 -110.95 -117.82 -137.39 -145.99 -148.11 -152.60 -153.26 -161.45 -165.80 -164.85 -272.47 -286.30 -270.90 -281.62 -283.61 -286.40 -286.54 -282.26 -289.68 -275.20 -271.29 -269.11 -277.59 -274.71 -269.29 -282.94 -277.87 -288.34 -284.69 -283.13 -287.08 -286.82 -297.80 -288.72 -288.23 -289.88 -661.42 -669.55 -664.87 -662.66 -668.45 -665.95 -665.61 -666.31 -666.25 -681.00 -698.69 -706.66 -722.76 -785.45 -801.41 -804.22 -815.09 -808.16 -797.65 -820.64 -795.02 -777.22 -798.36 -796.87 -807.26 -793.40 -599.37 -641.19 -659.03 -832.97 -1010.97 -1325.20 -1535.03 -1764.01 -1797.53 -1844.92 -1895.23 -1902.71 -2020.28 -1876.01 -1928.35 -1986.07 -2025.06 -2032.44 -2046.18 -2040.09 -2052.76 -2043.78 -2056.92 -2064.63 -2072.45 -2094.49 -1924.74 -1937.61 -1948.69 -1952.34 -1965.87 -1989.08 -2002.58 -2010.33 -2006.47 -2021.90 -2032.60 -2040.96 -2072.49 -2102.81 -2122.96 -2129.95 -2177.43 -2186.78 -2183.43
1062.74 1059.66 964.29 850.18 794.35 714.79 727.03 741.10 764.66 749.95 730.28 706.05 695.08 882.58 875.67 864.04 842.49 842.12 847.63 861.13 883.35 893.85 886.96 876.97 885.27 895.77 -84.69 -82.81 -108.70 -114.18 -130.95 -132.43 -137.11 -144.28 -140.13 -140.72 -147.92 -151.60 -148.62 -262.36 -266.11 -267.52 -286.75 -282.96 -280.00 -284.37 -274.41 -281.58 -267.55 -271.46 -273.17 -272.94 -273.82 -276.19 -283.87 -282.03 -288.38 -290.74 -288.41 -290.71 -290.90 -291.49 -290.82 -289.38 -286.72 -671.69 -668.81 -660.88 -658.34 -662.46 -663.41 -664.28 -664.88 -667.37 -668.01 -681.24 -680.18 -703.60 -760.40 -781.23 -791.05 -793.28 -792.92 -796.64 -769.75 -768.61 -770.91 -760.77 -772.24 -780.05 -778.11 -585.34 -629.98 -669.77 -815.26 -988.97 -1152.67 -1189.72 -1420.17 -1670.28 -1770.54 -1774.77 -1917.46 -1995.84 -1890.55 -1934.85 -2005.83 -2048.17 -2051.59 -2057.66 -2066.45 -2072.58 -2071.52 -2064.90 -2078.38 -2083.30 -2092.90 -1940.75 -1942.23 -1953.32 -1966.56 -1974.32 -1983.78 -1991.71 -1991.11 -2000.30 -2005.09 -2024.15 -2034.12 -2036.16 -2061.71 -2087.34 -2110.36 -2164.73 -2152.89 -2154.90
1282.18 1284.90 1170.05 911.37 901.47 779.39 730.17 737.13 779.13 762.42 751.46 709.71 715.53 918.11 915.01 883.13 872.77 850.26 848.05 873.92 880.76 914.09 901.09 887.52 893.63 900.54 -77.91 -79.76 -106.91 -104.56 -114.22 -112.45 -117.09 -126.14 -127.06 -121.42 -131.08 -139.25 -138.88 -257.16 -251.99 -267.77 -273.45 -280.32 -284.02 -277.73 -277.09 -273.28 -265.38 -262.39 -260.91 -268.38 -275.64 -278.72 -285.28 -286.15 -286.00 -280.39 -285.42 -284.41 -284.38 -282.71 -290.64 -286.37 -287.17 -664.24 -661.75 -660.84 -665.43 -660.57 -663.74 -667.18 -668.27 -661.09 -666.82 -665.72 -668.76 -683.54 -739.97 -766.42 -773.56 -774.91 -780.95 -761.44 -760.47 -761.32 -759.86 -750.13 -759.30 -757.77 -753.98 -563.14 -605.22 -619.34 -651.61 -859.89 -916.75 -1023.65 -1387.28 -1378.94 -1603.44 -1757.50 -1980.02 -2023.39 -1918.35 -1972.68 -2006.27 -2050.35 -2078.73 -2087.17 -2098.96 -2084.64 -2097.78 -2093.27 -2105.98 -2104.40 -2100.96 -1944.91 -1953.66 -1975.30 -1978.33 -1979.23 -1986.10 -1988.04 -1990.92 -1996.97 -2001.81 -2017.19 -2024.85 -2036.11 -2054.17 -2068.89 -2086.19 -2122.62 -2129.43 -2136.84
1411.92 1415.04 1227.72 1035.77 917.85 833.77 782.67 835.14 797.73 832.11 814.77 784.62 772.92 936.35 920.20 900.93 876.35 848.44 849.83 871.40 904.96 917.23 914.40 903.74 897.32 906.71 -71.51 -88.58 -107.96 -106.74 -96.65 -102.75 -111.55 -117.02 -119.82 -116.47 -119.65 -128.50 -134.63 -250.45 -258.52 -267.77 -277.31 -283.49 -275.82 -269.59 -269.19 -279.81 -268.09 -259.68 -254.72 -263.00 -271.40 -278.58 -279.08 -282.44 -281.43 -280.05 -283.04 -281.97 -277.91 -285.60 -282.59 -283.42 -283.75 -664.08 -659.94 -658.52 -660.94 -664.45 -666.16 -667.35 -668.47 -665.23 -661.43 -665.10 -671.15 -667.44 -726.10 -747.50 -738.51 -755.33 -755.52 -755.66 -746.36 -744.33 -736.27 -742.63 -745.74 -743.24 -753.33 -548.00 -564.85 -587.06 -600.95 -640.57 -733.38 -803.60 -1030.99 -1310.31 -1389.30 -1718.91 -1943.04 -2024.61 -1934.17 -1968.19 -2044.73 -2065.96 -2089.97 -2109.36 -2106.24 -2118.15 -2108.14 -2115.11 -2108.91 -2120.97 -2126.35 -1960.31 -1978.76 -1980.98 -1995.82 -1999.72 -1999.15 -2002.42 -2001.31 -2010.93 -2010.41 -2015.52 -2027.10 -2031.35 -2045.39 -2064.43 -2080.63 -2110.75 -2122.09 -2118.84
1483.90 1489.27 1448.67 988.27 951.59 849.83 857.96 913.45 865.78 872.72 843.90 842.92 794.75 932.99 913.42 897.69 881.76 875.85 859.20 866.39 902.27 928.25 921.65 916.06 917.75 917.26 -63.80 -94.16 -93.33 -104.29 -98.29 -94.93 -113.56 -119.44 -126.25 -125.36 -113.45 -126.93 -150.21 -255.16 -272.27 -277.76 -276.50 -280.06 -272.86 -265.52 -265.78 -268.13 -258.93 -255.85 -256.23 -262.47 -267.69 -274.71 -276.10 -276.28 -270.95 -272.77 -271.92 -275.10 -277.04 -276.78 -289.73 -285.72 -289.72 -658.66 -658.41 -661.23 -663.00 -655.44 -660.53 -660.66 -664.94 -667.06 -665.85 -670.99 -666.05 -667.35 -718.32 -730.84 -740.10 -744.88 -747.17 -736.93 -737.68 -736.71 -737.08 -729.72 -741.95 -741.00 -747.69 -547.91 -551.09 -560.18 -592.95 -628.33 -660.85 -761.26 -978.87 -1229.46 -1453.19 -1858.38 -1939.75 -2043.64 -1942.31 -2002.55 -2058.44 -2075.60 -2106.73 -2120.09 -2134.24 -2131.08 -2130.33 -2133.79 -2127.45 -2134.64 -2141.96 -1974.30 -1983.09 -1989.34 -2011.18 -2008.11 -2027.20 -2024.20 -2014.36 -2008.76 -2010.58 -2023.45 -2021.88 -2028.65 -2044.99 -2062.64 -2077.38 -2094.66 -2104.95 -2108.82
1440.08 1438.76 1334.17 1113.34 977.97 916.04 939.50 985.10 977.27 904.19 869.77 858.44 811.77 942.58 931.12 929.35 906.99 898.67 878.83 875.78 910.87 936.06 940.06 931.66 928.90 933.94 -66.00 -78.55 -95.32 -96.02 -94.39 -101.00 -111.99 -133.50 -131.21 -132.55 -126.71 -146.02 -157.15 -268.20 -275.63 -278.22 -277.92 -279.42 -266.70 -259.81 -254.59 -256.02 -257.39 -250.03 -252.53 -256.03 -268.86 -270.95 -278.08 -277.55 -263.60 -267.00 -274.25 -267.60 -279.84 -280.97 -284.58 -278.25 -288.18 -657.16 -653.98 -660.24 -652.68 -663.71 -658.12 -662.86 -663.74 -672.11 -666.73 -665.46 -675.38 -668.20 -720.64 -735.40 -735.64 -740.83 -727.52 -726.04 -724.88 -729.79 -727.29 -722.12 -726.96 -732.84 -744.82 -539.92 -540.67 -547.83 -559.91 -587.32 -653.34 -714.03 -892.57 -1125.71 -1252.20 -1650.02 -1938.00 -2035.82 -1958.33 -2021.35 -2073.07 -2070.99 -2107.55 -2129.67 -2141.24 -2133.95 -2138.21 -2141.45 -2132.90 -2145.88 -2151.96 -1994.31 -2001.88 -2011.36 -2018.28 -2031.85 -2031.57 -2027.65 -2025.49 -2023.33 -2017.64 -2024.92 -2026.67 -2033.43 -2048.71 -2057.03 -2062.60 -2087.70 -2090.51 -2093.80
1361.67 1363.21 1247.81 1127.53 1081.39 1002.23 994.06 1047.53 1014.36 1006.42 964.83 871.32 792.93 961.69 969.57 948.00 922.96 890.30 876.04 886.72 930.92 937.43 950.58 950.53 951.30 940.64 -53.95 -58.85 -76.48 -90.31 -99.47 -98.49 -122.90 -132.80 -155.83 -133.53 -150.25 -161.39 -161.62 -270.32 -281.88 -284.24 -276.46 -273.16 -268.73 -260.32 -243.41 -247.29 -254.25 -254.62 -253.40 -263.30 -262.83 -273.67 -278.75 -273.16 -268.93 -261.48 -263.43 -269.01 -277.38 -274.10 -285.07 -278.45 -286.41 -661.23 -658.45 -657.12 -658.02 -666.77 -662.38 -659.02 -662.91 -661.47 -668.78 -665.88 -665.51 -664.42 -716.16 -731.80 -740.54 -731.70 -724.65 -724.89 -727.15 -723.23 -723.13 -726.78 -719.16 -729.46 -729.03 -530.55 -522.98 -536.64 -548.49 -591.28 -606.13 -708.14 -875.10 -963.49 -1063.36 -1587.07 -1944.17 -2018.82 -1956.50 -2012.21 -2042.05 -2087.46 -2114.59 -2139.04 -2151.20 -2150.45 -2148.91 -2148.80 -2158.29 -2164.71 -2167.42 -2002.73 -2017.39 -2029.77 -2034.70 -2036.49 -2042.74 -2039.24 -2039.29 -2030.00 -2020.33 -2032.45 -2030.98 -2040.05 -2042.05 -2051.49 -2059.34 -2087.68 -2084.40 -2093.26
1301.90 1298.38 1227.43 1130.15 1086.68 1084.42 1080.97 1056.53 1074.13 1046.96 1014.38 887.56 832.17 1002.59 1002.47 972.92 948.03 888.94 878.95 920.18 938.00 968.47 974.24 972.06 959.19 941.32 -45.10 -53.95 -68.58 -87.42 -92.70 -113.22 -134.34 -156.90 -156.61 -163.26 -167.12 -169.63 -165.90 -273.72 -288.96 -282.25 -283.58 -274.58 -266.76 -250.41 -236.12 -238.56 -236.94 -241.36 -261.62 -258.80 -265.21 -269.99 -273.06 -257.44 -254.82 -259.07 -260.35 -259.45 -265.73 -270.43 -273.25 -271.48 -283.66 -654.78 -653.22 -657.10 -656.34 -662.02 -662.53 -660.43 -668.57 -665.42 -665.13 -668.30 -660.45 -665.58 -722.91 -726.52 -728.02 -724.04 -715.75 -719.54 -726.91 -717.88 -719.77 -715.33 -715.28 -719.72 -720.16 -515.63 -520.94 -532.22 -540.33 -547.81 -566.93 -596.09 -685.28 -866.24 -1133.89 -1284.15 -1978.52 -2002.44 -1911.49 -1993.91 -2034.93 -2086.31 -2116.56 -2145.40 -2146.66 -2157.31 -2163.47 -2163.72 -2168.63 -2169.43 -2176.93 -2009.47 -2035.16 -2041.93 -2043.65 -2042.04 -2045.15 -2038.23 -2033.18 -2031.03 -2024.67 -2031.22 -2031.30 -2036.37 -2049.57 -2051.62 -2063.74 -2073.54 -2085.59 -2077.74
1283.64 1286.75 1229.22 1124.29 1091.27 1091.38 1096.37 1091.34 1088.24 1055.20 997.88 953.30 854.67 1027.68 1001.45 953.52 930.43 894.80 902.70 945.83 970.66 976.03 984.10 968.02 955.56 933.29 -42.68 -51.96 -70.71 -80.33 -96.36 -94.78 -134.11 -159.19 -160.43 -175.23 -174.32 -177.94 -182.87 -284.00 -282.30 -291.34 -279.78 -272.26 -267.19 -251.55 -235.34 -231.04 -229.10 -242.66 -252.66 -253.60 -257.20 -257.33 -256.60 -254.78 -250.94 -252.55 -251.95 -256.56 -253.15 -265.70 -266.14 -275.81 -270.85 -652.19 -651.94 -655.56 -654.85 -662.79 -662.09 -656.13 -661.03 -663.07 -661.58 -663.67 -665.29 -662.78 -719.21 -724.37 -724.06 -716.33 -717.73 -718.22 -719.31 -720.53 -721.35 -714.95 -717.01 -712.66 -720.47 -510.86 -514.07 -520.89 -529.91 -542.94 -555.27 -569.10 -673.26 -825.27 -918.58 -1269.49 -1607.15 -2007.81 -1899.12 -1977.55 -2025.03 -2052.39 -2110.12 -2137.56 -2148.78 -2159.37 -2161.51 -2162.98 -2165.95 -2182.65 -2182.58 -2034.73 -2042.41 -2042.02 -2043.72 -2048.16 -2042.89 -2037.93 -2032.35 -2035.24 -2035.74 -2028.96 -2031.76 -2036.48 -2041.73 -2049.21 -2063.93 -2075.75 -2080.58 -2084.67
1259.07 1259.77 1260.62 1065.86 1066.19 1089.40 1088.08 1095.34 1098.41 1074.39 1052.41 989.06 919.65 1041.12 988.22 938.57 918.03 906.96 928.62 961.88 979.85 964.59 972.63 956.82 937.65 926.89 -45.43 -50.07 -58.54 -70.21 -92.71 -103.63 -135.04 -136.36 -149.54 -163.89 -177.92 -170.66 -165.21 -274.16 -275.73 -280.85 -276.37 -278.80 -258.05 -246.75 -232.46 -227.10 -225.23 -234.66 -246.10 -253.68 -253.73 -262.62 -255.62 -259.35 -250.19 -255.03 -248.11 -256.57 -261.51 -263.12 -265.48 -268.67 -268.39 -642.82 -651.75 -649.26 -658.08 -657.88 -659.59 -662.41 -657.66 -669.82 -662.31 -662.75 -662.48 -668.68 -718.89 -719.80 -718.55 -720.03 -716.60 -716.92 -715.56 -715.43 -715.43 -713.78 -714.53 -720.03 -720.55 -512.25 -515.17 -519.73 -519.29 -521.45 -546.68 -569.34 -603.29 -709.20 -901.40 -1216.16 -1356.07 -1759.22 -1905.52 -1961.66 -1998.68 -2062.16 -2081.27 -2118.39 -2146.02 -2153.28 -2163.37 -2166.81 -2164.37 -2181.79 -2188.64 -2027.52 -2044.60 -2040.03 -2049.36 -2050.33 -2049.71 -2042.29 -2040.77 -2039.47 -2040.57 -2033.90 -2030.68 -2040.47 -2044.67 -2050.93 -2063.50 -2081.49 -2085.84 -2082.14
1238.27 1236.53 1163.05 1081.41 1056.25 1074.93 1085.45 1089.32 1089.49 1102.16 1099.07 1049.82 925.46 1039.55 999.43 945.91 918.57 931.11 976.60 987.14 982.81 971.55 953.05 928.00 917.81 904.43 -57.06 -59.08 -55.36 -71.33 -105.09 -102.67 -117.33 -125.35 -138.78 -161.41 -174.07 -162.94 -164.27 -265.50 -260.66 -261.29 -274.12 -267.48 -268.74 -247.25 -228.60 -240.70 -235.43 -245.54 -243.67 -249.82 -257.06 -260.25 -268.85 -267.39 -270.31 -253.03 -253.16 -257.41 -258.80 -263.96 -269.17 -261.03 -270.45 -638.46 -646.25 -646.73 -650.23 -655.85 -654.69 -656.52 -662.65 -664.88 -665.03 -658.58 -665.45 -668.70 -709.07 -714.06 -711.60 -715.39 -715.40 -717.06 -711.72 -721.35 -717.33 -720.93 -714.61 -717.14 -718.25 -510.99 -510.91 -510.92 -517.45 -517.38 -529.95 -540.03 -563.77 -675.18 -852.02 -974.13 -1306.91 -1527.56 -1734.26 -1948.83 -1969.21 -2024.40 -2075.37 -2110.13 -2129.88 -2147.45 -2150.92 -2163.92 -2164.34 -2175.20 -2188.19 -2024.88 -2029.85 -2039.98 -2050.37 -2051.46 -2047.56 -2047.12 -2043.43 -2042.46 -2036.31 -2034.83 -2033.13 -2037.97 -2038.32 -2056.64 -2063.36 -2072.75 -2082.79 -2081.64
1235.01 1239.94 1146.86 1096.16 1002.87 978.46 1026.50 1043.47 1080.81 1088.14 1105.51 1035.24 961.29 1048.96 1019.42 971.83 973.52 982.94 1003.50 977.85 974.81 960.46 945.08 914.95 893.06 893.45 -77.85 -74.30 -74.95 -88.58 -111.15 -106.04 -111.01 -127.01 -137.23 -146.66 -173.17 -171.34 -146.17 -253.49 -239.27 -249.66 -263.64 -264.65 -253.28 -254.82 -254.30 -253.72 -251.34 -256.28 -247.37 -253.86 -257.82 -263.64 -270.74 -279.01 -270.36 -260.19 -255.23 -255.32 -265.16 -265.80 -268.24 -268.13 -261.86 -642.88 -648.10 -650.88 -649.17 -656.23 -653.15 -656.68 -660.47 -662.24 -657.18 -659.76 -660.96 -666.23 -719.25 -717.27 -716.08 -717.56 -712.02 -712.75 -719.33 -720.08 -720.44 -712.78 -720.68 -716.62 -713.23 -511.41 -508.86 -511.95 -511.83 -510.75 -518.44 -529.84 -557.89 -582.97 -725.18 -818.92 -1128.93 -1435.79 -1608.78 -1811.82 -1943.70 -1969.69 -2045.38 -2074.03 -2124.34 -2150.66 -2154.97 -2161.91 -2171.64 -2175.56 -2179.10 -2026.67 -2027.26 -2037.87 -2042.78 -2047.53 -2041.21 -2046.67 -2041.57 -2037.39 -2041.53 -2039.16 -2033.83 -2041.71 -2048.44 -2061.43 -2062.70 -2072.83 -2088.14 -2083.00
929.63 931.93 949.65 746.96 727.57 717.14 774.40 820.09 844.81 859.86 876.58 818.06 750.82 996.22 902.08 939.61 897.19 879.24 864.39 825.19 815.51 796.96 789.29 743.86 747.44 741.71 -92.31 -72.26 -73.07 -102.67 -113.44 -113.13 -120.30 -124.56 -146.84 -152.22 -168.30 -161.32 -146.12 -272.16 -271.26 -270.10 -271.38 -280.77 -283.62 -285.31 -292.81 -286.75 -297.88 -296.08 -295.10 -291.10 -230.63 -240.79 -258.61 -250.53 -243.28 -242.66 -236.37 -237.32 -232.70 -236.96 -242.72 -243.24 -238.98 -575.98 -578.44 -577.37 -576.77 -586.53 -588.80 -587.60 -587.53 -586.24 -589.22 -591.97 -593.69 -591.70 -675.04 -670.19 -676.19 -673.95 -669.84 -673.99 -679.04 -673.58 -672.30 -676.24 -679.52 -670.68 -674.02 -455.69 -452.46 -452.82 -456.14 -459.55 -459.54 -472.18 -489.30 -502.13 -559.03 -696.37 -956.25 -1174.71 -1760.35 -1939.65 -1979.03 -2086.88 -2119.38 -2174.42 -2191.02 -2237.75 -2264.69 -2269.23 -2271.74 -2275.29 -2284.03 -2012.36 -2016.53 -2022.10 -2028.21 -2028.83 -2031.82 -2038.93 -2038.31 -2039.79 -2032.56 -2034.90 -2037.30 -2042.08 -2041.84 -2048.77 -2063.87 -2084.64 -2087.85 -2082.90
898.57 897.16 811.31 725.00 670.85 710.86 765.28 809.67 834.59 842.64 850.49 861.98 824.48 1083.28 1014.22 968.95 953.62 926.75 848.98 804.16 810.67 785.98 756.48 746.67 740.47 734.75 -104.68 -91.49 -96.49 -101.09 -132.74 -128.86 -140.14 -164.77 -156.54 -158.51 -156.96 -149.15 -143.63 -275.56 -261.55 -264.63 -280.54 -274.47 -271.63 -283.28 -297.90 -304.02 -307.82 -304.94 -297.76 -300.39 -235.92 -243.71 -256.25 -254.44 -253.08 -246.14 -236.90 -242.48 -240.81 -247.71 -252.55 -248.14 -243.43 -583.00 -587.29 -583.85 -586.75 -587.45 -594.38 -585.07 -581.05 -592.99 -590.79 -584.88 -589.82 -592.46 -668.54 -672.23 -673.33 -673.69 -679.96 -678.29 -673.08 -677.69 -677.19 -671.66 -674.57 -676.90 -678.59 -451.74 -451.19 -454.62 -454.78 -454.60 -454.57 -464.83 -467.60 -526.59 -580.61 -624.32 -840.03 -1216.96 -1610.32 -1823.81 -1889.74 -1996.91 -2114.75 -2133.45 -2177.60 -2198.27 -2238.22 -2248.79 -2272.45 -2266.15 -2274.65 -2002.88 -2004.81 -2012.13 -2024.15 -2020.33 -2031.12 -2031.92 -2033.22 -2034.73 -2036.23 -2038.57 -2040.35 -2034.21 -2047.65 -2055.72 -2068.64 -2094.41 -2088.16 -2087.60
886.63 883.36 794.73 704.03 669.81 719.55 759.66 808.01 809.27 825.43 838.69 829.21 853.43 1162.42 1061.66 1039.29 970.49 912.83 834.25 829.42 828.86 797.21 791.97 769.26 756.34 728.14 -111.90 -117.33 -120.48 -132.91 -143.63 -149.36 -160.35 -160.52 -171.39 -157.71 -155.22 -143.29 -134.05 -264.70 -253.09 -254.05 -263.32 -266.91 -277.72 -296.57 -296.69 -313.07 -310.54 -313.34 -303.37 -311.50 -245.30 -246.85 -252.60 -259.10 -255.74 -254.10 -250.06 -244.88 -248.33 -246.27 -258.23 -262.23 -259.42 -584.64 -589.05 -588.84 -587.92 -581.61 -593.32 -592.30 -591.31 -589.05 -592.56 -590.54 -590.89 -592.65 -665.84 -677.03 -672.66 -672.85 -674.45 -676.57 -677.84 -676.21 -676.56 -673.34 -673.72 -673.96 -675.92 -453.65 -446.07 -450.88 -448.85 -455.13 -456.62 -459.37 -465.67 -501.59 -573.76 -643.49 -862.70 -1183.78 -1534.39 -1614.37 -1780.35 -1865.85 -2042.49 -2101.35 -2145.62 -2195.74 -2215.32 -2227.51 -2236.64 -2255.79 -2253.64 -1994.20 -2005.81 -2009.81 -2014.77 -2016.91 -2029.43 -2027.79 -2032.54 -2035.37 -2035.31 -2038.40 -2039.79 -2041.25 -2052.39 -2066.08 -2069.24 -2082.63 -2095.35 -2092.02
812.44 814.28 823.05 628.03 604.74 661.31 720.06 741.86 767.51 772.04 798.27 825.00 833.88 1137.99 1093.73 1064.65 991.77 931.52 866.92 867.35 834.42 807.52 791.49 774.76 758.39 732.34 -136.78 -131.91 -125.85 -132.67 -152.70 -154.87 -166.81 -167.69 -158.28 -146.48 -135.01 -126.74 -128.02 -244.05 -247.82 -247.01 -257.96 -264.74 -278.64 -280.49 -314.60 -318.03 -320.40 -312.55 -315.34 -317.06 -259.12 -252.05 -251.59 -255.51 -252.82 -255.15 -258.19 -252.13 -252.08 -257.96 -253.67 -263.27 -261.79 -592.04 -589.06 -583.89 -587.26 -586.09 -596.12 -592.82 -593.58 -594.62 -593.09 -586.43 -586.64 -596.71 -672.95 -673.73 -679.83 -671.08 -669.78 -673.20 -678.59 -672.07 -674.88 -674.51 -675.26 -670.92 -678.28 -453.21 -451.67 -458.06 -452.36 -448.99 -460.07 -447.31 -458.55 -513.30 -546.82 -624.58 -778.81 -803.01 -1211.96 -1624.29 -1691.58 -1766.54 -1930.44 -2057.54 -2073.47 -2142.56 -2187.77 -2198.91 -2230.63 -2233.51 -2248.13 -1990.59 -1990.81 -2001.70 -2016.89 -2016.78 -2028.04 -2031.92 -2038.43 -2045.70 -2036.02 -2039.32 -2046.13 -2057.86 -2057.60 -2078.81 -2076.95 -2095.66 -2097.73 -2099.44
781.44 786.78 720.74 615.84 596.97 600.60 642.98 675.00 725.73 752.18 771.18 774.67 796.35 1083.28 1015.91 1005.24 1024.14 959.00 942.35 888.54 839.62 782.56 771.52 759.88 757.03 729.07 -135.55 -138.68 -140.75 -142.24 -134.63 -145.15 -164.06 -169.12 -149.79 -131.09 -126.28 -114.82 -112.63 -245.40 -243.46 -238.68 -254.49 -267.96 -289.42 -296.16 -316.48 -315.08 -316.77 -306.81 -314.90 -314.31 -257.51 -253.97 -254.34 -247.97 -254.57 -252.95 -259.56 -257.37 -256.70 -250.37 -256.31 -254.74 -258.67 -590.41 -589.93 -587.34 -596.18 -592.19 -591.70 -594.40 -594.64 -596.63 -598.85 -596.80 -595.32 -590.68 -678.11 -675.33 -674.59 -674.06 -670.04 -672.57 -673.24 -671.94 -674.27 -670.23 -678.76 -674.74 -676.45 -455.88 -452.86 -451.35 -457.17 -453.46 -455.25 -455.37 -450.03 -464.69 -516.43 -582.32 -620.10 -887.13 -1249.41 -1542.08 -1599.09 -1776.15 -1889.00 -1931.31 -2025.49 -2105.70 -2130.52 -2179.44 -2194.18 -2202.26 -2231.98 -1984.68 -1987.13 -2001.26 -2004.05 -2016.69 -2027.89 -2030.42 -2040.04 -2048.08 -2047.26 -2052.85 -2055.27 -2062.59 -2073.47 -2072.18 -2081.98 -2104.19 -2109.35 -2119.24
785.35 791.12 734.62 631.25 605.65 572.95 590.28 613.37 653.78 676.35 680.63 676.25 663.86 962.43 919.25 979.39 1007.94 998.49 952.80 899.56 828.21 808.12 770.91 747.04 737.56 729.89 -135.34 -127.19 -125.84 -117.29 -120.75 -142.78 -166.52 -150.99 -131.44 -114.23 -114.63 -104.12 -102.78 -250.83 -249.69 -248.47 -253.98 -289.51 -293.06 -306.46 -320.01 -320.77 -315.08 -303.14 -303.65 -318.22 -260.87 -252.67 -249.88 -238.12 -241.77 -247.47 -261.24 -254.73 -257.95 -254.22 -252.65 -250.90 -254.36 -587.59 -587.44 -592.67 -591.76 -598.05 -595.68 -587.63 -593.69 -595.88 -592.19 -595.33 -594.30 -593.26 -670.12 -673.32 -673.02 -674.33 -672.50 -676.06 -672.02 -678.03 -671.83 -674.00 -666.91 -671.43 -672.80 -457.52 -454.62 -459.73 -455.50 -451.20 -458.59 -454.58 -458.79 -468.26 -489.57 -536.04 -615.95 -955.53 -1212.63 -1485.35 -1631.99 -1783.98 -1832.02 -1902.60 -1965.16 -2027.87 -2060.89 -2145.69 -2179.13 -2186.92 -2232.04 -1965.69 -1982.33 -1998.91 -2015.50 -2023.02 -2024.65 -2035.54 -2040.51 -2049.00 -2046.82 -2051.92 -2057.12 -2070.76 -2077.54 -2090.04 -2088.44 -2110.08 -2122.35 -2124.98
857.41 857.77 770.53 662.99 653.00 586.68 561.72 593.54 607.38 615.79 598.99 595.11 593.82 882.27 866.41 919.11 996.44 983.84 943.06 899.34 838.33 798.46 771.36 756.15 737.82 729.20 -109.91 -113.75 -102.75 -115.25 -122.55 -143.94 -147.04 -140.16 -132.47 -111.36 -113.41 -99.99 -113.75 -260.58 -269.55 -268.71 -289.33 -285.16 -295.42 -309.97 -316.38 -313.97 -309.98 -297.24 -300.01 -292.35 -239.65 -236.68 -237.51 -233.29 -240.88 -250.24 -251.93 -254.68 -255.00 -253.03 -251.37 -252.39 -254.53 -591.70 -594.96 -589.06 -598.26 -592.07 -594.55 -588.27 -582.65 -594.88 -595.22 -590.66 -595.11 -595.79 -675.03 -674.54 -673.83 -676.16 -674.60 -676.70 -677.84 -677.18 -668.11 -678.39 -671.05 -677.89 -671.88 -451.07 -447.36 -454.69 -456.01 -452.79 -460.84 -460.09 -465.45 -477.52 -520.12 -580.59 -610.38 -785.30 -1118.81 -1470.66 -1577.09 -1708.48 -1747.81 -1826.53 -1888.52 -1938.63 -2051.00 -2103.75 -2138.04 -2197.44 -2232.45 -1966.38 -1985.22 -1996.91 -2022.97 -2033.41 -2037.30 -2042.89 -2043.48 -2048.70 -2060.55 -2065.61 -2073.92 -2075.81 -2091.11 -2100.06 -2106.57 -2119.59 -2134.27 -2127.14
862.42 860.65 790.26 714.38 650.49 589.32 558.78 579.20 581.96 597.61 595.16 566.84 553.51 840.71 856.41 907.71 961.42 974.93 944.60 893.58 871.23 812.14 773.47 770.43 757.73 747.50 -105.47 -97.89 -96.75 -107.77 -139.25 -138.73 -131.75 -126.31 -105.96 -111.37 -103.03 -119.66 -124.37 -291.35 -289.83 -281.55 -290.62 -294.37 -299.62 -313.15 -319.43 -311.38 -303.20 -296.24 -295.24 -293.60 -228.04 -234.91 -228.97 -225.88 -222.58 -238.37 -247.91 -247.49 -251.32 -249.76 -255.84 -257.52 -262.20 -590.83 -594.90 -594.90 -589.06 -595.33 -591.42 -584.32 -586.87 -591.28 -595.09 -590.26 -594.11 -590.51 -676.69 -678.35 -671.27 -669.17 -670.78 -671.29 -679.37 -672.35 -674.16 -680.20 -674.62 -673.10 -674.11 -452.68 -453.68 -451.31 -457.78 -448.81 -456.28 -454.94 -478.30 -505.77 -546.26 -600.38 -614.90 -750.85 -1044.22 -1243.63 -1449.68 -1553.22 -1701.53 -1745.58 -1828.06 -1912.66 -1994.39 -2069.24 -2121.71 -2202.48 -2236.86 -1970.17 -1991.07 -2004.67 -2030.99 -2026.02 -2035.90 -2045.71 -2055.04 -2056.87 -2071.26 -2068.89 -2080.44 -2095.28 -2089.69 -2102.94 -2104.94 -2126.37 -2144.69 -2141.73
854.55 854.35 856.96 671.29 656.70 603.93 559.99 558.29 555.86 591.80 591.92 570.54 556.31 817.53 825.37 872.03 942.34 962.94 932.24 909.48 885.32 795.99 780.74 764.00 768.17 763.81 -85.90 -100.92 -109.80 -126.81 -135.44 -125.85 -119.10 -102.04 -104.10 -100.88 -112.21 -115.67 -133.48 -292.61 -296.22 -300.58 -305.39 -305.77 -316.03 -323.57 -308.34 -295.22 -297.85 -293.49 -289.64 -278.90 -221.44 -222.72 -226.46 -224.63 -219.06 -226.60 -237.31 -243.75 -248.87 -260.54 -255.78 -251.73 -251.33 -591.28 -593.39 -595.16 -593.64 -587.14 -590.96 -587.58 -586.85 -595.44 -597.48 -592.27 -591.70 -596.15 -674.96 -666.59 -670.78 -678.23 -672.28 -667.58 -675.90 -676.30 -676.09 -673.39 -680.58 -679.15 -673.50 -451.07 -454.49 -452.48 -456.06 -450.21 -454.79 -461.21 -473.88 -496.09 -528.95 -537.22 -576.20 -765.47 -1090.32 -1298.41 -1473.83 -1510.63 -1554.49 -1667.26 -1736.92 -1831.74 -1882.39 -2046.83 -2071.19 -2175.50 -2221.12 -1967.35 -2004.56 -2007.16 -2023.11 -2032.46 -2033.71 -2044.25 -2050.97 -2061.24 -2071.19 -2075.51 -2083.60 -2092.70 -2093.78 -2104.72 -2119.97 -2146.34 -2153.80 -2153.75
850.83 858.17 782.28 678.22 635.98 597.03 558.01 526.27 543.38 549.43 581.51 567.82 536.45 803.91 814.48 873.37 887.86 923.22 932.38 878.52 845.42 790.38 784.90 758.01 758.95 753.52 -92.64 -113.89 -131.06 -127.87 -116.73 -106.09 -98.37 -105.37 -87.10 -95.03 -119.59 -122.82 -148.25 -301.57 -317.13 -311.24 -313.18 -316.56 -314.81 -313.60 -300.43 -290.85 -287.59 -290.20 -281.36 -271.28 -213.08 -212.82 -218.87 -221.35 -223.78 -233.40 -232.34 -240.14 -250.43 -255.94 -260.42 -255.99 -256.59 -590.14 -589.75 -585.53 -588.54 -590.37 -590.25 -590.42 -585.10 -590.04 -587.05 -595.58 -589.61 -591.97 -670.78 -666.79 -673.38 -676.08 -677.39 -675.73 -677.59 -669.09 -672.91 -672.32 -677.07 -677.30 -672.77 -454.71 -456.17 -451.85 -455.77 -448.22 -458.71 -468.55 -466.15 -481.44 -518.01 -530.92 -534.72 -758.69 -1086.61 -1236.83 -1372.86 -1496.02 -1516.56 -1589.34 -1687.21 -1716.77 -1881.16 -1975.79 -2079.40 -2124.66 -2181.43 -1969.92 -2006.43 -2014.20 -2029.52 -2032.84 -2033.18 -2043.61 -2050.33 -2057.01 -2055.28 -2072.45 -2082.36 -2096.07 -2100.49 -2115.06 -2124.77 -2146.74 -2156.54 -2152.57
864.23 861.61 784.54 669.77 605.13 562.81 529.29 520.81 521.16 540.20 557.90 539.04 522.91 785.16 810.74 844.67 885.37 908.70 910.01 875.86 819.64 806.77 777.31 768.91 753.05 739.81 -100.29 -120.50 -119.12 -112.72 -107.45 -92.37 -88.64 -91.73 -90.64 -96.36 -116.82 -145.79 -150.19 -295.48 -304.60 -303.76 -308.22 -312.68 -311.35 -302.02 -292.85 -278.33 -272.36 -275.91 -271.12 -280.99 -216.26 -215.85 -221.20 -221.93 -233.99 -237.77 -243.45 -249.53 -259.70 -258.98 -255.49 -252.45 -249.07 -579.09 -579.97 -585.54 -590.09 -587.67 -588.63 -586.68 -589.71 -590.46 -592.00 -584.28 -591.51 -592.18 -667.42 -676.04 -678.02 -670.84 -672.00 -673.95 -676.79 -676.87 -678.00 -673.36 -673.09 -671.18 -672.17 -449.66 -452.89 -449.51 -458.93 -448.11 -452.81 -452.44 -454.35 -461.39 -466.42 -515.02 -539.68 -715.76 -1004.68 -1272.10 -1310.63 -1426.29 -1495.43 -1554.54 -1591.66 -1743.89 -1788.36 -1972.84 -2058.06 -2091.85 -2154.64 -1995.32 -2007.57 -2020.26 -2020.99 -2023.12 -2030.68 -2035.84 -2039.65 -2050.99 -2061.10 -2071.64 -2081.25 -2085.54 -2098.99 -2105.42 -2118.99 -2136.08 -2152.92 -2150.56
852.09 846.35 763.07 670.22 601.94 518.46 514.81 510.45 536.40 540.75 526.99 531.75 499.42 784.88 793.59 866.06 883.49 909.84 905.36 881.86 860.82 815.51 804.45 783.08 773.64 749.34 -105.44 -102.82 -107.50 -101.66 -86.25 -78.10 -75.31 -71.70 -81.96 -93.46 -115.17 -117.14 -134.49 -283.90 -290.13 -292.50 -295.66 -304.70 -303.21 -300.07 -284.63 -273.92 -266.14 -260.95 -267.16 -273.51 -230.74 -229.05 -233.90 -222.38 -234.96 -241.53 -247.28 -253.38 -247.59 -255.26 -247.98 -250.33 -242.43 -576.16 -579.15 -587.12 -594.09 -600.77 -590.69 -587.42 -582.21 -583.84 -578.01 -583.74 -586.16 -594.18 -675.43 -671.33 -674.44 -676.10 -675.31 -672.84 -671.31 -673.73 -676.43 -669.89 -675.60 -677.94 -680.04 -455.46 -454.35 -448.95 -455.16 -455.02 -456.08 -453.42 -451.40 -456.91 -482.88 -505.14 -569.09 -604.13 -808.16 -1067.92 -1348.20 -1370.48 -1461.57 -1477.10 -1535.63 -1702.87 -1775.76 -1965.78 -2037.44 -2079.12 -2110.68 -1948.02 -1981.79 -1993.10 -1995.59 -2016.25 -2014.93 -2032.28 -2029.96 -2036.78 -2054.17 -2071.43 -2083.65 -2082.57 -2098.21 -2112.85 -2119.72 -2138.11 -2148.81 -2149.09
839.06 837.60 766.31 648.30 614.13 568.03 544.17 519.31 551.84 541.34 550.22 535.15 519.97 1346.75 1374.58 1437.66 1464.94 1494.89 1484.47 1458.63 1456.45 1424.68 1402.39 1391.75 1365.01 1347.61 482.39 469.84 466.89 458.91 477.16 501.92 494.86 492.32 485.92 470.39 451.79 462.36 443.93 -137.91 -150.04 -158.75 -161.73 -169.83 -177.40 -169.43 -154.90 -145.41 -123.18 -121.33 -129.15 -136.45 -227.00 -226.22 -239.76 -232.94 -243.29 -240.17 -251.91 -250.84 -241.64 -238.27 -239.77 -231.90 -249.51 -297.68 -304.83 -307.37 -313.88 -304.62 -312.31 -298.53 -294.07 -293.04 -289.35 -298.31 -303.85 -307.64 -393.26 -399.44 -403.22 -399.95 -408.45 -402.42 -403.35 -401.03 -402.38 -401.39 -402.42 -401.42 -401.42 -529.36 -520.56 -524.94 -521.16 -523.77 -526.38 -518.43 -525.77 -530.33 -524.44 -569.34 -648.89 -665.00 -716.40 -927.01 -1066.25 -1168.93 -1353.41 -1393.75 -1421.32 -1513.92 -1755.36 -1868.33 -1920.41 -1996.20 -2042.46 -1899.44 -1944.26 -1959.08 -1962.83 -1984.66 -2005.37 -2017.76 -2020.85 -2031.77 -2039.85 -2061.89 -2073.04 -2083.15 -2089.59 -2101.85 -2114.44 -2123.66 -2142.73 -2143.89
803.19 801.63 711.90 604.40 581.85 580.58 543.14 534.74 509.96 522.09 508.13 521.82 521.64 1353.48 1368.96 1398.29 1438.46 1443.38 1474.27 1457.41 1453.75 1451.24 1439.66 1410.90 1387.79 1356.73 485.90 485.70 482.79 480.75 482.49 493.26 489.73 492.60 483.58 460.64 453.77 450.74 429.69 -139.47 -158.92 -163.27 -169.96 -169.04 -171.40 -166.31 -167.08 -151.16 -134.37 -134.28 -131.81 -133.53 -211.07 -224.95 -221.85 -225.63 -232.68 -235.77 -248.96 -235.99 -229.82 -228.19 -230.24 -241.12 -241.64 -305.92 -311.81 -303.55 -305.16 -297.85 -293.85 -302.50 -295.09 -294.14 -291.85 -296.63 -308.86 -307.77 -400.80 -399.43 -402.67 -404.73 -403.45 -406.23 -405.11 -404.04 -400.43 -395.50 -405.40 -396.51 -398.06 -523.04 -524.32 -528.80 -526.41 -519.16 -521.39 -525.23 -519.39 -527.87 -528.65 -529.66 -595.52 -654.61 -605.70 -863.88 -923.39 -1067.95 -1126.28 -1253.59 -1397.48 -1503.76 -1659.20 -1800.74 -1891.06 -1952.77 -1994.42 -1851.20 -1900.69 -1907.74 -1950.07 -1932.80 -1957.63 -1963.50 -1995.28 -2000.01 -2013.25 -2048.46 -2064.09 -2069.84 -2092.30 -2095.03 -2105.75 -2126.95 -2134.40 -2127.78
805.28 801.96 710.79 580.08 567.92 553.01 550.75 530.13 519.75 511.06 503.43 495.95 494.69 1328.46 1343.24 1354.05 1372.46 1430.25 1427.77 1442.37 1452.42 1453.92 1445.82 1427.81 1403.34 1365.72 485.42 486.38 488.47 500.11 501.66 496.22 484.35 481.75 464.88 445.19 428.45 430.45 429.89 -158.01 -172.44 -173.42 -173.63 -164.58 -152.45 -152.08 -159.98 -154.51 -135.87 -121.91 -129.16 -127.97 -207.60 -205.72 -214.79 -219.73 -219.95 -225.74 -239.40 -220.88 -219.74 -221.04 -226.08 -236.33 -241.99 -301.71 -301.00 -300.22 -294.02 -294.35 -289.97 -293.39 -294.42 -283.74 -287.63 -303.68 -302.57 -305.48 -398.85 -394.85 -396.72 -408.78 -398.81 -401.93 -397.77 -401.55 -408.69 -410.85 -406.48 -402.01 -402.59 -522.96 -521.17 -518.10 -529.39 -522.06 -528.82 -524.63 -521.67 -525.22 -525.78 -528.88 -528.45 -576.48 -487.47 -632.98 -770.93 -786.96 -1004.44 -1163.82 -1301.55 -1387.28 -1574.33 -1718.26 -1851.46 -1893.30 -1972.32 -1777.31 -1824.21 -1853.43 -1852.47 -1843.60 -1856.20 -1883.79 -1890.23 -1943.79 -1988.74 -2009.17 -2044.79 -2048.01 -2064.46 -2080.82 -2085.83 -2105.86 -2114.27 -2117.48
886.87 882.61 751.48 590.79 567.49 553.83 550.96 542.21 524.02 514.72 511.11 498.28 504.30 1345.54 1334.70 1345.79 1334.57 1368.18 1382.26 1427.64 1434.24 1441.21 1436.49 1426.08 1432.83 1395.08 522.59 510.50 509.52 512.26 506.12 492.76 474.23 472.07 450.10 432.04 415.90 422.64 412.18 -157.39 -168.36 -177.33 -169.90 -162.80 -150.20 -145.01 -142.92 -132.84 -130.49 -125.90 -120.76 -126.24 -202.71 -207.12 -201.49 -209.69 -213.47 -213.63 -218.06 -212.64 -206.49 -208.19 -222.35 -228.82 -231.64 -300.74 -301.42 -284.93 -279.81 -290.44 -293.17 -280.76 -287.23 -289.10 -297.32 -296.84 -301.71 -296.42 -390.26 -391.55 -395.62 -399.56 -402.26 -398.02 -400.78 -398.46 -397.55 -403.16 -402.98 -402.99 -405.39 -526.27 -522.15 -523.55 -517.59 -520.90 -522.08 -525.64 -523.08 -524.97 -522.97 -530.57 -522.07 -539.43 -445.53 -449.63 -637.18 -712.60 -823.38 -996.84 -1089.31 -1234.82 -1527.16 -1621.68 -1720.05 -1784.07 -1898.53 -1726.67 -1763.00 -1764.93 -1770.12 -1821.36 -1834.71 -1869.42 -1875.04 -1896.49 -1931.33 -1955.31 -2012.63 -2040.09 -2051.83 -2064.97 -2085.45 -2099.86 -2097.45 -2102.27
837.04 832.80 757.91 598.10 583.38 575.38 591.57 551.49 560.57 532.55 533.56 518.17 508.60 1360.91 1351.85 1331.91 1321.90 1348.13 1375.80 1354.77 1402.52 1415.85 1442.45 1436.46 1441.94 1419.06 528.50 515.22 514.32 503.33 484.45 477.86 470.80 453.30 442.20 427.86 411.03 414.49 397.83 -166.23 -164.21 -161.77 -172.38 -169.66 -157.97 -140.66 -129.80 -117.78 -115.80 -116.28 -103.60 -120.15 -195.60 -197.51 -193.63 -193.92 -203.17 -202.62 -211.31 -209.30 -204.17 -205.00 -206.98 -222.23 -233.87 -290.81 -292.42 -288.81 -279.14 -276.76 -280.52 -279.27 -281.52 -279.80 -289.21 -296.18 -290.77 -299.35 -388.32 -390.88 -390.91 -394.43 -395.87 -402.82 -394.93 -399.15 -403.67 -403.65 -404.36 -402.01 -404.66 -521.89 -523.38 -528.01 -531.13 -524.69 -527.01 -523.88 -521.32 -526.07 -516.44 -523.82 -530.96 -542.08 -447.81 -449.16 -450.52 -560.02 -741.18 -802.86 -1001.13 -1242.48 -1338.29 -1549.14 -1680.23 -1724.32 -1774.90 -1543.99 -1652.48 -1739.54 -1720.29 -1750.44 -1727.62 -1787.66 -1815.83 -1866.93 -1864.77 -1910.55 -1997.24 -2014.12 -2011.86 -2043.12 -2052.23 -2071.90 -2076.13 -2072.38
924.66 924.37 883.60 604.25 607.14 621.46 633.13 614.20 566.31 561.70 563.42 533.47 537.44 1393.47 1377.61 1333.63 1318.00 1346.31 1357.11 1349.50 1351.90 1380.25 1408.40 1426.73 1433.57 1429.91 560.82 530.52 516.46 502.18 478.10 452.03 445.02 446.75 420.05 415.11 394.95 393.34 400.38 -161.78 -142.74 -155.02 -165.00 -169.52 -161.26 -142.31 -109.49 -106.77 -103.89 -104.46 -103.07 -103.77 -182.31 -188.66 -182.23 -192.43 -186.50 -201.73 -198.52 -204.17 -198.76 -199.49 -207.85 -213.96 -217.99 -282.64 -279.24 -283.80 -273.44 -280.06 -274.77 -279.63 -268.89 -278.53 -281.02 -283.37 -286.89 -292.72 -381.58 -383.30 -390.48 -394.94 -395.68 -395.69 -394.39 -399.83 -399.53 -399.50 -397.85 -397.13 -404.07 -517.79 -526.41 -519.39 -524.59 -529.55 -519.62 -522.39 -529.52 -523.11 -520.64 -529.68 -529.96 -531.56 -445.28 -437.81 -452.05 -451.69 -556.85 -786.69 -941.85 -1250.36 -1388.23 -1444.53 -1612.11 -1672.85 -1692.37 -1505.75 -1535.06 -1605.96 -1627.03 -1636.75 -1659.76 -1708.67 -1715.32 -1773.51 -1820.99 -1824.81 -1925.67 -1976.07 -2004.81 -2023.32 -2015.70 -2037.83 -2044.34 -2044.00
855.20 857.48 763.30 643.13 618.33 652.31 698.99 689.12 626.97 591.10 567.63 564.53 554.83 1389.52 1372.46 1336.55 1320.05 1324.66 1335.39 1329.47 1339.38 1380.33 1392.67 1407.07 1413.30 1433.53 573.85 547.38 520.36 505.33 484.95 458.84 440.75 431.18 421.44 404.18 393.10 404.85 409.12 -143.20 -143.24 -138.67 -154.69 -159.78 -154.07 -148.38 -105.93 -85.23 -95.43 -91.05 -97.77 -102.87 -186.41 -185.23 -182.82 -196.28 -195.56 -197.00 -201.71 -207.74 -201.04 -197.61 -204.66 -207.17 -208.12 -267.01 -274.80 -270.10 -281.15 -275.83 -279.83 -275.90 -283.28 -273.75 -287.26 -281.18 -290.65 -287.75 -368.58 -378.23 -394.99 -394.65 -391.13 -394.19 -387.08 -394.58 -393.62 -393.09 -403.11 -404.26 -404.43 -520.05 -525.72 -525.30 -524.20 -524.79 -526.33 -527.19 -524.02 -522.08 -525.74 -520.57 -526.33 -530.94 -435.39 -439.33 -436.87 -448.00 -542.93 -632.35 -1033.04 -1231.12 -1385.10 -1400.26 -1501.34 -1616.19 -1623.72 -1392.58 -1394.38 -1392.10 -1471.02 -1505.92 -1542.42 -1601.74 -1645.68 -1712.79 -1740.52 -1799.25 -1844.82 -1900.08 -1926.89 -1937.17 -1974.74 -2008.72 -1999.53 -1994.42
858.26 862.55 747.76 621.00 662.19 715.29 745.66 750.62 674.49 645.97 594.63 585.32 579.36 1392.11 1392.51 1367.17 1330.86 1317.30 1311.86 1307.02 1317.59 1340.93 1364.92 1380.69 1410.25 1424.27 582.42 553.88 554.89 529.26 499.01 452.16 444.64 434.42 414.01 402.72 392.87 406.88 418.41 -127.32 -120.55 -131.86 -148.39 -157.60 -153.68 -130.89 -101.35 -84.05 -92.87 -91.96 -99.51 -100.81 -193.73 -199.60 -190.96 -203.09 -210.10 -213.17 -216.92 -205.37 -203.65 -206.90 -202.88 -208.03 -203.67 -269.95 -262.61 -273.32 -267.63 -277.35 -276.43 -276.74 -273.76 -280.20 -283.29 -295.94 -300.31 -292.41 -388.03 -381.41 -392.90 -389.24 -387.11 -388.27 -396.53 -392.67 -389.73 -395.61 -392.23 -398.63 -393.81 -516.78 -522.57 -526.24 -523.57 -522.65 -526.16 -523.20 -528.44 -525.94 -523.38 -522.67 -526.53 -528.52 -427.93 -436.25 -432.59 -432.05 -443.36 -584.57 -765.67 -1120.02 -1232.14 -1331.97 -1472.80 -1543.27 -1537.28 -1332.41 -1322.03 -1369.47 -1391.06 -1426.65 -1489.11 -1496.83 -1517.23 -1604.47 -1695.51 -1723.73 -1753.26 -1769.36 -1825.10 -1891.88 -1900.81 -1950.85 -1954.31 -1952.02
983.62 973.41 829.71 665.87 737.45 790.86 775.66 781.82 734.04 656.79 623.82 614.76 591.29 1407.93 1382.18 1379.45 1368.59 1353.02 1319.78 1319.41 1301.67 1319.45 1337.71 1371.79 1383.67 1414.89 560.02 561.99 535.47 520.80 517.56 481.76 451.19 438.10 420.73 406.14 394.92 398.65 414.47 -122.46 -111.72 -117.13 -133.53 -141.43 -141.53 -112.03 -97.59 -86.78 -92.21 -102.67 -106.44 -116.22 -191.79 -201.54 -210.49 -211.67 -219.77 -226.77 -219.50 -212.66 -210.49 -208.08 -213.56 -202.99 -210.52 -267.24 -269.75 -273.30 -265.85 -280.53 -287.72 -287.31 -293.86 -292.95 -292.95 -305.79 -310.85 -306.07 -386.47 -388.41 -393.76 -392.68 -391.50 -396.30 -386.92 -391.68 -396.54 -391.71 -392.13 -395.43 -402.92 -521.01 -525.88 -524.54 -518.84 -524.75 -523.21 -528.97 -521.48 -524.07 -525.49 -519.63 -522.65 -528.94 -434.07 -431.29 -431.28 -434.31 -439.70 -534.28 -687.02 -952.60 -1059.03 -1189.34 -1311.47 -1400.11 -1516.69 -1264.92 -1285.48 -1310.54 -1353.25 -1359.99 -1386.85 -1407.23 -1467.19 -1469.63 -1522.29 -1559.19 -1612.43 -1725.56 -1784.35 -1830.49 -1850.26 -1852.12 -1902.15 -1894.02
952.93 953.68 828.11 736.48 727.13 812.19 814.20 820.92 760.20 692.60 639.63 644.39 614.93 1395.44 1375.38 1384.54 1375.20 1356.67 1345.77 1326.36 1300.56 1318.20 1309.70 1350.37 1363.18 1383.06 533.59 536.34 536.99 515.44 508.53 485.88 438.80 435.34 419.65 401.60 389.86 397.82 412.85 -127.25 -103.94 -111.09 -122.96 -125.98 -114.16 -105.06 -94.89 -83.65 -88.83 -100.15 -107.40 -125.90 -205.74 -221.64 -223.04 -221.11 -225.85 -238.44 -230.49 -220.00 -221.93 -217.88 -224.09 -232.08 -236.08 -290.38 -283.82 -276.87 -283.51 -295.48 -304.47 -307.33 -299.41 -293.24 -312.00 -308.94 -309.15 -308.83 -394.23 -398.76 -394.87 -396.28 -389.80 -392.82 -387.32 -389.43 -387.81 -396.38 -397.10 -399.69 -399.41 -524.12 -522.14 -525.96 -521.53 -526.18 -523.44 -522.93 -519.40 -529.13 -526.07 -519.69 -527.92 -526.06 -427.30 -429.33 -432.01 -435.53 -446.48 -452.47 -602.73 -785.74 -854.37 -1011.95 -1240.80 -1380.38 -1473.11 -1227.60 -1205.68 -1244.89 -1246.63 -1269.58 -1275.11 -1318.75 -1328.31 -1372.69 -1447.48 -1468.95 -1576.04 -1606.45 -1683.12 -1790.51 -1794.89 -1845.77 -1827.60 -1830.27
991.78 984.40 1046.20 743.50 793.84 830.31 882.01 869.68 822.03 706.44 642.80 622.56 597.90 1391.72 1366.56 1357.62 1366.82 1373.99 1362.23 1341.82 1334.10 1308.68 1308.93 1318.12 1354.47 1360.85 512.22 533.80 505.53 499.71 481.72 483.46 430.33 400.99 404.09 389.24 400.96 399.00 423.28 -130.95 -109.50 -98.87 -106.31 -108.30 -103.23 -96.08 -83.19 -83.98 -87.01 -112.36 -125.38 -139.02 -212.94 -224.74 -216.32 -210.44 -213.69 -230.06 -241.41 -230.22 -223.37 -230.50 -238.69 -242.54 -248.73 -299.41 -298.15 -293.09 -295.98 -303.22 -303.12 -306.16 -313.12 -308.07 -305.39 -310.66 -311.55 -316.68 -396.24 -404.15 -397.86 -399.13 -394.31 -394.74 -396.32 -390.24 -403.14 -399.44 -398.61 -398.21 -404.15 -520.40 -526.11 -522.16 -517.81 -521.41 -517.36 -525.17 -523.37 -522.98 -519.92 -523.16 -520.85 -526.40 -431.02 -430.31 -423.70 -431.78 -439.49 -444.67 -479.27 -686.69 -802.29 -1048.61 -1247.02 -1409.77 -1431.81 -1154.13 -1155.09 -1169.24 -1178.84 -1160.97 -1164.40 -1225.49 -1204.33 -1251.03 -1319.37 -1366.62 -1488.56 -1522.34 -1570.95 -1635.51 -1703.13 -1742.08 -1763.00 -1761.91
1240.30 1239.20 1033.79 883.30 838.79 891.25 923.66 912.11 857.38 757.67 661.65 642.98 569.47 1375.45 1357.76 1345.94 1346.12 1353.80 1359.59 1352.89 1326.31 1304.05 1296.06 1304.96 1319.43 1347.16 503.70 506.98 474.14 473.88 457.35 422.62 412.60 392.46 399.29 396.34 407.59 414.86 430.82 -123.00 -110.57 -93.15 -97.73 -83.50 -77.94 -78.35 -82.29 -84.58 -97.65 -107.41 -122.12 -129.96 -214.80 -212.68 -201.03 -208.71 -221.95 -226.01 -236.81 -236.44 -237.15 -237.07 -236.43 -238.46 -257.16 -309.64 -302.18 -287.68 -296.53 -298.67 -309.45 -305.07 -309.87 -307.13 -313.15 -314.99 -309.83 -317.35 -399.15 -407.59 -408.58 -403.61 -402.55 -404.49 -405.89 -401.26 -398.05 -403.36 -404.52 -410.29 -404.22 -526.45 -522.03 -522.96 -516.73 -522.44 -520.03 -520.24 -526.64 -528.15 -524.28 -522.84 -520.20 -526.28 -429.90 -424.17 -429.65 -430.55 -434.14 -444.79 -557.60 -655.14 -888.28 -1088.84 -1279.05 -1394.45 -1387.45 -1141.29 -1110.12 -1085.80 -1086.31 -1116.98 -1073.50 -1104.88 -1168.43 -1169.23 -1181.31 -1289.42 -1341.35 -1401.40 -1493.01 -1521.85 -1604.68 -1692.21 -1682.47 -1675.96
988.20 987.45 887.24 655.78 611.65 641.83 665.09 652.69 586.97 466.41 397.05 319.04 250.00 15.11 -5.59 -29.30 -25.74 -24.40 -29.73 -38.78 -37.89 -54.01 -64.60 -63.95 -46.34 -27.06 323.64 321.84 309.69 285.45 269.34 254.33 247.65 250.07 245.89 249.38 270.53 282.91 295.36 309.88 341.27 361.21 353.68 356.99 367.45 360.41 356.01 351.40 340.85 326.89 309.64 299.80 -147.40 -138.65 -133.70 -147.75 -154.73 -171.55 -169.92 -166.51 -176.03 -172.73 -166.85 -177.10 -188.98 -194.34 -191.78 -193.54 -184.54 -188.47 -184.09 -196.24 -198.45 -192.28 -191.84 -185.57 -186.79 -195.62 -449.56 -442.36 -444.25 -448.53 -449.19 -441.40 -447.60 -448.02 -448.44 -445.14 -448.54 -448.54 -447.34 -613.53 -611.89 -612.43 -605.33 -601.90 -604.24 -605.20 -608.36 -608.35 -608.58 -603.50 -605.20 -604.78 -524.18 -526.95 -525.58 -527.86 -530.03 -545.86 -681.39 -824.77 -1061.88 -1207.61 -1369.68 -1445.15 -1456.75 -1099.31 -1056.35 -1049.39 -1034.33 -1025.25 -1039.50 -1044.99 -1040.28 -1027.50 -1028.01 -1114.37 -1199.45 -1248.39 -1341.99 -1463.04 -1466.46 -1599.49 -1598.46 -1597.79
1162.84 1160.46 960.87 697.14 695.38 732.04 698.85 637.02 540.59 503.10 384.72 307.02 247.46 6.50 -1.88 -16.99 -30.80 -39.23 -49.17 -52.37 -55.45 -74.86 -81.36 -69.69 -52.36 -47.94 315.64 308.98 295.15 277.78 265.46 244.28 250.51 257.19 262.01 269.58 279.17 297.84 318.48 356.73 349.13 365.63 362.97 366.92 369.07 366.57 350.89 351.22 345.72 329.39 306.46 310.01 -143.99 -130.32 -128.39 -139.36 -151.85 -150.79 -163.12 -155.61 -173.32 -172.08 -159.99 -165.69 -181.24 -190.59 -193.46 -195.83 -199.34 -194.44 -188.85 -195.48 -191.83 -190.19 -184.89 -185.19 -182.31 -196.94 -435.02 -443.42 -441.63 -447.12 -447.35 -444.01 -440.01 -439.41 -445.71 -433.76 -446.71 -449.33 -449.23 -604.00 -608.49 -607.78 -604.97 -599.86 -606.27 -607.67 -605.94 -610.68 -608.74 -608.03 -607.28 -606.90 -525.11 -528.41 -525.01 -528.01 -537.01 -540.00 -662.47 -902.74 -1133.73 -1172.03 -1323.09 -1361.40 -1424.15 -1055.65 -1040.97 -1029.10 -1035.11 -995.13 -974.89 -966.90 -970.86 -999.44 -1008.17 -1001.81 -1044.58 -1162.75 -1278.26 -1343.31 -1406.22 -1432.87 -1513.71 -1510.94
1147.29 1151.75 935.58 824.62 770.85 762.71 712.14 621.09 567.62 430.59 365.56 278.57 279.08 19.33 -6.35 -8.02 -26.97 -30.65 -54.76 -61.70 -69.11 -65.40 -73.01 -82.56 -80.18 -70.81 294.96 287.16 283.95 261.60 257.90 255.31 263.77 271.41 264.18 306.30 304.43 330.52 345.15 372.43 372.22 381.94 368.18 366.44 369.08 364.55 349.18 339.79 333.34 328.53 319.75 303.13 -135.19 -135.27 -129.06 -138.80 -146.05 -141.84 -134.91 -149.08 -158.93 -163.31 -157.28 -159.62 -174.90 -186.94 -178.17 -184.98 -191.44 -193.69 -204.65 -195.84 -188.00 -182.88 -177.44 -181.82 -175.79 -174.73 -432.05 -432.41 -433.61 -443.06 -437.93 -438.84 -445.21 -445.75 -442.47 -442.60 -442.19 -443.69 -448.29 -605.49 -606.43 -604.04 -609.89 -596.05 -604.04 -599.61 -606.41 -609.83 -600.60 -615.22 -607.31 -612.65 -523.27 -531.97 -526.09 -530.18 -535.04 -549.80 -550.72 -865.64 -1093.58 -1148.90 -1258.74 -1386.31 -1399.32 -1047.17 -1021.60 -994.44 -985.87 -980.17 -930.66 -937.01 -894.71 -912.61 -917.78 -940.86 -1006.42 -1032.99 -1124.99 -1326.56 -1327.59 -1425.80 -1435.25 -1433.08
1052.57 1052.08 1064.17 724.95 750.14 692.20 581.56 558.92 521.95 491.61 370.89 363.38 303.07 82.99 44.63 17.18 3.24 -24.55 -38.23 -51.83 -49.52 -67.75 -75.82 -76.27 -83.33 -75.74 275.00 272.03 266.26 257.44 251.19 253.90 277.50 299.51 314.99 334.69 317.91 346.17 371.08 405.60 388.16 370.15 368.76 362.77 358.21 350.14 327.34 327.42 327.69 329.26 324.38 315.08 -136.90 -121.76 -125.09 -123.07 -133.51 -138.32 -130.34 -139.61 -147.35 -156.56 -154.04 -149.65 -155.35 -162.17 -172.61 -179.75 -183.04 -194.01 -200.76 -193.74 -189.44 -177.87 -180.14 -173.41 -162.74 -170.97 -422.69 -425.55 -434.19 -433.53 -436.26 -442.95 -434.62 -443.68 -442.93 -443.84 -439.68 -445.47 -445.53 -607.86 -601.92 -608.82 -601.28 -604.28 -606.00 -605.35 -616.16 -604.52 -609.04 -606.22 -602.49 -609.67 -530.86 -526.67 -525.28 -533.23 -539.76 -547.43 -568.10 -930.45 -1158.75 -1177.49 -1241.20 -1367.34 -1380.65 -1013.45 -999.58 -979.53 -935.19 -897.51 -871.94 -879.32 -853.73 -843.87 -850.05 -850.79 -923.81 -955.01 -1024.01 -1137.38 -1236.07 -1311.03 -1363.75 -1359.86
994.53 997.09 860.52 699.20 635.31 599.84 483.03 520.49 575.52 579.65 513.34 396.44 380.79 109.93 88.43 55.69 43.31 2.30 -15.26 -30.47 -51.43 -49.20 -50.21 -80.10 -84.43 -84.58 257.74 263.26 252.87 254.72 256.72 267.30 283.95 312.16 316.35 354.24 351.77 365.04 376.26 402.76 378.40 367.56 361.69 360.98 351.21 332.86 328.54 328.05 324.14 330.69 331.78 328.71 -129.23 -121.51 -107.90 -117.32 -122.78 -126.69 -118.24 -129.76 -142.37 -147.12 -157.82 -151.76 -154.33 -160.97 -159.10 -169.69 -178.21 -190.78 -196.51 -193.92 -182.09 -184.39 -166.91 -168.82 -167.14 -172.57 -420.09 -421.30 -425.85 -431.71 -440.31 -437.62 -441.76 -451.40 -444.60 -448.34 -442.43 -442.02 -445.44 -605.66 -613.01 -604.01 -602.68 -609.71 -610.84 -608.57 -611.30 -608.49 -609.97 -608.42 -609.87 -607.24 -525.58 -535.60 -530.26 -537.05 -546.73 -555.15 -582.30 -817.56 -1066.21 -1176.69 -1290.05 -1344.88 -1355.02 -1001.91 -999.30 -934.70 -907.04 -887.18 -862.20 -815.85 -804.02 -808.09 -809.85 -834.83 -871.45 -886.10 -917.50 -1031.32 -1150.82 -1267.13 -1296.26 -1301.11
983.17 989.84 808.05 637.77 516.68 454.41 476.81 496.86 578.03 578.14 514.27 439.19 401.07 122.82 82.61 61.83 64.00 46.63 29.01 -10.26 -24.72 -24.57 -32.70 -52.22 -74.72 -84.39 266.18 257.71 263.60 253.86 258.01 268.47 291.55 303.08 342.06 361.56 386.47 390.82 388.84 396.25 370.75 364.13 363.26 346.62 339.37 333.09 331.14 330.31 331.54 342.52 343.06 337.08 -134.52 -120.43 -112.76 -112.21 -116.58 -121.77 -128.32 -132.37 -136.36 -149.60 -154.95 -156.50 -160.83 -163.21 -162.16 -175.20 -187.06 -195.07 -198.28 -180.69 -165.64 -169.37 -162.89 -161.72 -164.50 -169.02 -416.90 -420.92 -418.07 -434.81 -437.12 -450.28 -446.45 -445.93 -447.68 -445.09 -447.44 -447.96 -442.87 -607.14 -611.33 -605.63 -603.81 -604.77 -610.78 -601.02 -609.65 -606.90 -607.53 -610.11 -606.63 -613.63 -526.33 -536.97 -538.44 -543.02 -541.88 -575.95 -605.28 -735.16 -977.13 -1218.54 -1298.91 -1312.15 -1345.73 -975.12 -956.66 -910.44 -886.52 -868.25 -819.74 -779.11 -754.45 -747.60 -763.35 -767.84 -812.90 -835.94 -902.71 -989.08 -1053.06 -1253.54 -1249.60 -1248.12
800.04 804.60 843.02 521.50 503.71 444.24 410.32 461.56 542.70 546.78 490.65 478.58 459.02 173.52 144.24 94.55 107.61 89.49 51.40 26.99 12.90 10.36 -25.49 -49.23 -63.70 -57.20 274.27 264.04 269.76 270.67 272.63 282.25 306.40 308.38 341.89 376.50 398.13 390.44 386.40 390.82 368.98 356.34 353.73 346.95 338.16 335.59 343.60 344.37 355.66 355.16 347.54 340.68 -122.47 -121.26 -109.09 -106.60 -121.38 -126.22 -124.12 -139.42 -149.67 -151.94 -172.40 -174.24 -173.08 -177.20 -180.00 -176.61 -184.97 -183.49 -184.11 -181.46 -168.23 -162.93 -165.10 -156.66 -162.05 -166.43 -410.37 -426.04 -426.68 -435.74 -432.82 -441.57 -445.85 -449.21 -446.60 -447.95 -442.96 -449.64 -446.53 -601.45 -610.30 -610.01 -612.26 -606.70 -614.87 -609.77 -613.01 -609.29 -605.93 -600.92 -609.79 -614.78 -520.32 -527.55 -533.65 -546.53 -541.27 -575.53 -604.70 -771.72 -883.12 -1107.62 -1253.85 -1283.43 -1306.78 -962.12 -941.12 -898.24 -863.04 -848.35 -814.51 -763.63 -740.95 -735.14 -731.00 -719.45 -751.66 -795.59 -866.76 -961.91 -1047.25 -1144.70 -1203.67 -1203.55
747.76 750.91 611.26 526.50 465.06 411.36 386.84 446.16 483.08 470.14 462.53 471.86 483.29 205.58 162.56 111.31 117.49 111.11 50.59 24.86 13.33 -21.44 -33.86 -63.77 -50.72 -45.45 291.29 295.63 289.67 285.00 288.71 291.81 310.96 317.47 350.50 383.05 390.71 393.14 377.61 376.21 360.77 353.84 347.14 337.99 336.88 345.48 358.72 366.89 368.88 366.21 361.19 345.65 -118.46 -106.31 -110.22 -111.85 -124.04 -132.92 -140.21 -150.39 -154.16 -168.40 -168.95 -169.98 -174.69 -170.97 -178.43 -180.31 -171.19 -175.84 -176.08 -166.08 -172.41 -163.83 -155.59 -160.87 -170.18 -171.28 -424.94 -429.65 -434.88 -433.86 -445.00 -446.32 -444.73 -443.19 -444.58 -443.66 -441.66 -446.80 -446.39 -608.35 -607.32 -610.69 -606.40 -609.50 -603.42 -607.10 -605.79 -606.77 -608.12 -603.92 -615.91 -615.04 -530.56 -529.11 -521.71 -538.81 -539.66 -565.71 -662.07 -707.36 -888.80 -1070.11 -1241.82 -1265.70 -1296.35 -955.48 -910.41 -875.68 -831.65 -814.19 -757.10 -710.35 -712.49 -688.20 -691.83 -716.71 -753.37 -788.57 -809.50 -933.92 -986.02 -1119.62 -1164.41 -1160.72
737.93 735.54 616.07 487.76 419.38 365.48 384.70 426.84 453.97 441.80 415.72 440.37 457.59 241.86 207.14 153.69 124.84 101.45 34.73 -14.89 -16.79 -38.70 -44.57 -48.75 -29.74 -14.13 308.80 295.74 301.99 310.29 303.07 304.70 317.53 333.00 351.21 376.73 393.99 386.83 366.75 368.91 359.67 356.20 346.73 340.44 347.51 355.77 364.63 375.29 392.26 375.84 369.61 357.40 -103.33 -104.15 -114.49 -118.67 -128.15 -132.38 -140.99 -157.59 -161.64 -159.33 -154.06 -157.33 -159.19 -169.59 -176.51 -177.62 -163.69 -171.38 -162.47 -172.71 -167.29 -165.15 -163.92 -166.79 -171.42 -177.29 -430.75 -432.97 -440.17 -436.29 -446.17 -450.09 -449.54 -440.15 -440.06 -438.61 -432.97 -435.61 -443.76 -607.89 -614.63 -603.17 -607.74 -609.01 -598.66 -604.01 -604.90 -604.27 -610.11 -611.96 -611.24 -609.48 -524.26 -526.25 -530.48 -538.39 -541.30 -551.11 -641.23 -791.75 -912.50 -998.97 -1200.00 -1228.79 -1264.77 -912.32 -875.35 -832.62 -804.32 -790.37 -721.70 -709.42 -672.43 -674.67 -673.91 -676.40 -721.25 -744.21 -786.89 -876.42 -909.30 -1122.00 -1118.32 -1121.09
790.12 794.93 664.41 503.64 429.78 360.45 353.23 368.64 395.19 388.42 388.96 401.81 446.43 228.08 201.46 143.81 137.53 107.51 38.92 -30.62 -26.69 -31.63 -25.61 -33.37 -21.56 -25.88 322.72 309.23 323.40 335.24 339.70 334.17 321.79 343.84 366.32 388.60 396.57 387.02 372.93 374.92 361.64 349.96 350.69 354.62 364.78 364.58 378.11 398.42 394.57 387.45 370.42 367.75 -94.69 -101.27 -109.32 -122.67 -128.23 -150.16 -151.27 -148.92 -155.01 -146.88 -147.54 -139.34 -154.25 -162.29 -160.49 -160.74 -149.94 -163.05 -167.17 -168.41 -172.05 -162.85 -170.47 -161.02 -174.02 -183.25 -437.84 -437.52 -435.54 -447.54 -448.73 -445.12 -446.43 -443.96 -434.10 -427.65 -424.59 -439.32 -445.00 -610.15 -608.98 -607.93 -599.09 -593.21 -595.53 -603.54 -604.82 -601.30 -608.70 -605.88 -610.18 -612.78 -523.34 -524.35 -530.63 -527.69 -542.75 -552.79 -615.25 -766.34 -835.75 -969.37 -1096.30 -1125.04 -1188.62 -882.60 -858.58 -795.26 -773.61 -727.10 -681.48 -628.25 -637.52 -644.01 -637.09 -641.16 -678.76 -699.20 -756.64 -796.69 -886.50 -972.35 -1065.86 -1067.29
752.03 754.99 638.63 505.24 470.26 379.02 323.30 325.75 306.41 329.86 369.54 408.92 448.36 232.41 199.11 142.26 108.13 52.99 16.08 -8.05 -4.18 -17.47 6.21 -4.15 13.43 -11.00 331.27 315.70 329.55 352.41 366.46 365.24 350.75 362.00 386.54 405.49 396.38 379.97 375.50 366.38 366.41 362.58 364.44 364.79 370.63 382.73 389.75 412.30 411.76 405.81 391.91 375.02 -98.48 -102.05 -107.49 -120.64 -114.42 -124.25 -140.76 -147.96 -141.89 -145.83 -132.09 -142.23 -142.12 -148.36 -150.70 -154.66 -158.55 -158.56 -169.63 -182.42 -177.91 -185.76 -174.99 -175.41 -176.80 -179.12 -437.53 -443.76 -441.10 -440.47 -447.17 -445.91 -450.76 -443.49 -427.48 -418.47 -425.28 -433.01 -444.30 -598.98 -601.25 -597.04 -595.17 -595.69 -592.42 -600.73 -600.60 -607.62 -608.19 -608.51 -609.35 -605.16 -522.76 -527.41 -523.73 -527.24 -536.37 -551.58 -559.69 -644.91 -707.02 -897.64 -946.34 -1022.66 -1117.70 -773.83 -773.37 -780.69 -723.92 -697.73 -644.40 -625.88 -590.32 -607.69 -610.68 -631.29 -656.60 -698.73 -708.54 -744.45 -836.27 -966.67 -1000.64 -1003.83
710.59 710.28 623.95 501.38 478.68 398.29 329.99 313.77 302.35 328.93 364.38 429.57 446.51 237.04 229.75 163.27 100.22 47.05 51.66 21.60 21.91 9.52 23.87 27.16 20.65 14.10 347.58 333.48 342.86 346.67 374.78 375.60 374.02 390.42 417.07 419.85 408.05 388.41 380.69 383.22 380.19 373.08 371.13 387.06 394.94 388.46 401.66 420.25 433.35 407.89 394.36 368.68 -94.97 -106.49 -102.45 -120.02 -112.06 -122.39 -138.28 -142.96 -140.96 -134.32 -134.03 -137.46 -137.74 -148.96 -147.52 -153.68 -162.77 -159.73 -177.73 -183.54 -188.16 -181.07 -181.64 -182.28 -178.71 -182.86 -431.78 -444.64 -442.72 -446.37 -435.81 -435.13 -440.97 -434.60 -430.28 -421.51 -424.14 -425.66 -434.35 -598.95 -594.70 -594.59 -596.43 -596.52 -596.51 -598.79 -603.82 -596.14 -611.66 -611.00 -602.89 -607.16 -522.36 -520.96 -525.52 -527.50 -536.08 -540.27 -549.34 -553.39 -561.73 -650.82 -708.02 -752.55 -911.70 -706.06 -734.30 -718.94 -686.53 -630.45 -604.09 -585.36 -579.72 -557.51 -571.89 -589.66 -587.56 -626.82 -655.98 -711.74 -729.86 -933.78 -930.49 -926.28
1376.52 1372.06 1282.12 1146.60 1092.29 1080.19 1031.47 987.75 969.49 1005.55 1029.06 1100.13 1153.93 1454.41 1440.53 1403.58 1333.70 1282.94 1254.36 1240.51 1228.58 1229.59 1234.02 1261.16 1253.52 1235.89 421.87 394.58 395.04 414.22 431.61 450.26 451.21 478.01 489.35 485.59 464.13 457.77 436.37 247.70 235.42 221.69 221.06 240.85 258.22 259.89 267.53 274.98 277.81 259.49 218.04 200.00 1.42 -8.21 -20.69 -12.02 -15.24 -20.87 -37.39 -52.16 -57.02 -40.68 -34.44 -35.69 -43.23 -110.36 -111.88 -116.76 -113.87 -126.86 -139.32 -144.93 -148.87 -149.71 -146.76 -144.48 -152.90 -157.29 -198.00 -203.17 -188.46 -189.08 -190.41 -189.35 -184.55 -184.95 -173.47 -175.80 -177.31 -175.29 -180.46 -201.91 -203.89 -208.23 -210.46 -207.53 -211.74 -214.29 -220.57 -225.06 -225.06 -220.58 -224.05 -226.76 -225.33 -226.97 -227.17 -231.03 -233.94 -224.87 -241.34 -240.52 -249.48 -257.45 -268.33 -364.37 -431.62 -578.85 -667.37 -673.72 -617.97 -589.27 -550.99 -519.03 -517.42 -512.22 -514.80 -539.48 -523.90 -563.59 -582.28 -648.35 -712.27 -792.45 -848.88 -850.91
1295.55 1296.46 1294.08 1136.03 1063.83 1043.64 1003.93 985.69 966.96 996.44 1041.83 1100.53 1116.95 1453.88 1431.09 1409.12 1374.98 1334.10 1320.26 1277.93 1266.77 1269.77 1263.12 1277.22 1291.25 1272.30 442.37 406.68 404.01 420.03 445.45 481.71 489.50 501.56 513.16 490.06 465.80 450.33 455.85 257.46 248.16 233.14 238.52 263.50 273.81 267.38 277.84 277.86 270.77 229.81 199.32 190.35 -11.87 -20.40 -32.25 -30.52 -24.84 -27.78 -36.44 -58.88 -61.56 -62.02 -56.04 -44.91 -52.37 -125.41 -124.96 -117.40 -121.35 -123.25 -137.79 -148.18 -146.67 -150.52 -156.23 -150.85 -156.92 -156.42 -193.00 -188.27 -186.25 -181.53 -180.88 -181.34 -175.04 -175.30 -176.06 -174.26 -167.14 -179.48 -182.74 -207.02 -204.38 -210.09 -213.24 -210.83 -214.59 -223.64 -214.85 -216.75 -221.87 -215.10 -226.52 -220.46 -223.85 -222.13 -221.22 -221.84 -229.73 -233.78 -226.76 -230.57 -230.72 -239.73 -269.70 -286.28 -390.91 -377.71 -635.39 -597.06 -590.27 -519.27 -494.67 -484.46 -469.35 -461.52 -480.65 -478.75 -503.13 -500.29 -553.68 -610.41 -645.76 -757.25 -778.85 -772.38
1202.86 1199.64 1218.33 1058.69 1029.10 1024.61 994.17 953.49 960.74 989.07 1034.57 1074.86 1112.85 1405.72 1415.85 1409.69 1395.84 1376.05 1347.48 1318.33 1330.20 1342.67 1322.16 1317.91 1290.04 1284.33 462.98 441.53 415.76 434.31 485.62 522.82 529.49 524.59 503.46 467.24 450.38 443.26 463.91 278.79 260.89 263.15 261.69 265.35 265.52 256.97 261.92 254.79 245.37 221.25 190.11 187.77 -30.19 -30.47 -40.66 -34.08 -24.34 -25.06 -43.85 -59.33 -68.39 -66.05 -55.07 -58.35 -69.26 -143.30 -140.09 -136.47 -126.01 -131.27 -140.43 -148.34 -146.79 -141.84 -148.12 -149.10 -150.96 -147.16 -198.02 -192.59 -174.36 -176.45 -172.04 -170.55 -167.12 -170.15 -164.39 -169.99 -167.49 -173.45 -176.26 -202.24 -206.68 -206.19 -213.64 -213.32 -219.98 -219.57 -219.09 -218.52 -225.80 -220.16 -217.11 -227.02 -227.64 -226.02 -229.22 -225.92 -227.85 -231.11 -229.43 -226.62 -230.67 -229.92 -251.75 -268.80 -286.98 -316.18 -421.40 -508.64 -514.31 -500.27 -481.23 -445.67 -454.99 -441.64 -433.37 -438.75 -460.71 -473.29 -492.88 -521.73 -577.57 -630.04 -701.44 -703.47
1168.08 1173.44 1103.73 1020.57 1007.13 1004.90 979.24 960.63 955.05 971.00 1022.56 1055.42 1078.63 1391.78 1406.08 1417.06 1401.51 1387.70 1415.47 1418.89 1421.17 1377.75 1378.30 1346.38 1320.46 1317.77 504.96 477.00 491.93 507.13 562.21 557.58 551.68 521.58 488.91 441.13 431.43 442.45 454.00 268.77 255.95 253.36 254.63 247.90 257.10 249.53 239.62 217.94 212.95 198.26 188.72 173.43 -26.01 -37.72 -46.68 -36.69 -46.03 -49.96 -51.66 -63.28 -66.45 -67.46 -72.84 -71.47 -81.30 -144.14 -148.71 -144.76 -142.44 -137.18 -142.68 -146.45 -143.12 -140.33 -140.25 -137.14 -144.56 -148.98 -192.68 -182.41 -174.48 -169.76 -162.27 -158.59 -166.83 -165.34 -167.62 -165.42 -167.55 -171.00 -176.03 -198.54 -210.88 -210.73 -215.25 -221.96 -215.65 -216.74 -219.91 -222.08 -226.85 -219.82 -219.18 -227.66 -222.35 -230.79 -230.25 -227.08 -232.04 -227.78 -230.16 -227.39 -227.37 -223.63 -224.46 -252.06 -282.36 -312.29 -371.21 -501.45 -480.78 -453.12 -432.22 -425.79 -420.15 -416.54 -423.47 -421.45 -445.65 -463.22 -468.37 -510.92 -556.51 -630.29 -636.52 -634.25
1167.39 1172.59 1104.52 1013.44 992.51 977.95 966.38 955.25 941.93 964.10 998.27 1056.57 1070.19 1372.94 1363.99 1372.74 1401.05 1427.20 1449.02 1468.07 1440.55 1382.16 1378.90 1360.71 1349.12 1351.02 546.25 528.56 524.66 585.82 577.84 574.34 529.66 515.20 464.22 420.17 410.65 418.24 446.05 254.26 241.60 237.29 221.47 237.55 240.18 244.03 223.10 203.29 186.44 184.90 180.23 171.50 -32.69 -36.22 -43.89 -55.93 -63.91 -63.25 -71.07 -66.46 -69.94 -66.91 -65.84 -76.97 -83.75 -141.35 -154.32 -148.07 -144.66 -145.94 -147.45 -141.39 -141.07 -125.59 -124.30 -128.89 -136.10 -131.11 -180.11 -175.52 -169.77 -164.88 -166.37 -162.03 -158.86 -159.83 -164.36 -170.48 -176.93 -180.00 -178.88 -205.41 -206.41 -215.90 -215.11 -215.46 -215.64 -211.82 -216.17 -216.50 -224.77 -229.56 -225.35 -222.85 -222.74 -227.92 -223.29 -228.19 -228.89 -224.18 -229.78 -230.92 -230.23 -225.07 -227.57 -242.36 -268.99 -231.70 -362.24 -405.74 -453.32 -419.86 -409.05 -385.19 -393.05 -391.68 -404.77 -420.06 -424.21 -440.38 -456.01 -499.35 -524.03 -573.81 -592.77 -589.46
1158.07 1154.17 1082.29 980.58 981.47 948.86 942.10 941.23 949.15 976.80 987.91 1030.59 1041.70 1331.67 1338.79 1335.61 1404.99 1444.17 1454.29 1465.89 1430.26 1401.57 1382.45 1342.23 1333.67 1356.02 551.78 556.61 577.25 596.73 612.38 561.86 491.28 477.13 434.86 400.95 396.02 397.67 394.12 218.66 204.10 208.84 194.43 210.75 218.70 213.68 200.99 175.89 170.04 163.58 164.63 159.61 -29.84 -38.87 -46.01 -56.30 -56.14 -65.81 -73.78 -65.05 -57.48 -70.40 -73.56 -83.62 -72.68 -130.29 -135.34 -144.06 -135.73 -129.56 -130.82 -135.94 -127.43 -119.32 -120.26 -116.45 -128.96 -119.08 -165.04 -170.19 -166.51 -163.29 -165.59 -164.16 -164.88 -171.54 -171.70 -173.66 -177.49 -184.77 -184.03 -216.91 -213.51 -213.66 -214.34 -210.35 -214.90 -218.33 -212.83 -221.29 -221.37 -222.52 -225.47 -224.42 -225.81 -219.67 -224.05 -221.77 -229.52 -226.10 -227.56 -222.17 -225.81 -229.30 -223.58 -238.04 -251.31 -232.87 -278.66 -330.76 -417.97 -381.07 -376.51 -365.18 -362.23 -366.59 -373.66 -403.27 -411.21 -432.26 -453.75 -479.56 -498.10 -533.50 -557.26 -556.26
1158.81 1163.41 1095.19 977.61 945.95 945.03 940.37 927.70 938.18 965.01 975.06 989.09 983.42 1299.77 1301.80 1335.54 1359.94 1426.53 1437.24 1420.00 1398.39 1378.07 1342.89 1324.63 1305.85 1321.44 547.17 551.24 569.04 601.45 614.55 596.79 545.26 458.75 435.55 400.06 390.60 380.66 393.16 206.13 204.61 193.35 195.09 193.71 205.86 188.37 177.70 175.57 161.54 155.01 153.68 156.71 -32.95 -45.27 -56.03 -48.14 -51.64 -55.26 -62.32 -54.15 -55.22 -61.59 -65.62 -70.68 -68.44 -117.87 -132.80 -136.68 -122.40 -117.52 -120.48 -114.86 -109.11 -111.57 -112.56 -111.55 -111.21 -119.08 -159.65 -161.53 -168.42 -162.54 -167.27 -163.06 -166.69 -171.56 -175.16 -175.62 -183.20 -187.21 -195.62 -213.55 -215.74 -218.05 -210.33 -211.38 -218.59 -212.34 -216.63 -222.16 -220.61 -222.33 -228.22 -220.85 -225.45 -219.42 -227.07 -227.56 -226.94 -230.22 -228.33 -229.19 -233.59 -220.55 -230.48 -231.64 -249.34 -221.07 -276.57 -319.75 -362.28 -353.38 -329.21 -331.70 -343.76 -352.47 -375.00 -384.01 -406.72 -426.58 -457.09 -480.37 -508.47 -564.75 -546.02 -545.82
1218.93 1214.75 1101.79 978.14 968.01 954.65 957.25 956.29 944.02 926.04 938.74 949.47 958.44 1255.54 1285.36 1312.47 1346.29 1362.62 1348.49 1335.83 1324.54 1323.47 1295.89 1280.32 1268.93 1304.04 518.56 539.48 557.89 578.43 618.40 587.42 518.87 461.88 438.87 404.20 394.00 383.25 382.00 190.94 182.42 172.46 175.65 181.59 183.14 179.21 165.73 155.51 160.77 152.42 153.76 156.04 -46.82 -52.43 -49.23 -37.41 -29.50 -33.13 -43.89 -54.95 -38.24 -50.26 -57.36 -46.45 -50.11 -123.98 -129.39 -127.48 -120.78 -116.17 -99.01 -110.13 -109.67 -114.65 -107.57 -111.87 -114.46 -118.16 -160.64 -165.89 -162.48 -166.14 -168.81 -173.10 -172.81 -178.18 -176.61 -178.77 -187.09 -192.50 -197.37 -220.43 -215.98 -214.24 -215.79 -214.62 -213.18 -214.95 -225.78 -225.43 -230.43 -222.99 -224.01 -225.05 -223.43 -227.92 -229.69 -226.08 -227.05 -230.73 -228.51 -229.96 -224.61 -232.87 -226.30 -227.02 -230.87 -215.09 -241.79 -270.97 -306.61 -301.14 -313.20 -293.63 -298.18 -306.34 -322.96 -370.03 -387.67 -434.62 -448.92 -487.58 -533.68 -583.55 -579.39 -582.45
1179.61 1169.26 1100.42 984.14 978.39 989.50 1004.88 978.72 952.56 940.35 925.83 933.91 932.02 1241.62 1273.08 1289.38 1301.79 1297.68 1300.81 1304.66 1305.38 1293.75 1256.26 1248.98 1252.04 1274.82 510.05 524.03 512.07 548.24 584.80 568.23 524.21 463.04 437.32 414.61 418.87 382.82 383.53 197.38 192.34 179.69 176.47 176.76 166.71 164.23 161.35 155.26 153.94 153.81 151.22 160.70 -45.65 -47.51 -43.11 -38.75 -23.86 -30.00 -31.03 -37.67 -26.93 -32.47 -34.15 -36.08 -46.60 -112.38 -119.58 -116.97 -108.59 -100.21 -101.04 -93.53 -101.37 -112.80 -109.90 -108.52 -117.32 -122.57 -161.57 -163.17 -169.53 -164.86 -168.43 -181.46 -182.77 -177.49 -180.01 -177.63 -178.71 -194.00 -198.29 -221.73 -222.25 -215.07 -220.15 -223.10 -225.93 -225.32 -220.10 -226.43 -224.59 -218.97 -223.32 -224.25 -229.79 -226.56 -226.56 -220.89 -232.58 -228.49 -229.16 -227.45 -225.94 -235.20 -228.84 -229.05 -229.02 -193.79 -233.63 -269.33 -296.81 -290.31 -262.09 -280.70 -267.65 -285.26 -305.87 -321.11 -387.32 -410.75 -441.47 -539.67 -547.14 -587.77 -637.85 -634.83
1208.70 1203.86 1226.49 1043.55 1021.91 1035.96 1022.03 1011.68 960.85 937.07 935.00 924.28 929.93 1232.75 1268.48 1273.56 1284.33 1284.00 1276.47 1287.89 1318.88 1305.18 1266.66 1247.61 1231.64 1250.86 477.36 476.34 474.44 518.72 568.17 538.85 539.04 490.70 450.02 457.26 483.74 444.46 422.44 229.95 227.14 211.05 191.09 190.42 179.17 175.98 175.10 169.51 165.54 162.74 181.60 172.88 -29.03 -42.38 -34.48 -28.70 -21.65 -13.87 -9.63 -18.88 -31.73 -22.39 -19.86 -23.95 -40.78 -105.34 -112.91 -109.11 -109.77 -94.21 -94.05 -89.55 -95.86 -108.81 -109.98 -113.62 -121.78 -123.24 -174.18 -169.47 -173.49 -175.41 -177.91 -185.00 -191.84 -189.53 -181.28 -173.47 -182.46 -186.01 -201.69 -223.14 -216.55 -218.47 -226.33 -221.70 -224.09 -226.98 -224.57 -219.70 -224.18 -224.17 -225.95 -222.48 -226.08 -222.94 -230.17 -226.60 -226.64 -227.28 -225.31 -227.65 -232.33 -227.09 -228.70 -226.34 -230.08 -188.52 -226.27 -255.03 -265.33 -235.22 -247.54 -231.90 -258.37 -248.95 -281.68 -312.81 -366.97 -403.42 -474.47 -541.62 -596.20 -621.61 -651.09 -648.11
1276.58 1276.34 1268.06 1086.34 1040.61 1057.09 1049.31 1002.91 958.24 946.02 921.35 909.77 915.14 1223.83 1241.84 1237.88 1253.56 1257.97 1272.52 1302.35 1325.88 1330.63 1280.78 1242.07 1230.63 1222.16 448.65 454.16 457.59 503.75 540.77 557.04 532.78 507.87 485.33 485.30 492.19 483.80 468.40 262.44 258.77 231.40 208.72 195.10 185.92 181.45 186.14 181.54 177.52 175.27 186.05 200.62 -0.52 -4.72 -5.08 -10.58 -6.92 4.55 3.59 -11.26 -19.98 -21.03 -4.79 -8.63 -39.74 -96.94 -88.68 -85.76 -95.72 -86.25 -95.19 -91.14 -101.56 -105.33 -114.87 -124.91 -127.18 -129.02 -176.21 -180.10 -169.49 -180.78 -186.09 -194.83 -191.62 -185.67 -188.69 -184.34 -182.61 -190.77 -196.53 -224.13 -218.91 -219.92 -222.34 -220.23 -221.64 -219.48 -223.70 -217.83 -215.11 -217.11 -221.13 -222.92 -224.52 -224.23 -224.57 -219.93 -224.16 -225.35 -227.58 -233.38 -223.97 -226.35 -225.70 -228.45 -227.84 -183.13 -201.14 -213.17 -203.63 -205.71 -216.30 -225.86 -224.13 -226.84 -249.80 -278.54 -336.64 -386.12 -476.49 -523.86 -585.24 -625.07 -636.93 -629.05
1310.82 1313.04 1214.91 1100.39 1112.47 1054.91 1041.84 990.48 959.38 932.32 909.12 906.18 905.54 1214.81 1227.77 1225.77 1217.89 1248.69 1265.79 1293.46 1320.07 1321.04 1309.58 1271.06 1239.42 1217.37 434.74 440.95 454.32 496.97 528.97 551.88 547.18 535.90 536.64 534.43 539.07 515.04 490.21 282.54 275.42 242.95 202.83 194.53 198.13 204.79 193.20 192.28 187.35 185.61 197.14 207.97 24.33 20.71 3.28 -2.84 10.28 6.81 12.02 2.24 -1.51 2.07 0.79 -8.77 -10.38 -83.21 -86.85 -91.85 -89.48 -96.17 -92.72 -94.02 -102.00 -111.32 -116.28 -125.71 -124.52 -120.89 -178.80 -183.13 -190.53 -186.02 -195.28 -197.30 -195.78 -203.23 -191.62 -193.97 -187.18 -198.94 -199.34 -223.27 -216.83 -216.65 -217.26 -213.46 -215.22 -218.40 -217.98 -221.50 -217.34 -220.04 -216.48 -219.64 -222.68 -221.31 -220.41 -234.07 -229.01 -228.02 -231.26 -226.26 -227.18 -225.16 -229.08 -230.31 -223.35 -170.84 -167.99 -193.41 -185.45 -180.26 -188.61 -189.51 -193.63 -197.05 -220.37 -257.23 -301.05 -334.95 -425.27 -513.79 -533.17 -593.22 -599.45 -598.76
838.50 836.12 732.79 698.84 690.48 628.02 567.73 526.83 487.16 480.72 456.98 442.44 428.13 268.95 259.78 260.34 267.75 289.29 315.26 348.10 350.99 370.64 338.73 323.02 291.63 282.24 145.68 158.87 197.36 225.88 236.00 242.84 234.10 229.96 242.45 261.47 258.34 246.72 237.96 417.86 382.78 348.94 328.34 316.06 315.49 325.08 314.82 304.71 288.80 287.56 296.43 307.15 36.38 38.28 31.93 35.69 29.87 31.80 36.96 32.32 33.59 26.89 26.88 15.33 15.09 -78.61 -76.33 -85.48 -89.01 -88.22 -99.11 -91.98 -105.40 -112.01 -115.28 -126.41 -124.32 -117.76 -183.97 -187.73 -185.11 -199.78 -201.41 -212.62 -209.59 -211.06 -201.77 -205.54 -203.85 -209.06 -207.54 -208.74 -204.71 -201.41 -210.52 -207.16 -211.07 -213.74 -216.43 -216.34 -213.21 -215.87 -214.56 -219.46 -371.16 -363.29 -372.82 -371.14 -373.77 -373.93 -374.00 -371.06 -376.01 -371.87 -369.05 -371.31 -371.09 -177.22 -176.21 -176.17 -173.17 -174.40 -173.27 -174.53 -174.89 -181.57 -201.57 -235.48 -248.01 -283.01 -384.38 -481.02 -512.91 -540.75 -546.31 -554.60
889.23 893.39 862.63 736.49 752.40 685.18 625.30 563.29 520.44 495.31 476.47 462.02 437.82 273.65 268.52 260.18 253.12 263.64 291.01 322.41 333.51 334.81 321.65 288.02 282.88 275.15 143.53 184.89 190.55 216.78 232.26 219.13 210.52 205.85 214.13 249.12 257.79 252.75 248.99 435.48 418.50 373.78 348.72 330.26 349.01 358.82 346.62 327.92 316.46 316.23 299.41 314.01 35.96 46.28 33.79 25.66 34.70 28.38 27.60 24.33 29.27 34.44 37.13 39.65 22.68 -60.93 -62.23 -80.85 -79.92 -93.88 -90.44 -93.59 -95.37 -102.28 -111.66 -120.20 -122.23 -120.26 -178.58 -180.23 -190.79 -184.02 -198.23 -200.52 -211.56 -212.65 -211.20 -212.07 -212.97 -200.69 -204.40 -200.83 -202.19 -211.19 -218.20 -214.50 -213.56 -216.45 -212.10 -223.97 -218.07 -217.62 -212.59 -216.45 -375.67 -376.14 -378.64 -370.99 -378.78 -374.13 -379.59 -379.68 -373.33 -367.70 -375.33 -379.48 -374.39 -171.73 -174.62 -177.80 -175.50 -174.58 -175.77 -178.77 -172.26 -178.99 -180.93 -207.39 -240.23 -272.00 -366.08 -434.28 -434.90 -486.89 -494.70 -494.15
1001.51 991.19 890.50 788.21 769.69 698.62 638.87 586.03 534.49 513.91 511.00 486.71 470.64 285.72 265.78 250.97 255.82 265.25 292.50 297.57 301.00 291.99 303.41 281.76 274.64 262.07 150.14 173.82 188.80 192.49 192.24 195.08 188.09 192.62 207.93 222.35 225.68 235.00 243.94 442.73 432.81 394.43 355.93 354.46 352.81 367.04 362.64 348.19 332.10 337.61 314.56 321.28 46.75 41.29 34.87 25.60 36.13 23.42 25.28 20.14 16.12 32.99 37.15 46.37 33.82 -52.19 -60.97 -74.10 -77.83 -90.39 -92.06 -95.01 -106.91 -100.28 -120.61 -127.65 -127.24 -123.18 -177.15 -182.56 -190.54 -196.62 -194.98 -199.24 -207.45 -207.01 -206.24 -204.56 -201.23 -198.44 -196.52 -199.93 -205.72 -212.61 -215.15 -208.41 -209.92 -213.60 -218.04 -213.59 -216.88 -216.08 -214.96 -212.45 -374.67 -378.84 -369.84 -373.70 -370.84 -379.70 -373.23 -372.70 -376.73 -380.07 -371.65 -370.07 -379.99 -173.97 -169.02 -168.50 -171.54 -176.03 -170.25 -174.48 -175.01 -170.96 -174.90 -190.84 -201.70 -268.69 -299.57 -392.36 -391.32 -430.59 -445.28 -445.47
967.97 972.70 972.13 799.19 784.29 738.12 656.71 614.26 574.63 544.84 525.05 492.26 473.00 281.88 265.26 252.54 250.22 271.42 280.23 294.45 289.72 277.74 271.96 266.01 262.11 266.56 144.48 185.53 181.86 190.73 181.46 157.49 156.41 185.22 179.95 179.86 182.67 199.46 229.40 436.40 447.57 413.24 389.46 378.79 368.62 372.86 367.45 353.18 353.60 336.26 335.55 319.11 39.16 32.10 23.82 28.19 27.83 21.15 15.85 5.90 2.00 7.27 20.71 31.01 30.09 -53.65 -63.06 -84.24 -83.98 -91.57 -97.30 -102.49 -103.78 -110.38 -120.80 -119.24 -128.27 -132.25 -192.71 -190.22 -185.73 -202.09 -197.00 -198.34 -194.41 -202.72 -207.75 -199.89 -195.69 -204.68 -201.10 -207.23 -212.76 -209.99 -209.25 -209.05 -203.34 -217.46 -214.93 -211.18 -217.20 -209.70 -218.25 -209.87 -370.48 -369.15 -374.69 -373.92 -375.56 -368.63 -374.80 -372.56 -373.26 -376.87 -375.97 -373.50 -376.41 -176.56 -175.76 -170.15 -168.68 -172.66 -173.00 -169.55 -171.63 -171.84 -170.65 -174.81 -189.70 -204.70 -231.30 -329.29 -341.21 -393.65 -383.50 -393.59
947.49 948.61 867.40 822.70 779.41 718.48 629.10 575.47 560.80 537.71 510.85 497.56 476.07 290.89 272.51 266.30 264.39 256.46 268.16 272.56 260.34 266.47 267.20 254.61 261.47 274.13 157.08 180.94 195.67 175.43 156.04 144.94 149.16 165.98 165.59 157.15 161.45 171.62 221.59 436.09 449.26 419.29 396.17 380.94 369.29 365.22 352.73 349.58 344.19 335.13 325.91 319.88 24.25 24.13 18.45 11.46 12.68 7.26 -0.03 1.77 5.26 0.01 20.92 21.23 20.54 -55.06 -77.89 -84.07 -99.08 -89.72 -101.24 -109.82 -107.79 -104.64 -107.37 -118.56 -125.38 -137.38 -192.51 -191.46 -204.51 -206.53 -202.43 -201.79 -196.99 -202.68 -199.55 -191.90 -199.21 -202.01 -205.23 -212.56 -210.48 -208.62 -206.81 -204.92 -205.07 -211.46 -217.09 -217.50 -211.17 -215.47 -206.65 -215.36 -370.73 -372.29 -372.64 -374.36 -374.94 -375.06 -376.44 -371.02 -380.99 -376.96 -376.14 -373.01 -376.47 -176.77 -171.88 -164.71 -168.06 -168.14 -166.22 -164.25 -167.37 -174.43 -175.84 -168.31 -179.57 -176.78 -179.49 -244.21 -274.10 -307.86 -340.52 -334.36
942.92 937.76 860.79 770.11 753.87 669.57 568.75 530.80 503.49 502.66 501.05 467.96 467.29 270.91 292.15 265.71 257.38 249.08 248.33 245.77 251.79 252.81 254.61 249.56 267.94 266.55 161.88 175.43 180.16 173.67 154.74 124.17 128.76 143.40 142.08 146.47 169.72 174.42 212.86 441.14 433.56 422.08 385.37 375.16 364.66 359.69 351.22 340.90 338.18 325.49 321.73 305.99 22.33 18.99 21.55 12.11 18.81 11.49 11.02 6.84 -1.16 -9.98 5.24 22.27 21.19 -57.48 -68.18 -84.97 -86.88 -101.57 -99.51 -100.53 -100.76 -112.71 -102.65 -118.28 -126.35 -132.15 -200.65 -190.58 -198.34 -200.28 -205.31 -204.65 -204.38 -202.23 -194.91 -199.59 -193.13 -194.69 -207.63 -212.99 -211.29 -210.76 -207.37 -201.86 -214.15 -211.25 -213.47 -211.21 -213.42 -212.43 -205.53 -206.97 -362.51 -370.56 -374.23 -373.73 -372.27 -368.72 -374.00 -380.34 -376.83 -371.04 -368.09 -373.05 -374.88 -165.68 -169.01 -162.25 -157.18 -162.82 -165.72 -159.14 -161.57 -165.85 -169.30 -178.07 -172.78 -174.76 -177.70 -195.07 -205.46 -242.85 -271.21 -271.15
861.94 865.74 812.35 717.29 651.47 607.74 549.19 519.95 502.55 472.92 450.70 453.30 458.24 306.10 304.73 292.06 268.15 252.09 247.92 250.12 252.88 245.36 233.49 248.05 256.51 263.21 125.25 160.78 152.49 154.26 134.71 128.67 118.95 128.92 133.54 157.64 174.04 208.47 212.77 420.46 417.99 386.16 374.64 361.46 349.41 342.47 329.94 332.18 332.34 325.97 308.77 300.15 25.18 29.21 25.77 29.13 26.20 32.79 21.34 15.73 -2.64 -9.28 -5.36 9.70 19.16 -59.85 -58.79 -71.48 -85.38 -87.12 -90.94 -89.39 -92.84 -90.43 -100.02 -115.42 -130.21 -130.93 -189.81 -199.85 -199.72 -195.45 -207.14 -205.51 -199.99 -198.73 -195.75 -198.03 -199.43 -206.42 -206.65 -202.89 -196.68 -205.02 -204.84 -212.96 -211.36 -206.59 -210.37 -210.17 -202.12 -205.72 -206.28 -212.66 -365.83 -368.06 -379.76 -368.05 -377.16 -379.78 -370.99 -372.54 -377.95 -376.73 -373.24 -374.24 -371.87 -172.95 -171.95 -161.48 -157.84 -149.95 -154.34 -155.34 -159.91 -164.01 -161.60 -170.56 -178.42 -169.48 -177.33 -190.59 -183.50 -216.69 -221.50 -221.06
782.85 782.88 773.07 713.20 659.05 610.33 552.62 558.84 525.56 487.52 443.30 444.21 464.51 321.14 336.93 296.69 283.61 270.43 275.58 271.32 264.78 255.94 248.65 242.56 249.47 259.98 115.24 109.25 136.92 128.00 127.14 116.52 115.20 116.28 117.28 139.06 181.45 188.47 196.57 405.95 395.53 372.66 356.93 354.39 332.83 342.43 326.72 326.61 321.15 314.25 317.11 313.46 43.39 47.94 43.99 44.61 33.29 28.39 30.28 20.27 3.87 -6.88 -11.37 -4.22 17.20 -68.85 -64.09 -73.55 -71.96 -77.53 -81.69 -84.84 -94.29 -96.03 -101.88 -109.33 -125.19 -130.82 -184.13 -184.99 -189.55 -198.25 -199.78 -191.94 -189.84 -195.28 -184.89 -195.02 -203.58 -205.00 -201.40 -197.28 -197.63 -198.50 -205.70 -205.78 -199.24 -195.03 -203.10 -198.58 -200.96 -201.27 -203.78 -208.34 -364.92 -373.76 -373.07 -373.13 -377.37 -373.24 -379.91 -373.11 -373.88 -375.41 -376.32 -368.88 -373.72 -173.24 -168.09 -160.71 -167.15 -152.95 -152.33 -147.15 -147.81 -162.39 -168.77 -168.37 -166.00 -174.05 -174.42 -176.41 -177.61 -193.90 -223.35 -219.82
701.82 703.64 745.51 687.54 677.54 643.31 616.02 608.83 575.82 502.60 448.30 467.95 508.12 366.20 354.99 333.62 290.80 287.21 298.16 303.44 283.58 273.20 243.90 243.16 235.37 243.05 93.97 99.61 114.39 121.33 117.52 116.32 108.29 113.14 111.27 120.43 152.95 182.53 191.19 400.56 386.09 376.67 350.28 342.83 339.39 333.66 332.20 315.32 319.53 328.12 324.90 315.53 51.98 56.60 46.90 40.94 30.34 34.16 34.09 24.45 14.61 0.01 -11.48 -17.67 -0.60 -66.39 -60.66 -68.28 -76.18 -77.31 -84.79 -89.10 -91.88 -92.86 -101.09 -110.90 -119.44 -118.69 -174.14 -174.13 -187.67 -182.26 -189.38 -187.05 -183.62 -179.42 -179.09 -198.24 -201.47 -203.25 -193.14 -198.12 -196.75 -199.40 -198.11 -199.22 -189.02 -193.44 -194.50 -196.08 -196.25 -196.89 -200.77 -206.58 -365.92 -371.37 -372.33 -367.78 -373.17 -376.10 -375.83 -371.09 -369.46 -379.04 -372.49 -367.11 -367.26 -171.19 -174.03 -172.86 -158.05 -147.95 -140.63 -139.49 -146.30 -151.43 -159.62 -170.83 -166.03 -172.57 -179.25 -176.40 -174.75 -189.41 -170.64 -173.03
772.13 771.02 714.67 682.83 678.61 681.07 664.17 635.25 626.60 562.18 512.59 500.50 526.58 373.62 364.15 341.55 311.28 290.13 311.35 326.08 301.34 281.16 257.95 244.80 236.87 238.39 93.84 89.58 94.77 108.56 115.56 118.61 104.37 107.37 109.43 114.37 149.44 170.20 182.61 394.52 386.31 361.82 356.39 344.59 341.19 332.94 333.55 337.37 341.06 333.29 341.62 337.33 61.18 53.16 57.38 44.30 33.20 30.11 18.86 23.88 15.21 17.83 -0.90 -10.24 -20.06 -76.53 -69.02 -65.36 -69.01 -79.58 -86.02 -94.81 -95.88 -98.63 -108.39 -119.61 -115.88 -111.89 -161.70 -161.12 -167.54 -172.43 -171.06 -179.88 -178.06 -181.59 -187.30 -195.86 -200.76 -191.81 -189.80 -190.40 -188.61 -187.01 -196.72 -193.18 -197.13 -189.31 -198.77 -191.10 -197.38 -205.14 -206.76 -206.41 -369.70 -372.03 -368.31 -370.60 -368.80 -363.09 -370.41 -371.27 -372.57 -370.88 -372.65 -366.52 -369.39 -175.71 -170.65 -165.78 -157.05 -152.30 -152.76 -143.92 -143.43 -158.43 -164.38 -165.27 -170.24 -171.07 -175.66 -175.05 -178.57 -166.82 -168.21 -172.79
765.41 767.05 729.32 672.67 665.85 685.86 674.48 656.89 613.16 617.80 535.73 527.34 537.71 372.22 354.40 321.38 300.65 296.16 320.16 344.15 315.92 297.50 275.93 259.29 250.61 238.30 96.05 88.22 89.01 90.77 98.79 94.62 90.77 97.84 111.59 110.92 146.39 161.24 189.62 405.82 397.57 383.31 370.56 370.83 349.86 362.76 358.74 359.38 344.19 351.43 342.08 338.05 60.90 50.00 50.38 37.60 23.04 16.93 10.83 7.10 14.66 19.93 5.11 -15.10 -30.04 -84.76 -76.86 -68.47 -67.68 -73.57 -77.25 -89.97 -103.03 -101.56 -107.40 -112.84 -107.89 -107.76 -159.87 -168.86 -168.45 -174.06 -174.56 -166.54 -178.19 -185.10 -191.62 -189.19 -198.35 -198.63 -187.84 -186.60 -181.65 -183.64 -191.71 -192.86 -192.37 -189.55 -186.73 -194.63 -199.79 -195.75 -205.94 -206.11 -367.23 -373.49 -370.19 -366.60 -371.06 -361.35 -362.42 -366.34 -372.66 -373.96 -378.11 -371.75 -371.67 -166.99 -165.74 -164.34 -151.87 -147.23 -150.35 -136.13 -141.71 -149.14 -156.57 -163.56 -174.69 -175.65 -172.26 -175.06 -176.54 -170.16 -171.77 -173.99
744.70 745.60 711.10 647.26 645.98 673.97 691.82 676.82 676.18 626.90 584.12 554.46 583.46 387.77 359.82 323.68 315.49 313.47 360.18 367.76 338.31 320.41 281.83 259.33 258.78 257.38 105.30 109.73 92.26 80.72 92.88 85.83 87.95 102.16 107.53 129.14 168.18 178.73 179.25 407.16 411.42 395.99 389.87 372.58 381.27 385.17 392.70 369.67 355.23 348.42 350.43 342.06 52.25 43.92 30.20 23.36 26.91 11.98 -3.85 -5.90 -2.93 6.20 -3.87 -20.11 -30.60 -96.89 -80.81 -64.42 -69.47 -65.79 -76.70 -81.16 -95.18 -95.94 -93.07 -98.30 -94.41 -93.63 -154.55 -163.16 -166.27 -166.48 -172.36 -177.98 -186.48 -183.17 -191.00 -195.47 -190.08 -184.92 -184.52 -181.31 -187.01 -180.63 -185.78 -184.74 -182.76 -182.05 -186.41 -187.45 -192.88 -197.79 -202.84 -208.15 -366.61 -369.96 -369.34 -375.13 -362.99 -378.02 -365.04 -364.92 -367.02 -366.05 -373.18 -368.98 -365.27 -164.29 -164.98 -149.32 -150.10 -144.60 -141.54 -140.33 -149.51 -152.36 -158.37 -167.61 -167.56 -172.42 -173.28 -178.01 -173.18 -169.17 -164.82 -165.91
1212.54 1212.88 1165.51 1129.85 1120.01 1130.77 1162.53 1158.48 1179.69 1130.32 1088.15 1095.98 1080.13 1376.62 1332.71 1302.00 1264.07 1300.23 1342.36 1334.53 1316.05 1272.88 1252.67 1234.54 1211.97 1200.27 266.32 263.45 238.83 228.92 216.25 221.34 226.60 251.83 257.38 286.32 314.30 308.81 325.02 292.77 306.42 302.17 301.07 282.35 286.02 298.83 293.50 288.39 262.08 248.28 251.90 251.30 68.61 47.58 35.15 35.25 24.38 19.37 -0.08 2.96 0.46 9.66 3.42 -15.81 -13.66 -91.11 -71.21 -66.90 -63.14 -61.10 -66.81 -62.26 -81.76 -83.24 -80.36 -84.85 -88.50 -90.34 -131.82 -138.10 -145.06 -147.02 -147.64 -157.12 -166.62 -162.34 -168.74 -167.47 -165.99 -165.45 -162.97 -157.28 -152.66 -149.59 -151.86 -152.19 -155.20 -152.04 -155.64 -159.68 -168.95 -173.31 -180.17 -177.03 -179.04 -191.77 -188.70 -193.02 -194.62 -184.52 -183.92 -180.13 -185.69 -186.24 -187.15 -184.24 -185.89 -168.27 -151.72 -153.98 -147.54 -146.06 -134.80 -137.15 -140.14 -145.22 -156.92 -161.95 -166.84 -175.26 -173.31 -166.18 -166.18 -168.16 -164.69 -169.36
1195.81 1190.53 1189.81 1105.99 1111.89 1127.44 1148.14 1158.66 1173.07 1148.69 1118.80 1124.43 1105.09 1376.70 1337.08 1311.72 1299.57 1351.87 1389.47 1389.87 1359.20 1316.11 1255.73 1258.74 1236.23 1225.13 266.74 261.43 241.04 214.55 217.02 208.35 220.87 233.97 260.85 280.66 306.24 314.58 323.62 280.51 285.87 293.83 274.36 287.16 278.73 290.42 300.31 280.45 255.05 252.20 257.25 254.93 79.00 54.45 48.30 29.61 17.43 8.32 -0.34 -5.46 -15.70 -3.94 -7.64 -25.95 -25.94 -93.98 -86.74 -75.86 -72.25 -63.14 -66.57 -67.61 -72.20 -74.25 -79.03 -73.82 -91.40 -91.45 -134.49 -139.49 -144.71 -153.03 -153.11 -155.88 -160.30 -169.80 -161.68 -154.19 -161.79 -165.08 -160.60 -156.34 -150.56 -145.30 -138.94 -144.09 -149.77 -146.10 -150.05 -163.02 -168.05 -166.87 -174.87 -175.02 -177.29 -182.44 -192.33 -190.73 -190.17 -178.63 -183.01 -179.17 -180.89 -182.23 -186.63 -183.16 -179.97 -156.23 -156.00 -148.63 -140.95 -141.20 -132.64 -138.94 -137.34 -143.42 -149.48 -152.00 -158.30 -164.59 -168.89 -169.96 -170.10 -167.10 -178.06 -177.46
1172.83 1173.06 1149.70 1119.56 1109.67 1118.91 1130.34 1142.66 1155.60 1157.19 1136.21 1129.68 1115.97 1420.45 1423.15 1369.70 1371.69 1364.70 1432.15 1439.97 1395.00 1384.77 1317.69 1294.89 1252.10 1234.55 278.48 268.16 239.01 222.86 218.23 212.13 208.63 231.50 251.03 272.07 297.40 310.23 319.38 266.51 245.92 268.59 258.61 268.99 283.23 282.72 273.14 268.78 247.30 252.70 248.99 255.47 77.03 71.77 56.33 43.15 33.28 23.09 14.81 -3.14 -14.27 -14.84 -22.19 -27.45 -19.47 -96.64 -100.43 -87.91 -72.05 -65.90 -54.10 -60.17 -66.32 -67.30 -72.91 -83.70 -85.88 -90.53 -128.21 -139.76 -148.04 -148.38 -153.59 -155.00 -151.20 -153.21 -151.01 -153.11 -156.46 -161.92 -149.97 -148.90 -148.63 -147.49 -147.19 -152.83 -146.06 -151.54 -153.05 -157.78 -162.18 -166.19 -161.72 -168.57 -174.96 -182.70 -178.92 -184.09 -183.15 -187.61 -180.47 -179.04 -173.57 -178.32 -176.12 -178.28 -176.88 -154.26 -156.26 -155.26 -145.13 -144.64 -137.30 -137.05 -141.69 -137.89 -148.36 -152.54 -152.93 -154.83 -156.96 -166.91 -166.36 -168.15 -156.74 -159.04
1166.32 1164.83 1140.14 1114.66 1112.11 1122.10 1128.00 1129.12 1127.81 1130.45 1122.92 1118.96 1129.95 1439.24 1430.43 1418.96 1411.84 1437.51 1453.16 1453.99 1450.57 1402.49 1352.87 1298.49 1239.89 1237.52 276.34 253.66 240.54 230.04 224.09 218.32 205.41 221.39 228.80 264.39 280.04 299.89 285.58 237.76 234.35 243.14 239.21 259.38 252.13 253.84 262.44 256.70 234.95 242.82 242.95 246.71 80.09 71.26 60.84 54.29 37.88 28.10 27.46 18.36 6.59 -23.99 -23.59 -17.06 -24.35 -110.41 -108.71 -104.78 -83.40 -75.23 -58.19 -64.15 -58.97 -65.63 -75.41 -81.77 -90.68 -94.50 -135.43 -141.24 -145.19 -144.87 -147.73 -150.04 -150.74 -148.21 -154.27 -149.82 -146.30 -147.77 -146.74 -156.06 -142.86 -134.24 -144.69 -143.01 -149.44 -145.02 -156.80 -147.53 -153.46 -160.43 -160.25 -168.16 -174.79 -176.44 -174.27 -176.98 -182.28 -171.96 -181.59 -172.67 -174.10 -172.35 -171.38 -176.93 -178.94 -153.34 -158.19 -156.87 -140.39 -144.99 -146.47 -142.27 -149.33 -138.60 -145.03 -145.75 -154.58 -154.67 -160.77 -160.10 -166.93 -166.65 -153.85 -156.57
1145.70 1143.74 1145.30 1107.07 1106.59 1120.33 1130.15 1125.75 1121.50 1119.79 1113.52 1118.52 1119.90 1443.99 1451.62 1444.46 1443.16 1456.58 1463.49 1445.86 1440.94 1398.25 1332.37 1301.98 1247.02 1223.18 271.45 255.62 250.67 255.94 251.02 231.54 206.44 211.87 227.41 255.61 265.87 264.04 262.53 218.48 213.87 219.78 216.34 217.34 230.17 229.98 245.64 240.44 237.08 223.97 227.79 227.58 67.07 69.95 62.95 55.55 38.85 42.67 34.99 20.15 9.53 4.10 -2.72 -13.66 -20.52 -130.50 -108.96 -103.58 -93.17 -73.15 -61.73 -60.89 -60.97 -70.16 -79.67 -79.00 -96.11 -105.23 -134.29 -139.58 -145.63 -147.65 -150.55 -145.24 -143.49 -144.07 -144.65 -145.31 -144.64 -142.53 -138.15 -145.74 -138.80 -146.24 -144.19 -138.65 -140.70 -146.85 -152.11 -146.70 -159.65 -159.63 -155.88 -164.78 -173.88 -181.84 -174.91 -173.10 -174.64 -172.58 -177.33 -177.14 -175.47 -171.00 -174.79 -175.52 -170.35 -159.81 -158.06 -164.69 -160.12 -150.73 -150.64 -155.35 -148.91 -144.70 -142.67 -147.97 -144.51 -147.26 -147.26 -153.59 -158.33 -148.37 -143.03 -153.16
1133.55 1133.25 1120.72 1103.62 1102.97 1110.77 1121.60 1122.31 1124.20 1116.73 1111.45 1111.87 1132.90 1447.25 1447.21 1448.98 1455.05 1449.68 1456.79 1442.67 1414.85 1363.42 1335.19 1279.41 1251.72 1232.05 272.20 267.76 269.61 275.13 255.83 228.95 219.57 211.01 238.49 240.83 252.63 250.36 234.18 204.92 199.20 208.65 209.70 201.72 212.41 230.13 240.26 239.19 242.07 224.27 218.05 202.66 44.37 51.14 59.34 49.66 43.21 45.31 33.84 23.66 23.94 10.94 -0.99 -4.77 -31.46 -132.64 -112.88 -105.52 -96.36 -72.91 -66.54 -60.14 -66.15 -70.41 -83.40 -93.52 -96.23 -104.85 -140.37 -139.20 -148.14 -156.55 -160.72 -152.32 -159.50 -146.94 -147.04 -146.75 -144.30 -134.11 -135.24 -138.61 -135.98 -137.30 -141.39 -143.63 -147.43 -147.71 -152.87 -154.10 -159.98 -165.30 -160.15 -171.22 -176.75 -178.48 -178.78 -176.58 -180.03 -183.39 -179.06 -180.64 -172.15 -175.56 -179.92 -175.28 -181.77 -162.12 -168.37 -171.88 -159.50 -152.82 -152.51 -153.97 -151.74 -149.30 -141.08 -139.34 -140.41 -144.66 -142.95 -152.08 -144.94 -146.06 -139.82 -133.84
1132.85 1133.48 1115.29 1107.56 1103.01 1106.21 1119.62 1114.18 1117.48 1108.34 1106.99 1112.45 1128.12 1448.50 1455.78 1452.65 1454.45 1457.02 1445.34 1428.72 1388.46 1365.42 1344.24 1318.03 1265.32 1228.93 290.02 285.38 279.07 281.48 244.61 238.24 214.29 208.45 213.74 220.92 224.24 223.31 210.22 191.46 187.98 193.92 198.42 190.53 202.10 229.61 236.95 244.16 239.88 230.21 215.73 216.09 37.78 42.27 56.55 49.96 37.86 26.18 29.62 28.48 23.95 5.23 -14.01 -23.77 -36.33 -138.16 -115.37 -101.30 -91.45 -73.65 -56.74 -59.99 -77.13 -77.80 -89.89 -93.80 -106.76 -114.72 -150.42 -145.43 -158.52 -165.23 -164.46 -165.53 -160.23 -153.84 -148.14 -138.36 -142.33 -135.24 -134.94 -140.50 -144.17 -144.80 -148.20 -139.38 -147.88 -149.94 -166.34 -166.81 -159.89 -174.29 -170.48 -182.53 -181.75 -185.08 -185.30 -181.73 -183.73 -184.68 -181.58 -183.12 -179.47 -178.17 -175.90 -183.19 -186.09 -169.03 -170.69 -165.52 -159.71 -156.78 -163.94 -169.55 -158.22 -155.94 -144.56 -145.35 -138.47 -137.36 -138.70 -145.49 -150.38 -147.11 -138.34 -144.75
1141.78 1140.65 1133.25 1097.59 1101.04 1113.75 1112.46 1104.62 1103.07 1106.57 1107.35 1118.56 1132.06 1436.46 1438.00 1439.01 1436.82 1444.64 1445.99 1421.62 1396.60 1377.24 1365.52 1325.83 1298.59 1252.47 301.52 277.13 276.57 254.31 235.09 215.97 203.43 201.94 196.15 200.04 191.94 198.44 206.08 173.74 185.14 182.12 172.21 165.72 191.20 207.57 223.09 233.82 247.40 240.05 220.20 209.18 40.78 32.45 34.77 35.08 35.07 17.56 28.51 17.64 9.64 -0.85 -15.71 -33.87 -48.05 -133.58 -114.90 -104.79 -91.66 -73.23 -84.00 -91.00 -93.16 -92.14 -97.14 -106.60 -114.40 -125.72 -161.14 -164.25 -163.72 -175.54 -182.28 -174.64 -170.88 -171.72 -159.73 -153.46 -147.97 -139.17 -139.96 -142.27 -153.22 -155.31 -154.22 -147.01 -148.06 -152.39 -164.34 -158.11 -176.22 -177.49 -184.86 -184.18 -185.55 -190.02 -185.73 -191.16 -187.90 -189.22 -185.40 -188.80 -187.37 -186.30 -184.77 -187.04 -189.50 -172.69 -173.23 -171.30 -161.23 -165.51 -159.60 -171.05 -170.33 -163.22 -151.63 -145.54 -144.81 -140.19 -141.57 -149.88 -152.78 -145.44 -145.80 -150.46
1134.87 1139.34 1126.30 1109.27 1105.50 1109.21 1108.32 1115.31 1114.25 1106.30 1107.51 1119.08 1139.16 1445.60 1433.88 1427.99 1435.20 1437.80 1422.49 1401.96 1386.27 1388.87 1393.85 1337.26 1316.99 1271.61 281.09 251.43 245.33 236.21 216.05 203.53 204.45 218.36 212.51 196.23 187.07 188.89 185.12 176.19 178.20 169.79 162.39 170.66 176.77 206.14 218.28 236.54 239.27 235.56 213.84 216.33 37.28 32.90 27.88 22.11 22.78 14.87 8.19 14.47 7.86 -14.07 -24.32 -24.03 -33.60 -125.72 -114.77 -98.42 -93.43 -93.23 -106.59 -107.91 -95.63 -90.86 -105.46 -124.88 -126.80 -135.88 -169.15 -168.91 -167.32 -174.79 -183.52 -177.80 -176.85 -173.77 -167.37 -162.22 -156.05 -145.26 -144.26 -151.94 -151.56 -162.75 -156.52 -156.44 -154.35 -153.11 -164.25 -164.95 -170.21 -170.22 -177.74 -184.39 -187.40 -187.84 -187.94 -194.23 -192.58 -200.59 -192.82 -188.47 -182.32 -191.87 -188.31 -192.77 -193.90 -172.70 -174.00 -174.48 -170.25 -169.86 -173.73 -165.45 -159.98 -166.97 -160.49 -153.69 -139.42 -148.96 -143.88 -147.26 -157.36 -151.93 -154.42 -159.02
1139.81 1135.66 1125.59 1109.93 1103.75 1107.51 1107.07 1108.17 1114.94 1109.60 1104.76 1122.62 1129.61 1437.52 1424.10 1416.62 1421.28 1429.42 1414.57 1398.35 1371.04 1359.53 1358.55 1339.82 1302.54 1265.54 271.32 234.12 243.58 249.50 238.45 234.59 228.49 233.17 217.75 209.30 194.62 196.89 185.57 167.30 186.79 176.74 161.19 145.02 148.99 169.20 222.96 223.24 238.37 223.13 214.34 210.05 46.46 39.65 24.14 14.95 15.17 9.87 0.06 13.58 4.13 -11.32 -13.41 -18.65 -22.27 -114.79 -121.34 -118.79 -110.85 -105.02 -122.82 -104.10 -97.35 -107.90 -109.33 -125.74 -128.06 -144.58 -177.82 -178.23 -176.24 -181.33 -187.92 -178.65 -178.11 -176.37 -171.29 -163.77 -160.74 -155.14 -156.91 -160.10 -160.83 -166.44 -160.07 -156.97 -150.95 -158.75 -154.37 -158.46 -165.86 -167.52 -167.81 -176.48 -182.40 -181.53 -190.87 -191.17 -195.13 -196.90 -191.44 -191.73 -191.54 -196.35 -187.89 -191.30 -192.27 -160.93 -168.97 -172.83 -173.26 -172.42 -174.61 -172.75 -167.20 -155.52 -160.28 -147.38 -150.58 -152.44 -148.67 -155.96 -154.11 -158.67 -164.39 -167.40
1146.10 1149.16 1143.77 1100.36 1102.84 1102.77 1110.93 1112.04 1104.24 1105.37 1111.33 1116.66 1130.75 1435.56 1418.40 1414.01 1415.07 1402.12 1388.92 1376.81 1351.90 1329.42 1343.34 1338.14 1288.14 1216.39 267.08 258.26 274.86 262.13 258.64 244.99 245.18 232.99 226.05 213.68 223.77 212.91 188.39 162.92 181.06 188.89 156.12 149.28 137.77 159.20 206.30 215.03 216.05 208.69 193.82 204.79 41.15 39.84 24.04 23.82 12.83 4.06 4.11 -1.79 -0.85 -6.86 -13.62 -17.78 -17.17 -115.41 -138.51 -131.65 -118.91 -113.11 -124.63 -116.68 -108.03 -107.78 -121.45 -122.33 -140.58 -145.39 -186.87 -187.35 -186.69 -180.44 -180.33 -181.74 -187.02 -182.40 -169.12 -165.99 -159.86 -157.65 -163.41 -170.12 -164.05 -173.34 -160.95 -159.04 -150.25 -156.25 -160.87 -168.98 -165.86 -168.99 -166.90 -175.88 -187.17 -187.14 -189.63 -190.89 -196.88 -190.33 -194.36 -196.09 -197.48 -194.77 -197.87 -193.75 -193.89 -178.47 -170.81 -174.55 -171.84 -177.07 -175.02 -173.51 -170.06 -166.07 -155.67 -152.02 -158.16 -152.71 -167.12 -156.55 -167.11 -166.85 -167.98 -169.37
1149.50 1155.89 1129.18 1109.92 1102.24 1099.72 1103.50 1099.95 1102.46 1104.05 1109.43 1115.37 1123.24 1433.41 1422.00 1411.75 1412.83 1386.75 1382.92 1354.58 1332.07 1310.43 1282.84 1299.61 1244.62 1224.92 276.27 287.21 290.58 277.98 267.13 259.91 247.66 233.09 212.33 221.81 231.57 221.50 192.48 145.38 157.51 165.26 164.89 147.10 121.46 154.56 168.35 207.95 195.25 181.86 175.23 198.38 39.37 41.76 16.87 17.46 -0.67 9.53 6.07 -6.05 -6.02 -5.74 -6.19 -5.03 -5.00 -114.97 -128.41 -137.06 -136.03 -133.40 -137.01 -136.86 -120.67 -117.72 -130.41 -130.73 -144.20 -148.48 -183.44 -186.12 -189.19 -176.81 -165.55 -171.16 -174.73 -184.91 -182.15 -172.68 -172.03 -171.80 -168.74 -177.94 -175.57 -172.50 -167.88 -155.00 -150.42 -162.27 -165.45 -176.88 -176.68 -171.91 -177.60 -173.68 -187.24 -184.24 -186.13 -189.36 -195.75 -198.95 -194.20 -195.53 -193.53 -196.94 -191.92 -195.99 -194.35 -172.62 -174.61 -169.53 -179.48 -176.40 -175.53 -165.75 -173.14 -164.88 -153.52 -158.04 -157.19 -162.70 -164.63 -166.05 -168.08 -168.45 -165.60 -169.45
208.04 197.37 187.92 163.11 171.59 157.20 160.73 153.56 160.03 159.34 173.24 177.77 183.25 182.99 169.33 165.44 151.85 134.70 125.31 109.78 77.19 28.01 17.64 9.41 -6.72 1.86 6.40 18.03 -9.77 -26.88 -52.56 -63.70 -75.79 -70.03 -80.26 -63.63 -60.11 -78.52 -117.38 -123.13 -120.88 -113.34 -106.47 -140.53 -142.72 -129.32 -115.41 -108.07 -95.53 -104.50 -103.74 -85.78 -76.62 -88.45 -99.30 -108.57 -96.27 -95.11 -101.19 -107.50 -116.39 -104.14 -98.72 -98.53 -92.89 -118.88 -140.38 -158.20 -153.39 -157.74 -160.73 -160.09 -152.16 -145.49 -146.66 -151.36 -161.48 -164.58 -167.32 -164.34 -160.45 -145.45 -146.23 -154.79 -161.58 -168.33 -173.91 -167.52 -168.18 -163.24 -167.14 -165.48 -162.57 -165.82 -159.00 -146.49 -144.69 -152.69 -160.10 -161.85 -161.17 -166.28 -161.94 -165.74 -171.80 -169.00 -170.49 -177.17 -173.88 -173.78 -175.87 -166.87 -176.73 -171.58 -176.64 -175.98 -174.95 -171.62 -174.60 -170.36 -172.17 -174.33 -165.68 -171.66 -168.88 -167.52 -164.46 -154.78 -163.29 -175.56 -169.45 -172.25 -167.49 -170.56 -176.71 -176.92
218.31 209.40 193.09 172.38 173.53 167.64 152.25 158.98 162.13 164.54 164.32 171.45 180.78 179.86 169.38 153.48 144.93 135.58 121.89 117.18 78.12 42.96 20.94 8.55 17.00 44.00 47.96 27.43 -9.57 -24.64 -53.86 -63.50 -75.45 -64.08 -43.61 -41.44 -45.57 -71.46 -97.57 -112.73 -115.11 -110.88 -116.76 -131.39 -159.37 -139.71 -144.79 -146.35 -149.03 -131.18 -125.65 -100.49 -83.54 -102.89 -115.44 -134.10 -111.34 -100.86 -82.92 -89.55 -92.21 -101.03 -91.23 -102.39 -102.52 -115.53 -138.05 -148.46 -160.79 -163.94 -166.12 -165.18 -157.88 -160.20 -164.25 -165.09 -170.60 -170.66 -167.55 -156.01 -133.99 -138.67 -138.37 -148.23 -157.11 -164.87 -171.61 -169.78 -170.39 -172.31 -165.83 -165.81 -171.47 -173.44 -157.83 -154.02 -148.34 -163.52 -166.23 -168.35 -170.60 -176.51 -174.72 -170.77 -175.13 -172.57 -171.57 -170.34 -174.84 -170.10 -170.94 -170.81 -174.56 -167.82 -169.79 -170.84 -171.36 -175.38 -170.34 -169.08 -172.05 -163.50 -170.34 -173.13 -164.54 -164.31 -164.88 -162.76 -167.03 -162.52 -169.59 -170.41 -171.34 -173.97 -165.38 -164.90
