648.40 648.16 541.64 388.40 344.14 304.85 282.10 278.74 285.85 294.91 288.27 294.90 307.99 48.82 27.31 5.60 -16.36 -32.35 -20.84 -29.93 -8.80 9.45 7.59 -10.37 -13.30 5.71 -119.52 -122.71 -126.93 -129.19 -130.06 -143.45 -148.66 -150.17 -141.51 -141.96 -146.27 -145.12 -159.96 -429.36 -432.61 -429.63 -437.57 -436.26 -441.32 -452.91 -456.07 -460.58 -468.92 -464.40 -463.97 -453.74 -944.50 -940.35 -938.85 -935.45 -943.70 -944.91 -942.10 -942.09 -948.42 -943.86 -946.84 -945.10 -952.22 -1205.07 -1202.96 -1207.03 -1208.67 -1209.10 -1227.48 -1233.00 -1243.49 -1285.00 -1280.87 -1286.46 -1330.49 -1338.87 -1563.80 -1560.94 -1583.52 -1594.77 -1579.34 -1591.00 -1604.77 -1586.58 -1580.04 -1564.46 -1569.21 -1666.24 -1743.28 -1652.58 -1705.68 -1732.65 -1887.74 -2073.00 -2334.24 -2462.35 -2492.40 -2612.32 -2629.90 -2643.16 -2680.41 -2739.05 -2069.77 -2087.09 -2125.64 -2145.10 -2170.59 -2199.17 -2212.12 -2224.16 -2232.35 -2241.27 -2234.91 -2248.61 -2255.33 -1900.49 -1929.89 -1956.11 -1991.62 -1998.31 -2010.58 -2057.07 -2080.89 -2090.90 -2101.46 -2128.98 -2158.87 -2171.79 -2179.77 -2207.39 -2247.49 -2269.33 -2281.47 -2279.31
652.90 654.85 537.40 425.98 354.45 314.02 285.18 282.03 300.65 318.71 323.72 318.21 312.05 56.74 30.99 9.52 -6.75 -22.54 -19.36 2.35 26.69 25.31 21.43 -1.52 0.30 8.73 -114.55 -110.48 -123.27 -124.00 -133.07 -134.50 -142.34 -147.34 -136.87 -148.26 -159.15 -157.93 -168.65 -441.39 -441.18 -435.74 -436.84 -446.75 -446.12 -464.23 -446.18 -466.73 -467.82 -459.19 -462.32 -463.31 -936.70 -935.11 -938.17 -936.03 -938.43 -939.85 -942.10 -950.23 -944.86 -949.88 -943.61 -946.66 -949.10 -1210.31 -1202.98 -1204.98 -1199.18 -1208.35 -1202.69 -1211.56 -1223.08 -1235.01 -1239.88 -1262.65 -1297.41 -1328.98 -1517.37 -1534.29 -1557.52 -1544.82 -1559.29 -1552.31 -1555.09 -1563.66 -1552.59 -1548.42 -1543.27 -1537.84 -1601.29 -1519.79 -1604.21 -1638.53 -1771.67 -2027.84 -2271.99 -2319.81 -2473.30 -2557.17 -2623.60 -2632.52 -2674.92 -2732.47 -2081.39 -2094.36 -2124.18 -2179.92 -2198.69 -2221.20 -2221.84 -2232.31 -2235.54 -2238.68 -2245.30 -2255.26 -2266.13 -1904.71 -1930.19 -1953.85 -1976.85 -1992.60 -2006.75 -2022.89 -2035.32 -2051.73 -2059.09 -2098.89 -2114.46 -2132.03 -2159.53 -2179.39 -2189.86 -2243.24 -2246.93 -2246.22
632.43 632.32 657.08 369.39 343.83 309.52 304.85 309.75 350.17 336.39 330.46 338.12 318.07 46.96 35.98 21.63 4.06 -19.61 -22.74 -0.73 30.39 38.69 17.12 -5.06 4.21 6.15 -102.98 -111.26 -106.14 -119.69 -135.12 -137.80 -140.39 -146.79 -149.33 -156.11 -172.48 -174.00 -177.54 -458.35 -454.65 -446.46 -445.31 -448.62 -458.72 -462.96 -464.26 -456.55 -463.82 -454.86 -455.19 -449.54 -941.63 -926.04 -939.23 -943.49 -939.88 -947.21 -944.19 -947.23 -946.56 -942.32 -951.52 -954.11 -947.80 -1203.17 -1206.04 -1200.56 -1203.36 -1205.27 -1203.70 -1201.51 -1217.42 -1214.07 -1238.25 -1246.23 -1267.75 -1288.81 -1496.92 -1507.13 -1496.87 -1495.32 -1509.03 -1533.35 -1516.93 -1535.97 -1532.36 -1514.38 -1502.61 -1515.11 -1498.23 -1365.38 -1412.84 -1528.97 -1672.11 -1952.44 -2236.45 -2415.27 -2500.19 -2568.11 -2586.95 -2636.88 -2673.51 -2726.28 -2068.30 -2107.71 -2131.09 -2192.90 -2219.38 -2229.90 -2232.17 -2237.18 -2237.72 -2246.24 -2261.26 -2256.94 -2273.03 -1909.22 -1930.55 -1951.78 -1962.41 -1973.65 -1994.61 -2013.53 -2014.52 -2032.15 -2045.31 -2046.97 -2090.75 -2112.92 -2138.47 -2129.66 -2168.45 -2176.12 -2213.85 -2217.87
2294.12 2294.85 2178.37 2025.11 1946.99 1923.88 1920.00 1954.09 1962.57 1973.85 1946.76 1932.48 1906.71 2028.12 2011.76 2015.12 1992.90 1981.11 1976.90 2004.15 2031.20 2037.17 2033.93 2010.83 2017.05 2032.41 -90.37 -89.94 -102.71 -112.05 -118.93 -138.50 -147.10 -149.22 -153.71 -154.37 -162.56 -166.91 -165.96 -375.36 -389.19 -373.79 -384.51 -386.50 -389.29 -389.42 -385.15 -392.56 -378.09 -374.18 -372.00 -380.48 -380.39 -374.97 -388.62 -383.54 -394.02 -390.37 -388.81 -392.76 -392.50 -403.48 -394.40 -393.91 -395.56 -869.79 -877.93 -873.24 -871.03 -876.82 -874.32 -873.99 -874.69 -874.63 -889.38 -907.06 -915.03 -931.13 -941.98 -957.93 -960.75 -971.61 -964.69 -954.18 -977.17 -951.55 -933.75 -954.88 -953.40 -963.79 -949.93 -977.00 -1018.82 -1036.66 -1210.60 -1388.60 -1702.83 -1912.66 -2141.64 -2175.16 -2222.55 -2272.86 -2280.34 -2397.91 -2089.13 -2141.47 -2199.19 -2238.18 -2245.56 -2259.30 -2253.21 -2265.88 -2256.90 -2270.03 -2277.75 -2285.57 -2307.61 -1924.74 -1937.61 -1948.69 -1952.34 -1965.87 -1989.08 -2002.58 -2010.33 -2006.47 -2021.90 -2032.60 -2040.96 -2072.49 -2102.81 -2122.96 -2129.95 -2177.43 -2186.78 -2183.43
2271.91 2268.83 2173.46 2059.35 2003.53 1923.96 1936.21 1950.27 1973.83 1959.12 1939.45 1915.23 1904.26 2023.71 2016.80 2005.18 1983.62 1983.25 1988.77 2002.27 2024.48 2034.98 2028.09 2018.10 2026.40 2036.91 -85.80 -83.91 -109.80 -115.28 -132.06 -133.53 -138.21 -145.38 -141.24 -141.83 -149.03 -152.71 -149.73 -365.25 -369.00 -370.41 -389.64 -385.85 -382.89 -387.26 -377.30 -384.47 -370.44 -374.35 -376.05 -375.83 -379.50 -381.86 -389.55 -387.70 -394.06 -396.41 -394.09 -396.39 -396.58 -397.17 -396.50 -395.06 -392.40 -880.07 -877.18 -869.26 -866.71 -870.84 -871.78 -872.65 -873.25 -875.75 -876.38 -889.61 -888.55 -911.97 -916.93 -937.76 -947.58 -949.80 -949.45 -953.16 -926.28 -925.14 -927.44 -917.29 -928.76 -936.58 -934.64 -962.97 -1007.61 -1047.40 -1192.89 -1366.60 -1530.30 -1567.35 -1797.80 -2047.91 -2148.18 -2152.40 -2295.09 -2373.47 -2103.67 -2147.96 -2218.94 -2261.28 -2264.71 -2270.78 -2279.56 -2285.70 -2284.64 -2278.02 -2291.50 -2296.42 -2306.01 -1940.75 -1942.23 -1953.32 -1966.56 -1974.32 -1983.78 -1991.71 -1991.11 -2000.30 -2005.09 -2024.15 -2034.12 -2036.16 -2061.71 -2087.34 -2110.36 -2164.73 -2152.89 -2154.90
2491.35 2494.07 2379.22 2120.54 2110.65 1988.56 1939.34 1946.31 1988.30 1971.59 1960.63 1918.88 1924.70 2059.25 2056.15 2024.27 2013.90 1991.40 1989.19 2015.05 2021.90 2055.22 2042.22 2028.66 2034.76 2041.67 -79.02 -80.87 -108.02 -105.67 -115.33 -113.56 -118.20 -127.25 -128.16 -122.53 -132.19 -140.36 -139.99 -360.05 -354.88 -370.66 -376.34 -383.21 -386.91 -380.62 -379.98 -376.17 -368.27 -365.28 -363.80 -371.27 -381.32 -384.40 -390.96 -391.83 -391.68 -386.07 -391.10 -390.09 -390.06 -388.39 -396.32 -392.05 -392.85 -872.61 -870.12 -869.22 -873.80 -868.94 -872.12 -875.56 -876.64 -869.47 -875.19 -874.09 -877.13 -891.91 -896.50 -922.95 -930.09 -931.44 -937.48 -917.97 -917.00 -917.84 -916.39 -906.66 -915.83 -914.30 -910.51 -940.77 -982.85 -996.98 -1029.24 -1237.52 -1294.38 -1401.28 -1764.91 -1756.57 -1981.07 -2135.13 -2357.65 -2401.02 -2131.47 -2185.79 -2219.38 -2263.47 -2291.85 -2300.29 -2312.08 -2297.76 -2310.90 -2306.38 -2319.09 -2317.52 -2314.08 -1944.91 -1953.66 -1975.30 -1978.33 -1979.23 -1986.10 -1988.04 -1990.92 -1996.97 -2001.81 -2017.19 -2024.85 -2036.11 -2054.17 -2068.89 -2086.19 -2122.62 -2129.43 -2136.84
2621.10 2624.21 2436.90 2244.94 2127.02 2042.95 1991.84 2044.31 2006.90 2041.29 2023.94 1993.80 1982.10 2077.49 2061.33 2042.06 2017.49 1989.57 1990.97 2012.54 2046.10 2058.36 2055.54 2044.88 2038.46 2047.84 -72.62 -89.68 -109.06 -107.85 -97.75 -103.86 -112.66 -118.13 -120.92 -117.58 -120.76 -129.61 -135.73 -353.34 -361.41 -370.66 -380.20 -386.38 -378.71 -372.48 -372.08 -382.70 -370.97 -362.56 -357.61 -365.89 -377.08 -384.25 -384.76 -388.12 -387.10 -385.72 -388.72 -387.65 -383.59 -391.28 -388.27 -389.09 -389.43 -872.46 -868.31 -866.90 -869.31 -872.82 -874.54 -875.73 -876.84 -873.60 -869.80 -873.48 -879.52 -875.82 -882.63 -904.03 -895.04 -911.85 -912.05 -912.18 -902.89 -900.85 -892.80 -899.15 -902.27 -899.76 -909.86 -925.63 -942.48 -964.69 -978.58 -1018.20 -1111.01 -1181.23 -1408.62 -1687.94 -1766.93 -2096.54 -2320.67 -2402.24 -2147.28 -2181.31 -2257.85 -2279.08 -2303.09 -2322.48 -2319.35 -2331.26 -2321.25 -2328.23 -2322.02 -2334.09 -2339.47 -1960.31 -1978.76 -1980.98 -1995.82 -1999.72 -1999.15 -2002.42 -2001.31 -2010.93 -2010.41 -2015.52 -2027.10 -2031.35 -2045.39 -2064.43 -2080.63 -2110.75 -2122.09 -2118.84
2693.07 2698.45 2657.84 2197.44 2160.76 2059.01 2067.13 2122.62 2074.95 2081.90 2053.08 2052.09 2003.92 2074.12 2054.56 2038.83 2022.90 2016.99 2000.33 2007.52 2043.40 2069.39 2062.79 2057.20 2058.88 2058.39 -64.91 -95.26 -94.44 -105.40 -99.40 -96.04 -114.67 -120.55 -127.36 -126.47 -114.56 -128.04 -151.31 -358.04 -375.16 -380.65 -379.39 -382.95 -375.75 -368.41 -368.67 -371.02 -361.82 -358.74 -359.12 -365.36 -373.37 -380.39 -381.78 -381.96 -376.63 -378.45 -377.60 -380.77 -382.72 -382.46 -395.41 -391.39 -395.40 -867.03 -866.78 -869.60 -871.37 -863.81 -868.90 -869.03 -873.32 -875.44 -874.23 -879.37 -874.43 -875.73 -874.85 -887.37 -896.63 -901.41 -903.70 -893.46 -894.20 -893.24 -893.61 -886.25 -898.48 -897.53 -904.21 -925.54 -928.72 -937.81 -970.58 -1005.96 -1038.48 -1138.89 -1356.50 -1607.09 -1830.82 -2236.01 -2317.38 -2421.27 -2155.43 -2215.67 -2271.56 -2288.71 -2319.84 -2333.20 -2347.35 -2344.20 -2343.45 -2346.91 -2340.57 -2347.76 -2355.07 -1974.30 -1983.09 -1989.34 -2011.18 -2008.11 -2027.20 -2024.20 -2014.36 -2008.76 -2010.58 -2023.45 -2021.88 -2028.65 -2044.99 -2062.64 -2077.38 -2094.66 -2104.95 -2108.82
2649.26 2647.94 2543.34 2322.52 2187.14 2125.21 2148.67 2194.28 2186.45 2113.36 2078.95 2067.61 2020.94 2083.72 2072.26 2070.48 2048.12 2039.80 2019.96 2016.91 2052.01 2077.19 2081.20 2072.79 2070.04 2075.08 -67.11 -79.66 -96.43 -97.13 -95.50 -102.11 -113.09 -134.60 -132.31 -133.65 -127.82 -147.12 -158.26 -371.08 -378.52 -381.10 -380.81 -382.31 -369.59 -362.70 -357.48 -358.91 -360.27 -352.92 -355.42 -358.92 -374.53 -376.63 -383.76 -383.22 -369.28 -372.68 -379.92 -373.28 -385.52 -386.65 -390.26 -383.93 -393.86 -865.54 -862.35 -868.62 -861.06 -872.08 -866.49 -871.24 -872.12 -880.49 -875.11 -873.83 -883.75 -876.57 -877.17 -891.93 -892.17 -897.36 -884.05 -882.56 -881.40 -886.31 -883.81 -878.64 -883.49 -889.37 -901.35 -917.55 -918.30 -925.46 -937.54 -964.95 -1030.97 -1091.66 -1270.20 -1503.34 -1629.83 -2027.65 -2315.63 -2413.45 -2171.44 -2234.46 -2286.18 -2284.11 -2320.66 -2342.79 -2354.35 -2347.06 -2351.33 -2354.57 -2346.02 -2359.00 -2365.07 -1994.31 -2001.88 -2011.36 -2018.28 -2031.85 -2031.57 -2027.65 -2025.49 -2023.33 -2017.64 -2024.92 -2026.67 -2033.43 -2048.71 -2057.03 -2062.60 -2087.70 -2090.51 -2093.80
2570.84 2572.38 2456.99 2336.70 2290.56 2211.41 2203.23 2256.71 2223.53 2215.59 2174.01 2080.50 2002.10 2102.83 2110.70 2089.14 2064.10 2031.43 2017.17 2027.85 2072.05 2078.57 2091.71 2091.66 2092.43 2081.78 -55.06 -59.95 -77.58 -91.42 -100.57 -99.60 -124.01 -133.91 -156.94 -134.64 -151.36 -162.50 -162.73 -373.21 -384.77 -387.13 -379.35 -376.05 -371.62 -363.21 -346.30 -350.18 -357.13 -357.51 -356.29 -366.19 -368.51 -379.35 -384.43 -378.83 -374.61 -367.15 -369.11 -374.69 -383.05 -379.77 -390.75 -384.12 -392.09 -869.61 -866.82 -865.49 -866.39 -875.15 -870.76 -867.40 -871.29 -869.85 -877.16 -874.26 -873.89 -872.79 -872.68 -888.33 -897.07 -888.23 -881.18 -881.41 -883.68 -879.76 -879.66 -883.31 -875.69 -885.99 -885.56 -908.18 -900.61 -914.27 -926.12 -968.91 -983.76 -1085.77 -1252.73 -1341.12 -1440.99 -1964.70 -2321.80 -2396.45 -2169.62 -2225.33 -2255.17 -2300.57 -2327.70 -2352.15 -2364.32 -2363.57 -2362.02 -2361.92 -2371.41 -2377.83 -2380.54 -2002.73 -2017.39 -2029.77 -2034.70 -2036.49 -2042.74 -2039.24 -2039.29 -2030.00 -2020.33 -2032.45 -2030.98 -2040.05 -2042.05 -2051.49 -2059.34 -2087.68 -2084.40 -2093.26
2511.07 2507.55 2436.61 2339.33 2295.85 2293.59 2290.14 2265.70 2283.30 2256.13 2223.55 2096.73 2041.35 2143.72 2143.61 2114.05 2089.16 2030.08 2020.08 2061.31 2079.14 2109.60 2115.37 2113.20 2100.32 2082.45 -46.20 -55.06 -69.69 -88.52 -93.80 -114.32 -135.45 -158.01 -157.72 -164.37 -168.22 -170.74 -167.00 -376.61 -391.85 -385.14 -386.47 -377.47 -369.65 -353.30 -339.00 -341.45 -339.83 -344.24 -364.51 -361.69 -370.88 -375.67 -378.74 -363.12 -360.50 -364.75 -366.03 -365.13 -371.41 -376.11 -378.93 -377.16 -389.34 -863.16 -861.60 -865.48 -864.72 -870.40 -870.91 -868.81 -876.95 -873.80 -873.51 -876.68 -868.82 -873.95 -879.44 -883.04 -884.55 -880.57 -872.27 -876.07 -883.44 -874.41 -876.30 -871.86 -871.81 -876.24 -876.69 -893.26 -898.57 -909.85 -917.96 -925.44 -944.56 -973.72 -1062.91 -1243.87 -1511.52 -1661.78 -2356.15 -2380.07 -2124.60 -2207.03 -2248.04 -2299.43 -2329.68 -2358.52 -2359.78 -2370.43 -2376.58 -2376.84 -2381.75 -2382.54 -2390.05 -2009.47 -2035.16 -2041.93 -2043.65 -2042.04 -2045.15 -2038.23 -2033.18 -2031.03 -2024.67 -2031.22 -2031.30 -2036.37 -2049.57 -2051.62 -2063.74 -2073.54 -2085.59 -2077.74
2492.82 2495.92 2438.39 2333.47 2300.44 2300.55 2305.54 2300.51 2297.41 2264.37 2207.05 2162.48 2063.84 2168.81 2142.59 2094.66 2071.56 2035.93 2043.83 2086.97 2111.80 2117.16 2125.24 2109.15 2096.70 2074.42 -43.78 -53.07 -71.81 -81.44 -97.46 -95.88 -135.21 -160.30 -161.53 -176.34 -175.43 -179.04 -183.98 -386.89 -385.19 -394.22 -382.67 -375.15 -370.08 -354.44 -338.23 -333.93 -331.99 -345.54 -355.55 -356.49 -362.88 -363.01 -362.27 -360.46 -356.62 -358.22 -357.63 -362.24 -358.83 -371.38 -371.82 -381.49 -376.53 -860.57 -860.31 -863.93 -863.23 -871.16 -870.47 -864.50 -869.40 -871.45 -869.96 -872.04 -873.66 -871.15 -875.74 -880.90 -880.59 -872.86 -874.26 -874.75 -875.84 -877.05 -877.88 -871.48 -873.54 -869.19 -876.99 -888.49 -891.70 -898.52 -907.54 -920.57 -932.90 -946.74 -1050.89 -1202.90 -1296.21 -1647.12 -1984.78 -2385.44 -2112.24 -2190.67 -2238.14 -2265.51 -2323.24 -2350.67 -2361.90 -2372.49 -2374.63 -2376.09 -2379.07 -2395.76 -2395.70 -2034.73 -2042.41 -2042.02 -2043.72 -2048.16 -2042.89 -2037.93 -2032.35 -2035.24 -2035.74 -2028.96 -2031.76 -2036.48 -2041.73 -2049.21 -2063.93 -2075.75 -2080.58 -2084.67
2468.25 2468.94 2469.79 2275.03 2275.37 2298.57 2297.25 2304.51 2307.59 2283.56 2261.58 2198.23 2128.82 2182.25 2129.35 2079.70 2059.17 2048.09 2069.76 2103.01 2120.99 2105.72 2113.77 2097.96 2078.78 2068.02 -46.54 -51.18 -59.65 -71.31 -93.82 -104.74 -136.15 -137.47 -150.65 -165.00 -179.03 -171.77 -166.32 -377.05 -378.62 -383.74 -379.26 -381.69 -360.94 -349.63 -335.35 -329.99 -328.12 -337.55 -348.99 -356.57 -359.40 -368.30 -361.30 -365.03 -355.87 -360.71 -353.79 -362.25 -367.19 -368.79 -371.15 -374.35 -374.07 -851.19 -860.12 -857.64 -866.46 -866.26 -867.96 -870.79 -866.03 -878.20 -870.69 -871.13 -870.86 -877.06 -875.42 -876.33 -875.08 -876.56 -873.13 -873.45 -872.09 -871.96 -871.96 -870.31 -871.05 -876.56 -877.08 -889.88 -892.80 -897.36 -896.92 -899.08 -924.31 -946.97 -980.92 -1086.84 -1279.03 -1593.79 -1733.70 -2136.85 -2118.64 -2174.78 -2211.80 -2275.28 -2294.38 -2331.51 -2359.14 -2366.40 -2376.48 -2379.92 -2377.48 -2394.90 -2401.76 -2027.52 -2044.60 -2040.03 -2049.36 -2050.33 -2049.71 -2042.29 -2040.77 -2039.47 -2040.57 -2033.90 -2030.68 -2040.47 -2044.67 -2050.93 -2063.50 -2081.49 -2085.84 -2082.14
2447.44 2445.70 2372.23 2290.59 2265.42 2284.11 2294.63 2298.49 2298.66 2311.34 2308.25 2258.99 2134.64 2180.68 2140.56 2087.05 2059.70 2072.25 2117.73 2128.28 2123.95 2112.68 2094.19 2069.13 2058.94 2045.57 -58.17 -60.18 -56.46 -72.43 -106.19 -103.77 -118.44 -126.45 -139.89 -162.52 -175.18 -164.05 -165.38 -368.39 -363.55 -364.18 -377.01 -370.37 -371.63 -350.14 -331.49 -343.59 -338.32 -348.43 -346.56 -352.71 -362.74 -365.93 -374.53 -373.07 -375.99 -358.71 -358.84 -363.09 -364.48 -369.64 -374.85 -366.71 -376.12 -846.83 -854.62 -855.11 -858.60 -864.22 -863.07 -864.89 -871.02 -873.25 -873.41 -866.95 -873.82 -877.07 -865.60 -870.58 -868.12 -871.92 -871.93 -873.59 -868.25 -877.88 -873.86 -877.46 -871.14 -873.67 -874.78 -888.62 -888.54 -888.55 -895.08 -895.02 -907.58 -917.66 -941.40 -1052.81 -1229.65 -1351.76 -1684.54 -1905.19 -1947.38 -2161.94 -2182.33 -2237.51 -2288.48 -2323.25 -2343.00 -2360.57 -2364.04 -2377.03 -2377.46 -2388.32 -2401.30 -2024.88 -2029.85 -2039.98 -2050.37 -2051.46 -2047.56 -2047.12 -2043.43 -2042.46 -2036.31 -2034.83 -2033.13 -2037.97 -2038.32 -2056.64 -2063.36 -2072.75 -2082.79 -2081.64
2444.18 2449.12 2356.04 2305.34 2212.04 2187.63 2235.68 2252.64 2289.99 2297.31 2314.68 2244.42 2170.47 2190.09 2160.55 2112.97 2114.65 2124.08 2144.63 2118.98 2115.94 2101.60 2086.22 2056.08 2034.19 2034.59 -78.95 -75.41 -76.06 -89.69 -112.26 -107.15 -112.12 -128.12 -138.34 -147.76 -174.27 -172.45 -147.27 -356.38 -342.16 -352.55 -366.53 -367.54 -356.17 -357.71 -357.19 -356.60 -354.22 -359.17 -350.26 -356.75 -363.49 -369.32 -376.42 -384.69 -376.04 -365.87 -360.90 -361.00 -370.84 -371.47 -373.92 -373.81 -367.54 -851.26 -856.48 -859.26 -857.54 -864.60 -861.53 -865.06 -868.85 -870.61 -865.56 -868.14 -869.33 -874.61 -875.78 -873.79 -872.60 -874.08 -868.54 -869.27 -875.86 -876.61 -876.97 -869.31 -877.21 -873.14 -869.76 -889.04 -886.49 -889.58 -889.46 -888.38 -896.07 -907.47 -935.52 -960.60 -1102.81 -1196.55 -1506.56 -1813.42 -1821.90 -2024.94 -2156.82 -2182.80 -2258.50 -2287.15 -2337.46 -2363.77 -2368.09 -2375.03 -2384.76 -2388.68 -2392.22 -2026.67 -2027.26 -2037.87 -2042.78 -2047.53 -2041.21 -2046.67 -2041.57 -2037.39 -2041.53 -2039.16 -2033.83 -2041.71 -2048.44 -2061.43 -2062.70 -2072.83 -2088.14 -2083.00
1150.45 1152.75 1170.47 967.78 948.39 937.96 995.22 1040.91 1065.63 1080.68 1097.39 1038.88 971.64 1547.21 1453.07 1490.60 1448.18 1430.23 1415.38 1376.18 1366.50 1347.95 1340.28 1294.85 1298.43 1292.70 -94.41 -74.37 -75.17 -104.78 -115.54 -115.23 -122.41 -126.66 -148.94 -154.33 -170.41 -163.42 -148.23 -354.95 -354.04 -352.88 -354.16 -363.55 -366.40 -368.09 -375.59 -369.53 -380.67 -378.86 -377.88 -373.89 -390.37 -400.53 -418.35 -410.27 -403.02 -402.40 -396.11 -397.06 -392.44 -396.70 -402.46 -402.98 -398.72 -783.84 -786.30 -785.23 -784.62 -794.39 -796.65 -795.46 -795.38 -794.09 -797.07 -799.82 -801.55 -799.55 -828.95 -824.10 -830.10 -827.86 -823.75 -827.90 -832.95 -827.50 -826.21 -830.15 -833.43 -824.60 -827.94 -887.82 -884.59 -884.95 -888.27 -891.69 -891.68 -904.31 -921.44 -934.26 -991.16 -1128.50 -1388.39 -1606.84 -2133.33 -2312.63 -2352.01 -2459.85 -2492.36 -2547.40 -2563.99 -2610.73 -2637.66 -2642.21 -2644.72 -2648.27 -2657.01 -2012.36 -2016.53 -2022.10 -2028.21 -2028.83 -2031.82 -2038.93 -2038.31 -2039.79 -2032.56 -2034.90 -2037.30 -2042.08 -2041.84 -2048.77 -2063.87 -2084.64 -2087.85 -2082.90
1119.39 1117.97 1032.13 945.82 891.66 931.68 986.10 1030.49 1055.41 1063.46 1071.31 1082.80 1045.30 1634.27 1565.21 1519.94 1504.61 1477.74 1399.97 1355.15 1361.66 1336.97 1307.47 1297.66 1291.46 1285.74 -106.79 -93.60 -98.60 -103.19 -134.84 -130.97 -142.24 -166.87 -158.65 -160.62 -159.06 -151.25 -145.74 -358.34 -344.33 -347.41 -363.32 -357.25 -354.41 -366.06 -380.68 -386.80 -390.61 -387.72 -380.54 -383.17 -395.66 -403.45 -415.99 -414.18 -412.82 -405.88 -396.64 -402.22 -400.55 -407.45 -412.29 -407.88 -403.17 -790.86 -795.15 -791.70 -794.61 -795.30 -802.24 -792.92 -788.90 -800.85 -798.64 -792.73 -797.67 -800.31 -822.45 -826.14 -827.24 -827.60 -833.87 -832.20 -826.99 -831.60 -831.10 -825.57 -828.49 -830.81 -832.50 -883.88 -883.32 -886.75 -886.92 -886.74 -886.70 -896.96 -899.74 -958.73 -1012.74 -1056.46 -1272.16 -1649.09 -1983.30 -2196.79 -2262.71 -2369.89 -2487.73 -2506.43 -2550.58 -2571.25 -2611.19 -2621.77 -2645.42 -2639.13 -2647.63 -2002.88 -2004.81 -2012.13 -2024.15 -2020.33 -2031.12 -2031.92 -2033.22 -2034.73 -2036.23 -2038.57 -2040.35 -2034.21 -2047.65 -2055.72 -2068.64 -2094.41 -2088.16 -2087.60
1107.45 1104.18 1015.55 924.85 890.63 940.37 980.48 1028.83 1030.08 1046.25 1059.51 1050.03 1074.25 1713.41 1612.65 1590.28 1521.48 1463.82 1385.24 1380.41 1379.86 1348.20 1342.96 1320.25 1307.33 1279.13 -114.00 -119.43 -122.58 -135.02 -145.74 -151.46 -162.45 -162.63 -173.50 -159.81 -157.33 -145.40 -136.15 -347.48 -335.87 -336.84 -346.11 -349.69 -360.50 -379.36 -379.47 -395.85 -393.32 -396.13 -386.15 -394.29 -405.04 -406.59 -412.34 -418.84 -415.48 -413.84 -409.80 -404.62 -408.07 -406.01 -417.97 -421.97 -419.16 -792.50 -796.90 -796.70 -795.77 -789.46 -801.18 -800.15 -799.17 -796.91 -800.41 -798.39 -798.74 -800.50 -819.75 -830.95 -826.57 -826.76 -828.36 -830.48 -831.75 -830.12 -830.48 -827.25 -827.63 -827.87 -829.83 -885.79 -878.21 -883.01 -880.98 -887.27 -888.75 -891.51 -897.81 -933.72 -1005.89 -1075.62 -1294.83 -1615.91 -1907.37 -1987.34 -2153.33 -2238.82 -2415.47 -2474.32 -2518.60 -2568.72 -2588.30 -2600.49 -2609.62 -2628.76 -2626.62 -1994.20 -2005.81 -2009.81 -2014.77 -2016.91 -2029.43 -2027.79 -2032.54 -2035.37 -2035.31 -2038.40 -2039.79 -2041.25 -2052.39 -2066.08 -2069.24 -2082.63 -2095.35 -2092.02
1033.26 1035.10 1043.87 848.85 825.56 882.13 940.88 962.68 988.33 992.86 1019.09 1045.82 1054.70 1688.98 1644.72 1615.64 1542.76 1482.51 1417.91 1418.35 1385.41 1358.51 1342.49 1325.75 1309.38 1283.33 -138.89 -134.01 -127.95 -134.77 -154.80 -156.97 -168.92 -169.80 -160.38 -148.58 -137.11 -128.85 -130.13 -326.83 -330.60 -329.80 -340.74 -347.52 -361.42 -363.27 -397.38 -400.81 -403.18 -395.33 -398.13 -399.84 -418.86 -411.79 -411.33 -415.25 -412.56 -414.89 -417.93 -411.87 -411.82 -417.70 -413.41 -423.01 -421.53 -799.90 -796.91 -791.75 -795.11 -793.95 -803.97 -800.68 -801.44 -802.47 -800.94 -794.28 -794.49 -804.56 -826.86 -827.64 -833.74 -824.99 -823.69 -827.11 -832.50 -825.99 -828.79 -828.42 -829.18 -824.83 -832.19 -885.34 -883.80 -890.19 -884.49 -881.12 -892.20 -879.45 -890.68 -945.43 -978.96 -1056.71 -1210.95 -1235.14 -1584.93 -1997.26 -2064.55 -2139.52 -2303.42 -2430.51 -2446.45 -2515.54 -2560.75 -2571.88 -2603.61 -2606.49 -2621.11 -1990.59 -1990.81 -2001.70 -2016.89 -2016.78 -2028.04 -2031.92 -2038.43 -2045.70 -2036.02 -2039.32 -2046.13 -2057.86 -2057.60 -2078.81 -2076.95 -2095.66 -2097.73 -2099.44
1002.26 1007.60 941.56 836.66 817.79 821.42 863.80 895.82 946.54 973.00 992.00 995.49 1017.17 1634.27 1566.90 1556.23 1575.14 1509.99 1493.34 1439.53 1390.61 1333.55 1322.51 1310.87 1308.02 1280.06 -137.65 -140.78 -142.86 -144.34 -136.73 -147.25 -166.17 -171.22 -151.90 -133.19 -128.39 -116.92 -114.73 -328.18 -326.24 -321.46 -337.27 -350.74 -372.20 -378.94 -399.27 -397.86 -399.55 -389.59 -397.69 -397.09 -417.25 -413.71 -414.08 -407.71 -414.31 -412.69 -419.30 -417.11 -416.44 -410.11 -416.05 -414.48 -418.41 -798.26 -797.78 -795.19 -804.03 -800.05 -799.55 -802.25 -802.49 -804.48 -806.71 -804.65 -803.18 -798.54 -832.02 -829.24 -828.50 -827.97 -823.95 -826.48 -827.15 -825.85 -828.18 -824.15 -832.67 -828.65 -830.36 -888.01 -884.99 -883.48 -889.30 -885.60 -887.39 -887.51 -882.17 -896.82 -948.56 -1014.46 -1052.23 -1319.26 -1622.39 -1915.05 -1972.07 -2149.12 -2261.98 -2304.28 -2398.47 -2478.68 -2503.50 -2552.42 -2567.16 -2575.24 -2604.96 -1984.68 -1987.13 -2001.26 -2004.05 -2016.69 -2027.89 -2030.42 -2040.04 -2048.08 -2047.26 -2052.85 -2055.27 -2062.59 -2073.47 -2072.18 -2081.98 -2104.19 -2109.35 -2119.24
1006.17 1011.94 955.44 852.07 826.46 793.77 811.10 834.19 874.60 897.17 901.45 897.07 884.68 1513.42 1470.24 1530.38 1558.93 1549.48 1503.79 1450.55 1379.20 1359.12 1321.90 1298.03 1288.55 1280.89 -137.45 -129.30 -127.94 -119.39 -122.85 -144.89 -168.63 -153.10 -133.55 -116.34 -116.74 -106.23 -104.88 -333.61 -332.47 -331.25 -336.76 -372.30 -375.85 -389.24 -402.80 -403.56 -397.86 -385.92 -386.43 -401.00 -420.61 -412.41 -409.62 -397.86 -401.51 -407.21 -420.98 -414.47 -417.69 -413.96 -412.39 -410.64 -414.10 -795.44 -795.29 -800.52 -799.61 -805.90 -803.54 -795.48 -801.55 -803.73 -800.05 -803.18 -802.15 -801.12 -824.03 -827.24 -826.93 -828.24 -826.41 -829.97 -825.93 -831.94 -825.74 -827.91 -820.82 -825.34 -826.71 -889.66 -886.75 -891.86 -887.63 -883.34 -890.72 -886.71 -890.92 -900.40 -921.70 -968.17 -1048.09 -1387.66 -1585.60 -1858.33 -2004.97 -2156.95 -2205.00 -2275.57 -2338.13 -2400.84 -2433.86 -2518.67 -2552.11 -2559.89 -2605.02 -1965.69 -1982.33 -1998.91 -2015.50 -2023.02 -2024.65 -2035.54 -2040.51 -2049.00 -2046.82 -2051.92 -2057.12 -2070.76 -2077.54 -2090.04 -2088.44 -2110.08 -2122.35 -2124.98
1078.23 1078.59 991.35 883.81 873.82 807.50 782.53 814.36 828.20 836.61 819.81 815.93 814.64 1433.26 1417.40 1470.10 1547.43 1534.83 1494.05 1450.33 1389.32 1349.45 1322.35 1307.14 1288.82 1280.19 -112.01 -115.85 -104.85 -117.35 -124.66 -146.04 -149.14 -142.27 -134.57 -113.47 -115.52 -102.10 -115.86 -343.36 -352.33 -351.49 -372.11 -367.94 -378.20 -392.76 -399.16 -396.76 -392.77 -380.02 -382.79 -375.14 -399.39 -396.42 -397.25 -393.03 -400.62 -409.98 -411.67 -414.42 -414.74 -412.77 -411.11 -412.13 -414.27 -799.56 -802.81 -796.92 -806.11 -799.92 -802.40 -796.13 -790.50 -802.73 -803.08 -798.52 -802.96 -803.64 -828.94 -828.45 -827.74 -830.07 -828.52 -830.61 -831.75 -831.09 -822.02 -832.30 -824.96 -831.80 -825.79 -883.20 -879.49 -886.82 -888.15 -884.93 -892.98 -892.23 -897.58 -909.65 -952.26 -1012.72 -1042.52 -1217.44 -1491.79 -1843.64 -1950.06 -2081.45 -2120.79 -2199.50 -2261.49 -2311.61 -2423.98 -2476.72 -2511.02 -2570.42 -2605.43 -1966.38 -1985.22 -1996.91 -2022.97 -2033.41 -2037.30 -2042.89 -2043.48 -2048.70 -2060.55 -2065.61 -2073.92 -2075.81 -2091.11 -2100.06 -2106.57 -2119.59 -2134.27 -2127.14
1083.24 1081.47 1011.08 935.20 871.31 810.14 779.60 800.02 802.78 818.43 815.97 787.66 774.33 1391.70 1407.40 1458.70 1512.41 1525.93 1495.59 1444.57 1422.22 1363.13 1324.46 1321.42 1308.72 1298.49 -107.58 -99.99 -98.86 -109.87 -141.36 -140.84 -133.86 -128.42 -108.07 -113.48 -105.14 -121.77 -126.47 -374.14 -372.61 -364.34 -373.40 -377.15 -382.40 -395.93 -402.21 -394.16 -385.98 -379.02 -378.02 -376.39 -387.78 -394.65 -388.71 -385.62 -382.32 -398.11 -407.65 -407.23 -411.06 -409.50 -415.58 -417.26 -421.94 -798.68 -802.76 -802.76 -796.91 -803.19 -799.28 -792.18 -794.72 -799.13 -802.94 -798.12 -801.97 -798.37 -830.60 -832.26 -825.19 -823.08 -824.70 -825.21 -833.28 -826.27 -828.07 -834.11 -828.53 -827.01 -828.02 -884.82 -885.81 -883.44 -889.91 -880.94 -888.41 -887.07 -910.43 -937.90 -978.39 -1032.51 -1047.04 -1182.98 -1417.20 -1616.60 -1822.65 -1926.20 -2074.51 -2118.56 -2201.04 -2285.64 -2367.37 -2442.22 -2494.69 -2575.46 -2609.83 -1970.17 -1991.07 -2004.67 -2030.99 -2026.02 -2035.90 -2045.71 -2055.04 -2056.87 -2071.26 -2068.89 -2080.44 -2095.28 -2089.69 -2102.94 -2104.94 -2126.37 -2144.69 -2141.73
1075.37 1075.17 1077.78 892.11 877.52 824.75 780.81 779.11 776.68 812.61 812.74 791.36 777.13 1368.52 1376.36 1423.02 1493.33 1513.93 1483.23 1460.47 1436.31 1346.98 1331.73 1314.99 1319.16 1314.80 -88.00 -103.03 -111.91 -128.91 -137.55 -127.95 -121.20 -104.15 -106.20 -102.99 -114.31 -117.77 -135.59 -375.40 -379.00 -383.36 -388.17 -388.56 -398.82 -406.35 -391.12 -378.00 -380.64 -376.28 -372.43 -361.68 -381.18 -382.46 -386.20 -384.37 -378.80 -386.34 -397.05 -403.49 -408.61 -420.28 -415.52 -411.47 -411.07 -799.14 -801.24 -803.02 -801.49 -795.00 -798.82 -795.43 -794.71 -803.29 -805.34 -800.13 -799.55 -804.00 -828.87 -820.51 -824.69 -832.14 -826.20 -821.49 -829.81 -830.21 -830.00 -827.30 -834.49 -833.06 -827.41 -883.21 -886.63 -884.61 -888.19 -882.34 -886.93 -893.34 -906.02 -928.23 -961.09 -969.35 -1008.34 -1197.61 -1463.29 -1671.38 -1846.80 -1883.61 -1927.46 -2040.23 -2109.89 -2204.71 -2255.37 -2419.81 -2444.17 -2548.47 -2594.10 -1967.35 -2004.56 -2007.16 -2023.11 -2032.46 -2033.71 -2044.25 -2050.97 -2061.24 -2071.19 -2075.51 -2083.60 -2092.70 -2093.78 -2104.72 -2119.97 -2146.34 -2153.80 -2153.75
1071.64 1078.99 1003.10 899.04 856.80 817.85 778.83 747.09 764.20 770.25 802.33 788.64 757.27 1354.90 1365.47 1424.36 1438.85 1474.21 1483.37 1429.51 1396.41 1341.37 1335.89 1309.00 1309.94 1304.51 -94.75 -116.00 -133.16 -129.97 -118.84 -108.20 -100.47 -107.47 -89.21 -97.13 -121.70 -124.93 -150.36 -384.35 -399.91 -394.03 -395.96 -399.34 -397.59 -396.39 -383.21 -373.63 -370.37 -372.98 -364.15 -354.07 -372.82 -372.56 -378.61 -381.09 -383.52 -393.14 -392.08 -399.88 -410.17 -415.68 -420.16 -415.73 -416.33 -798.00 -797.60 -793.38 -796.40 -798.23 -798.11 -798.28 -792.95 -797.90 -794.91 -803.43 -797.47 -799.82 -824.69 -820.71 -827.29 -829.99 -831.31 -829.64 -831.50 -823.00 -826.82 -826.23 -830.98 -831.21 -826.68 -886.84 -888.30 -883.98 -887.91 -880.36 -890.84 -900.69 -898.28 -913.58 -950.14 -963.05 -966.86 -1190.82 -1459.58 -1609.80 -1745.84 -1868.99 -1889.54 -1962.32 -2060.19 -2089.75 -2254.13 -2348.76 -2452.38 -2497.63 -2554.40 -1969.92 -2006.43 -2014.20 -2029.52 -2032.84 -2033.18 -2043.61 -2050.33 -2057.01 -2055.28 -2072.45 -2082.36 -2096.07 -2100.49 -2115.06 -2124.77 -2146.74 -2156.54 -2152.57
1085.05 1082.43 1005.36 890.58 825.95 783.63 750.10 741.63 741.97 761.02 778.72 759.86 743.72 1336.15 1361.73 1395.67 1436.36 1459.69 1461.01 1426.85 1370.63 1357.77 1328.30 1319.90 1304.04 1290.80 -102.39 -122.60 -121.23 -114.82 -109.56 -94.48 -90.74 -93.83 -92.75 -98.46 -118.93 -147.89 -152.29 -378.26 -387.38 -386.54 -391.01 -395.46 -394.13 -384.81 -375.64 -361.11 -355.14 -358.70 -353.90 -363.77 -376.00 -375.59 -380.94 -381.67 -393.73 -397.51 -403.19 -409.27 -419.44 -418.72 -415.23 -412.19 -408.81 -786.95 -787.82 -793.39 -797.95 -795.52 -796.49 -794.53 -797.56 -798.32 -799.85 -792.13 -799.36 -800.04 -821.33 -829.95 -831.94 -824.75 -825.92 -827.87 -830.70 -830.78 -831.91 -827.27 -827.00 -825.10 -826.08 -881.79 -885.02 -881.64 -891.06 -880.24 -884.94 -884.58 -886.48 -893.52 -898.55 -947.15 -971.81 -1147.90 -1377.66 -1645.08 -1683.61 -1799.27 -1868.41 -1927.52 -1964.64 -2116.87 -2161.34 -2345.81 -2431.04 -2464.83 -2527.62 -1995.32 -2007.57 -2020.26 -2020.99 -2023.12 -2030.68 -2035.84 -2039.65 -2050.99 -2061.10 -2071.64 -2081.25 -2085.54 -2098.99 -2105.42 -2118.99 -2136.08 -2152.92 -2150.56
1072.90 1067.17 983.88 891.04 822.76 739.28 735.63 731.27 757.22 761.57 747.81 752.57 720.24 1335.87 1344.58 1417.05 1434.48 1460.84 1456.35 1432.85 1411.81 1366.50 1355.44 1334.07 1324.63 1300.33 -107.54 -104.92 -109.61 -103.77 -88.35 -80.21 -77.42 -73.81 -84.06 -95.57 -117.28 -119.24 -136.60 -366.68 -372.92 -375.28 -378.44 -387.48 -385.99 -382.86 -367.41 -356.70 -348.92 -343.74 -349.94 -356.29 -390.48 -388.79 -393.64 -382.12 -394.70 -401.27 -407.02 -413.12 -407.33 -415.00 -407.72 -410.07 -402.17 -784.01 -787.00 -794.98 -801.95 -808.63 -798.55 -795.28 -790.07 -791.70 -785.87 -791.60 -794.01 -802.04 -829.34 -825.25 -828.36 -830.02 -829.22 -826.75 -825.22 -827.65 -830.34 -823.80 -829.51 -831.85 -833.95 -887.59 -886.49 -881.09 -887.30 -887.16 -888.22 -885.56 -883.54 -889.04 -915.01 -937.28 -1001.22 -1036.27 -1181.14 -1440.89 -1721.18 -1743.46 -1834.55 -1850.07 -1908.61 -2075.85 -2148.74 -2338.75 -2410.42 -2452.10 -2483.65 -1948.02 -1981.79 -1993.10 -1995.59 -2016.25 -2014.93 -2032.28 -2029.96 -2036.78 -2054.17 -2071.43 -2083.65 -2082.57 -2098.21 -2112.85 -2119.72 -2138.11 -2148.81 -2149.09
1574.41 1572.96 1501.66 1383.66 1349.49 1303.39 1279.53 1254.66 1287.20 1276.70 1285.58 1270.51 1255.33 1922.35 1950.18 2013.25 2040.54 2070.49 2060.07 2034.22 2032.05 2000.28 1977.99 1967.35 1940.61 1923.20 806.81 794.27 791.32 783.34 801.59 826.35 819.28 816.75 810.34 794.82 776.21 786.78 768.35 -139.86 -151.99 -160.70 -163.68 -171.78 -179.35 -171.38 -156.85 -147.36 -125.13 -123.28 -131.10 -138.40 -296.02 -295.23 -308.78 -301.96 -312.30 -309.19 -320.93 -319.86 -310.66 -307.28 -308.79 -300.91 -318.53 -456.85 -463.99 -466.54 -473.05 -463.79 -471.48 -457.69 -453.23 -452.21 -448.51 -457.48 -463.01 -466.81 -541.66 -547.84 -551.62 -548.35 -556.85 -550.82 -551.74 -549.43 -550.78 -549.78 -550.81 -549.81 -549.82 -782.70 -773.90 -778.28 -774.49 -777.11 -779.71 -771.77 -779.11 -783.67 -777.78 -822.68 -902.23 -918.34 -1417.25 -1627.86 -1767.10 -1869.78 -2054.26 -2094.59 -2122.17 -2214.77 -2456.21 -2569.18 -2621.26 -2697.05 -2743.31 -1899.44 -1944.26 -1959.08 -1962.83 -1984.66 -2005.37 -2017.76 -2020.85 -2031.77 -2039.85 -2061.89 -2073.04 -2083.15 -2089.59 -2101.85 -2114.44 -2123.66 -2142.73 -2143.89
1538.55 1536.98 1447.25 1339.75 1317.21 1315.94 1278.50 1270.10 1245.32 1257.45 1243.49 1257.18 1256.99 1929.07 1944.55 1973.88 2014.06 2018.98 2049.87 2033.01 2029.35 2026.84 2015.25 1986.49 1963.38 1932.32 810.32 810.12 807.21 805.18 806.91 817.68 814.15 817.02 808.00 785.06 778.20 775.16 754.12 -141.42 -160.87 -165.22 -171.91 -170.99 -173.34 -168.26 -169.03 -153.11 -136.32 -136.23 -133.76 -135.48 -280.09 -293.97 -290.87 -294.64 -301.70 -304.79 -317.98 -305.00 -298.84 -297.21 -299.25 -310.14 -310.65 -465.09 -470.97 -462.72 -464.33 -457.02 -453.02 -461.67 -454.25 -453.30 -451.02 -455.79 -468.02 -466.94 -549.19 -547.83 -551.07 -553.13 -551.84 -554.62 -553.50 -552.43 -548.82 -543.89 -553.80 -544.91 -546.45 -776.37 -777.65 -782.14 -779.74 -772.50 -774.73 -778.57 -772.73 -781.21 -781.98 -782.99 -848.85 -907.95 -1306.55 -1564.73 -1624.24 -1768.80 -1827.13 -1954.44 -2098.33 -2204.61 -2360.05 -2501.59 -2591.91 -2653.62 -2695.27 -1851.20 -1900.69 -1907.74 -1950.07 -1932.80 -1957.63 -1963.50 -1995.28 -2000.01 -2013.25 -2048.46 -2064.09 -2069.84 -2092.30 -2095.03 -2105.75 -2126.95 -2134.40 -2127.78
1540.64 1537.32 1446.15 1315.43 1303.28 1288.37 1286.11 1265.49 1255.11 1246.41 1238.79 1231.31 1230.04 1904.06 1918.83 1929.65 1948.06 2005.85 2003.37 2017.97 2028.02 2029.51 2021.41 2003.41 1978.94 1941.32 809.85 810.80 812.89 824.53 826.08 820.64 808.77 806.17 789.30 769.61 752.87 754.87 754.32 -159.96 -174.39 -175.37 -175.58 -166.52 -154.40 -154.03 -161.93 -156.46 -137.82 -123.86 -131.11 -129.92 -276.62 -274.74 -283.81 -288.75 -288.96 -294.76 -308.41 -289.90 -288.75 -290.06 -295.10 -305.34 -311.00 -460.87 -460.16 -459.38 -453.19 -453.51 -449.13 -452.55 -453.58 -442.90 -446.79 -462.84 -461.73 -464.65 -547.25 -543.24 -545.12 -557.17 -547.21 -550.33 -546.16 -549.94 -557.09 -559.24 -554.88 -550.40 -550.99 -776.30 -774.51 -771.44 -782.72 -775.39 -782.15 -777.96 -775.00 -778.56 -779.12 -782.21 -781.79 -829.82 -1188.32 -1333.82 -1471.78 -1487.80 -1705.29 -1864.67 -2002.40 -2088.12 -2275.18 -2419.10 -2552.31 -2594.15 -2673.17 -1777.31 -1824.21 -1853.43 -1852.47 -1843.60 -1856.20 -1883.79 -1890.23 -1943.79 -1988.74 -2009.17 -2044.79 -2048.01 -2064.46 -2080.82 -2085.83 -2105.86 -2114.27 -2117.48
1622.23 1617.96 1486.84 1326.14 1302.85 1289.18 1286.31 1277.56 1259.38 1250.08 1246.46 1233.64 1239.66 1921.13 1910.30 1921.39 1910.17 1943.78 1957.86 2003.24 2009.83 2016.80 2012.09 2001.68 2008.43 1970.68 847.01 834.92 833.94 836.68 830.55 817.18 798.65 796.50 774.52 756.46 740.32 747.07 736.60 -159.34 -170.31 -179.28 -171.85 -164.75 -152.15 -146.96 -144.87 -134.79 -132.44 -127.85 -122.71 -128.19 -271.72 -276.14 -270.50 -278.71 -282.49 -282.64 -287.08 -281.65 -275.50 -277.21 -291.37 -297.84 -300.66 -459.90 -460.59 -444.09 -438.97 -449.60 -452.33 -439.92 -446.39 -448.26 -456.48 -456.00 -460.87 -455.58 -538.66 -539.95 -544.01 -547.96 -550.65 -546.41 -549.17 -546.85 -545.94 -551.55 -551.38 -551.39 -553.78 -779.61 -775.48 -776.89 -770.93 -774.23 -775.41 -778.98 -776.42 -778.31 -776.31 -783.91 -775.41 -792.77 -1146.38 -1150.47 -1338.03 -1413.45 -1524.22 -1697.69 -1790.16 -1935.67 -2228.01 -2322.53 -2420.90 -2484.92 -2599.38 -1726.67 -1763.00 -1764.93 -1770.12 -1821.36 -1834.71 -1869.42 -1875.04 -1896.49 -1931.33 -1955.31 -2012.63 -2040.09 -2051.83 -2064.97 -2085.45 -2099.86 -2097.45 -2102.27
1572.39 1568.16 1493.26 1333.46 1318.74 1310.74 1326.92 1286.85 1295.92 1267.91 1268.91 1253.53 1243.96 1936.50 1927.45 1907.51 1897.49 1923.73 1951.40 1930.36 1978.12 1991.45 2018.05 2012.06 2017.53 1994.66 852.93 839.64 838.75 827.75 808.87 802.28 795.22 777.73 766.62 752.29 735.45 738.91 722.26 -168.17 -166.16 -163.71 -174.32 -171.61 -159.92 -142.60 -131.75 -119.72 -117.75 -118.23 -105.55 -122.10 -264.62 -266.53 -262.65 -262.93 -272.18 -271.64 -280.33 -278.32 -273.19 -274.02 -275.99 -291.25 -302.89 -449.97 -451.58 -447.97 -438.30 -435.92 -439.68 -438.43 -440.68 -438.97 -448.37 -455.34 -449.93 -458.51 -536.71 -539.28 -539.30 -542.82 -544.27 -551.21 -543.32 -547.54 -552.06 -552.05 -552.76 -550.41 -553.05 -775.23 -776.72 -781.34 -784.46 -778.03 -780.34 -777.22 -774.66 -779.41 -769.78 -777.15 -784.30 -795.42 -1148.66 -1150.00 -1151.36 -1260.87 -1442.03 -1503.71 -1701.98 -1943.32 -2039.14 -2249.99 -2381.08 -2425.17 -2475.75 -1543.99 -1652.48 -1739.54 -1720.29 -1750.44 -1727.62 -1787.66 -1815.83 -1866.93 -1864.77 -1910.55 -1997.24 -2014.12 -2011.86 -2043.12 -2052.23 -2071.90 -2076.13 -2072.38
1660.01 1659.73 1618.95 1339.61 1342.50 1356.82 1368.49 1349.56 1301.67 1297.06 1298.78 1268.82 1272.80 1969.07 1953.21 1909.23 1893.59 1921.91 1932.71 1925.09 1927.49 1955.85 1984.00 2002.33 2009.16 2005.51 885.25 854.95 840.88 826.60 802.52 776.46 769.44 771.17 744.47 739.53 719.37 717.77 724.81 -163.73 -144.69 -156.97 -166.94 -171.46 -163.21 -144.26 -111.44 -108.72 -105.84 -106.41 -105.02 -105.71 -251.33 -257.67 -251.25 -261.45 -255.52 -270.75 -267.54 -273.19 -267.78 -268.51 -276.87 -282.98 -287.00 -441.80 -438.40 -442.96 -432.60 -439.23 -433.93 -438.79 -428.06 -437.69 -440.18 -442.54 -446.05 -451.88 -529.98 -531.69 -538.87 -543.34 -544.07 -544.08 -542.78 -548.22 -547.92 -547.89 -546.25 -545.52 -552.46 -771.13 -779.75 -772.73 -777.92 -782.89 -772.96 -775.72 -782.86 -776.44 -773.98 -783.02 -783.30 -784.89 -1146.13 -1138.66 -1152.90 -1152.53 -1257.70 -1487.53 -1642.70 -1951.21 -2089.08 -2145.38 -2312.96 -2373.69 -2393.22 -1505.75 -1535.06 -1605.96 -1627.03 -1636.75 -1659.76 -1708.67 -1715.32 -1773.51 -1820.99 -1824.81 -1925.67 -1976.07 -2004.81 -2023.32 -2015.70 -2037.83 -2044.34 -2044.00
1590.56 1592.83 1498.66 1378.49 1353.68 1387.66 1434.35 1424.48 1362.33 1326.46 1302.99 1299.89 1290.19 1965.12 1948.06 1912.15 1895.65 1900.26 1910.99 1905.06 1914.98 1955.93 1968.27 1982.66 1988.89 2009.12 898.27 871.80 844.79 829.75 809.38 783.27 765.17 755.61 745.86 728.60 717.52 729.27 733.54 -145.15 -145.18 -140.61 -156.63 -161.73 -156.02 -150.33 -107.88 -87.18 -97.37 -93.00 -99.72 -104.82 -255.43 -254.25 -251.84 -265.30 -264.58 -266.02 -270.73 -276.76 -270.06 -266.62 -273.68 -276.18 -277.14 -426.17 -433.96 -429.26 -440.31 -434.99 -438.99 -435.06 -442.44 -432.91 -446.43 -440.34 -449.81 -446.91 -516.97 -526.62 -543.38 -543.04 -539.52 -542.58 -535.48 -542.98 -542.01 -541.49 -551.50 -552.65 -552.83 -773.38 -779.05 -778.63 -777.54 -778.13 -779.67 -780.53 -777.36 -775.42 -779.07 -773.91 -779.67 -784.28 -1136.23 -1140.18 -1137.72 -1148.85 -1243.78 -1333.20 -1733.89 -1931.97 -2085.95 -2101.11 -2202.19 -2317.04 -2324.57 -1392.58 -1394.38 -1392.10 -1471.02 -1505.92 -1542.42 -1601.74 -1645.68 -1712.79 -1740.52 -1799.25 -1844.82 -1900.08 -1926.89 -1937.17 -1974.74 -2008.72 -1999.53 -1994.42
1593.62 1597.90 1483.12 1356.35 1397.55 1450.65 1481.01 1485.98 1409.85 1381.33 1329.98 1320.68 1314.72 1967.71 1968.11 1942.76 1906.46 1892.90 1887.46 1882.62 1893.18 1916.53 1940.52 1956.29 1985.85 1999.87 906.84 878.30 879.31 853.68 823.44 776.58 769.07 758.85 738.44 727.14 717.29 731.31 742.83 -129.27 -122.49 -133.81 -150.34 -159.55 -155.63 -132.84 -103.29 -86.00 -94.82 -93.91 -101.46 -102.76 -262.75 -268.62 -259.98 -272.11 -279.12 -282.19 -285.94 -274.39 -272.67 -275.92 -271.89 -277.05 -272.69 -429.12 -421.77 -432.48 -426.79 -436.52 -435.59 -435.90 -432.92 -439.36 -442.45 -455.10 -459.48 -451.57 -536.42 -529.80 -541.29 -537.64 -535.50 -536.66 -544.93 -541.07 -538.12 -544.01 -540.63 -547.02 -542.20 -770.12 -775.91 -779.58 -776.90 -775.99 -779.50 -776.53 -781.77 -779.27 -776.72 -776.01 -779.86 -781.86 -1128.78 -1137.10 -1133.43 -1132.90 -1144.21 -1285.42 -1466.52 -1820.87 -1932.99 -2032.82 -2173.65 -2244.12 -2238.13 -1332.41 -1322.03 -1369.47 -1391.06 -1426.65 -1489.11 -1496.83 -1517.23 -1604.47 -1695.51 -1723.73 -1753.26 -1769.36 -1825.10 -1891.88 -1900.81 -1950.85 -1954.31 -1952.02
1718.98 1708.77 1565.06 1401.23 1472.80 1526.21 1511.01 1517.17 1469.40 1392.15 1359.18 1350.12 1326.65 1983.52 1957.78 1955.05 1944.19 1928.62 1895.38 1895.01 1877.27 1895.05 1913.31 1947.39 1959.27 1990.49 884.44 886.42 859.89 845.22 841.99 806.18 775.61 762.52 745.15 730.56 719.35 723.07 738.89 -124.41 -113.67 -119.08 -135.48 -143.38 -143.48 -113.98 -99.54 -88.73 -94.16 -104.62 -108.39 -118.17 -260.81 -270.56 -279.51 -280.69 -288.79 -295.79 -288.52 -281.68 -279.50 -277.09 -282.57 -272.01 -279.53 -426.40 -428.91 -432.47 -425.02 -439.70 -446.88 -446.48 -453.02 -452.11 -452.12 -464.95 -470.01 -465.23 -534.86 -536.80 -542.15 -541.07 -539.89 -544.69 -535.31 -540.08 -544.93 -540.11 -540.52 -543.83 -551.31 -774.35 -779.22 -777.88 -772.17 -778.09 -776.55 -782.30 -774.82 -777.41 -778.82 -772.96 -775.99 -782.27 -1134.92 -1132.14 -1132.13 -1135.16 -1140.55 -1235.12 -1387.87 -1653.45 -1759.88 -1890.19 -2012.32 -2100.95 -2217.54 -1264.92 -1285.48 -1310.54 -1353.25 -1359.99 -1386.85 -1407.23 -1467.19 -1469.63 -1522.29 -1559.19 -1612.43 -1725.56 -1784.35 -1830.49 -1850.26 -1852.12 -1902.15 -1894.02
1688.29 1689.04 1563.47 1471.84 1462.49 1547.54 1549.55 1556.28 1495.56 1427.95 1374.99 1379.75 1350.29 1971.03 1950.98 1960.13 1950.79 1932.27 1921.37 1901.96 1876.15 1893.79 1885.30 1925.97 1938.78 1958.65 858.02 860.77 861.42 839.87 832.96 810.31 763.22 759.77 744.08 726.03 714.29 722.24 737.27 -129.20 -105.89 -113.04 -124.91 -127.93 -116.11 -107.01 -96.84 -85.59 -90.78 -102.10 -109.35 -127.85 -274.76 -290.66 -292.06 -290.13 -294.86 -307.46 -299.50 -289.01 -290.94 -286.89 -293.11 -301.09 -305.10 -449.54 -442.98 -436.03 -442.67 -454.64 -463.63 -466.49 -458.57 -452.41 -471.16 -468.11 -468.31 -468.00 -542.62 -547.15 -543.26 -544.68 -538.20 -541.21 -535.71 -537.82 -536.20 -544.78 -545.49 -548.08 -547.80 -777.46 -775.48 -779.30 -774.87 -779.52 -776.78 -776.26 -772.74 -782.47 -779.40 -773.02 -781.26 -779.39 -1128.15 -1130.17 -1132.86 -1136.38 -1147.33 -1153.32 -1303.58 -1486.58 -1555.22 -1712.80 -1941.65 -2081.23 -2173.95 -1227.60 -1205.68 -1244.89 -1246.63 -1269.58 -1275.11 -1318.75 -1328.31 -1372.69 -1447.48 -1468.95 -1576.04 -1606.45 -1683.12 -1790.51 -1794.89 -1845.77 -1827.60 -1830.27
1727.14 1719.76 1781.56 1478.86 1529.20 1565.66 1617.37 1605.03 1557.38 1441.80 1378.16 1357.91 1333.26 1967.32 1942.16 1933.22 1942.41 1949.58 1937.83 1917.41 1909.69 1884.27 1884.52 1893.72 1930.07 1936.45 836.65 858.23 829.96 824.13 806.14 807.88 754.75 725.41 728.51 713.66 725.38 723.42 747.71 -132.90 -111.45 -100.82 -108.26 -110.25 -105.17 -98.03 -85.13 -85.93 -88.96 -114.31 -127.33 -140.97 -281.96 -293.76 -285.33 -279.46 -282.71 -299.07 -310.43 -299.24 -292.39 -299.52 -307.71 -311.56 -317.75 -458.57 -457.31 -452.25 -455.14 -462.38 -462.28 -465.32 -472.28 -467.23 -464.55 -469.82 -470.72 -475.84 -544.63 -552.54 -546.26 -547.53 -542.70 -543.13 -544.72 -538.64 -551.53 -547.83 -547.00 -546.60 -552.55 -773.73 -779.44 -775.50 -771.14 -774.74 -770.70 -778.50 -776.71 -776.31 -773.26 -776.49 -774.19 -779.74 -1131.87 -1131.16 -1124.55 -1132.62 -1140.34 -1145.52 -1180.12 -1387.54 -1503.13 -1749.45 -1947.86 -2110.62 -2132.65 -1154.13 -1155.09 -1169.24 -1178.84 -1160.97 -1164.40 -1225.49 -1204.33 -1251.03 -1319.37 -1366.62 -1488.56 -1522.34 -1570.95 -1635.51 -1703.13 -1742.08 -1763.00 -1761.91
1975.66 1974.56 1769.15 1618.66 1574.15 1626.61 1659.01 1647.47 1592.73 1493.03 1397.01 1378.34 1304.83 1951.05 1933.35 1921.54 1921.72 1929.39 1935.19 1928.49 1901.90 1879.65 1871.66 1880.56 1895.03 1922.75 828.12 831.40 798.56 798.30 781.77 747.04 737.02 716.88 723.71 720.76 732.01 739.28 755.24 -124.94 -112.52 -95.10 -99.68 -85.45 -79.89 -80.30 -84.24 -86.52 -99.60 -109.36 -124.07 -131.91 -283.82 -281.70 -270.05 -277.72 -290.97 -295.03 -305.83 -305.45 -306.16 -306.09 -305.45 -307.47 -326.18 -468.81 -461.34 -446.84 -455.69 -457.83 -468.61 -464.23 -469.04 -466.29 -472.32 -474.15 -468.99 -476.52 -547.54 -555.99 -556.97 -552.01 -550.94 -552.89 -554.29 -549.65 -546.44 -551.76 -552.91 -558.68 -552.61 -779.79 -775.36 -776.30 -770.07 -775.78 -773.36 -773.58 -779.98 -781.48 -777.61 -776.17 -773.54 -779.62 -1130.75 -1125.02 -1130.50 -1131.40 -1134.98 -1145.64 -1258.45 -1355.99 -1589.13 -1789.69 -1979.90 -2095.30 -2088.30 -1141.29 -1110.12 -1085.80 -1086.31 -1116.98 -1073.50 -1104.88 -1168.43 -1169.23 -1181.31 -1289.42 -1341.35 -1401.40 -1493.01 -1521.85 -1604.68 -1692.21 -1682.47 -1675.96
1437.97 1437.22 1337.01 1105.56 1061.42 1091.61 1114.86 1102.47 1036.74 916.18 846.83 768.81 699.77 37.59 16.90 -6.81 -3.25 -1.91 -7.24 -16.29 -15.40 -31.52 -42.12 -41.46 -23.85 -4.57 531.74 529.94 517.79 493.55 477.44 462.43 455.75 458.17 453.99 457.48 478.63 491.01 503.46 514.62 546.00 565.94 558.42 561.72 572.18 565.15 560.74 556.14 545.59 531.62 514.37 504.53 -159.36 -150.61 -145.66 -159.71 -166.69 -183.51 -181.88 -178.48 -188.00 -184.69 -178.81 -189.06 -200.95 -228.57 -226.01 -227.77 -218.77 -222.70 -218.32 -230.47 -232.68 -226.51 -226.07 -219.80 -221.02 -229.85 -571.34 -564.14 -566.03 -570.31 -570.97 -563.18 -569.38 -569.80 -570.22 -566.92 -570.32 -570.32 -569.12 -962.06 -960.42 -960.96 -953.86 -950.43 -952.77 -953.73 -956.89 -956.88 -957.11 -952.03 -953.73 -953.31 -1160.37 -1163.14 -1161.77 -1164.05 -1166.22 -1182.05 -1317.58 -1460.96 -1698.07 -1843.80 -2005.87 -2081.34 -2092.94 -1099.31 -1056.35 -1049.39 -1034.33 -1025.25 -1039.50 -1044.99 -1040.28 -1027.50 -1028.01 -1114.37 -1199.45 -1248.39 -1341.99 -1463.04 -1466.46 -1599.49 -1598.46 -1597.79
1612.61 1610.23 1410.64 1146.92 1145.15 1181.82 1148.63 1086.79 990.36 952.87 834.49 756.80 697.23 28.99 20.61 5.50 -8.31 -16.74 -26.68 -29.88 -32.97 -52.37 -58.87 -47.20 -29.88 -25.46 523.74 517.08 503.25 485.88 473.56 452.38 458.61 465.29 470.11 477.68 487.27 505.94 526.58 561.46 553.87 570.36 567.70 571.66 573.81 571.31 555.62 555.95 550.46 534.13 511.19 514.75 -155.95 -142.29 -140.35 -151.33 -163.82 -162.76 -175.09 -167.57 -185.29 -184.05 -171.96 -177.66 -193.21 -224.82 -227.69 -230.06 -233.57 -228.67 -223.08 -229.71 -226.06 -224.42 -219.12 -219.42 -216.54 -231.17 -556.79 -565.20 -563.41 -568.90 -569.13 -565.79 -561.79 -561.19 -567.49 -555.54 -568.49 -571.11 -571.01 -952.53 -957.02 -956.31 -953.51 -948.39 -954.80 -956.20 -954.48 -959.21 -957.27 -956.56 -955.81 -955.43 -1161.30 -1164.60 -1161.20 -1164.19 -1173.20 -1176.19 -1298.66 -1538.93 -1769.92 -1808.22 -1959.28 -1997.59 -2060.34 -1055.65 -1040.97 -1029.10 -1035.11 -995.13 -974.89 -966.90 -970.86 -999.44 -1008.17 -1001.81 -1044.58 -1162.75 -1278.26 -1343.31 -1406.22 -1432.87 -1513.71 -1510.94
1597.06 1601.52 1385.35 1274.39 1220.63 1212.48 1161.91 1070.86 1017.40 880.37 815.33 728.34 728.86 41.82 16.13 14.46 -4.48 -8.16 -32.27 -39.21 -46.62 -42.92 -50.52 -60.07 -57.69 -48.32 503.06 495.26 492.05 469.70 466.00 463.41 471.87 479.52 472.28 514.40 512.53 538.62 553.25 577.16 576.95 586.68 572.92 571.17 573.82 569.29 553.91 544.53 538.07 533.26 524.49 507.87 -147.15 -147.23 -141.02 -150.77 -158.02 -153.81 -146.87 -161.04 -170.90 -175.27 -169.25 -171.59 -186.86 -221.17 -212.40 -219.21 -225.68 -227.92 -238.88 -230.07 -222.23 -217.11 -211.67 -216.05 -210.02 -208.96 -553.83 -554.19 -555.39 -564.84 -559.71 -560.62 -566.99 -567.53 -564.24 -564.38 -563.97 -565.47 -570.07 -954.02 -954.96 -952.58 -958.42 -944.59 -952.57 -948.14 -954.94 -958.36 -949.13 -963.75 -955.84 -961.18 -1159.46 -1168.16 -1162.28 -1166.37 -1171.23 -1185.99 -1186.91 -1501.83 -1729.77 -1785.09 -1894.93 -2022.50 -2035.51 -1047.17 -1021.60 -994.44 -985.87 -980.17 -930.66 -937.01 -894.71 -912.61 -917.78 -940.86 -1006.42 -1032.99 -1124.99 -1326.56 -1327.59 -1425.80 -1435.25 -1433.08
1502.34 1501.86 1513.94 1174.72 1199.91 1141.97 1031.33 1008.69 971.72 941.38 820.66 813.16 752.85 105.47 67.12 39.67 25.73 -2.06 -15.75 -29.35 -27.03 -45.26 -53.33 -53.79 -60.84 -53.25 483.10 480.13 474.36 465.54 459.29 462.00 485.60 507.61 523.09 542.79 526.01 554.27 579.18 610.34 592.89 574.89 573.50 567.50 562.94 554.87 532.08 532.15 532.42 534.00 529.11 519.82 -148.87 -133.73 -137.06 -135.04 -145.47 -150.28 -142.30 -151.58 -159.32 -168.52 -166.01 -161.62 -167.32 -196.40 -206.84 -213.98 -217.27 -228.24 -234.99 -227.97 -223.67 -212.10 -214.37 -207.64 -196.97 -205.20 -544.47 -547.33 -555.97 -555.31 -558.04 -564.73 -556.40 -565.46 -564.71 -565.61 -561.46 -567.25 -567.31 -956.39 -950.45 -957.35 -949.81 -952.81 -954.53 -953.88 -964.69 -953.05 -957.58 -954.75 -951.02 -958.20 -1167.05 -1162.86 -1161.47 -1169.42 -1175.95 -1183.62 -1204.29 -1566.64 -1794.93 -1813.68 -1877.39 -2003.53 -2016.84 -1013.45 -999.58 -979.53 -935.19 -897.51 -871.94 -879.32 -853.73 -843.87 -850.05 -850.79 -923.81 -955.01 -1024.01 -1137.38 -1236.07 -1311.03 -1363.75 -1359.86
1444.30 1446.86 1310.29 1148.97 1085.09 1049.62 932.80 970.26 1025.30 1029.42 963.12 846.22 830.56 132.42 110.91 78.18 65.80 24.79 7.22 -7.98 -28.95 -26.71 -27.72 -57.61 -61.94 -62.10 465.84 471.36 460.97 462.83 464.82 475.40 492.05 520.27 524.45 562.34 559.87 573.14 584.36 607.49 583.13 572.30 566.42 565.71 555.95 537.59 533.27 532.78 528.88 535.42 536.51 533.44 -141.19 -133.47 -119.87 -129.28 -134.74 -138.65 -130.20 -141.72 -154.34 -159.09 -169.79 -163.72 -166.29 -195.20 -193.33 -203.92 -212.44 -225.01 -230.74 -228.15 -216.32 -218.62 -201.14 -203.05 -201.37 -206.80 -541.87 -543.08 -547.63 -553.49 -562.09 -559.40 -563.53 -573.18 -566.37 -570.12 -564.21 -563.80 -567.22 -954.19 -961.54 -952.54 -951.21 -958.24 -959.37 -957.11 -959.84 -957.02 -958.50 -956.95 -958.40 -955.77 -1161.77 -1171.79 -1166.45 -1173.24 -1182.92 -1191.34 -1218.49 -1453.75 -1702.40 -1812.88 -1926.24 -1981.07 -1991.21 -1001.91 -999.30 -934.70 -907.04 -887.18 -862.20 -815.85 -804.02 -808.09 -809.85 -834.83 -871.45 -886.10 -917.50 -1031.32 -1150.82 -1267.13 -1296.26 -1301.11
1432.94 1439.61 1257.82 1087.55 966.45 904.18 926.59 946.63 1027.80 1027.91 964.04 888.96 850.84 145.30 105.09 84.32 86.49 69.12 51.49 12.22 -2.23 -2.08 -10.21 -29.73 -52.23 -61.90 474.28 465.81 471.70 461.97 466.11 476.57 499.65 511.19 550.16 569.67 594.57 598.92 596.94 600.99 575.49 568.86 567.99 551.36 544.10 537.82 535.88 535.05 536.27 547.25 547.79 541.82 -146.48 -132.40 -124.73 -124.18 -128.55 -133.73 -140.28 -144.33 -148.33 -161.57 -166.91 -168.46 -172.80 -197.44 -196.40 -209.43 -221.29 -229.30 -232.51 -214.92 -199.87 -203.60 -197.12 -195.95 -198.73 -203.25 -538.68 -542.70 -539.85 -556.59 -558.90 -572.06 -568.23 -567.71 -569.46 -566.87 -569.22 -569.74 -564.64 -955.67 -959.86 -954.16 -952.34 -953.30 -959.31 -949.55 -958.18 -955.43 -956.06 -958.64 -955.16 -962.16 -1162.52 -1173.15 -1174.63 -1179.21 -1178.07 -1212.14 -1241.46 -1371.35 -1613.32 -1854.73 -1935.09 -1948.34 -1981.91 -975.12 -956.66 -910.44 -886.52 -868.25 -819.74 -779.11 -754.45 -747.60 -763.35 -767.84 -812.90 -835.94 -902.71 -989.08 -1053.06 -1253.54 -1249.60 -1248.12
1249.81 1254.37 1292.79 971.27 953.49 894.02 860.10 911.33 992.47 996.55 940.42 928.35 908.79 196.01 166.73 117.03 130.10 111.98 73.89 49.48 35.39 32.85 -3.00 -26.74 -41.22 -34.72 482.37 472.14 477.86 478.78 480.73 490.35 514.50 516.48 549.99 584.60 606.23 598.55 594.50 595.56 573.71 561.08 558.47 551.69 542.90 540.33 548.33 549.11 560.39 559.90 552.28 545.41 -134.43 -133.23 -121.05 -118.56 -133.35 -138.19 -136.08 -151.38 -161.64 -163.91 -184.36 -186.20 -185.04 -211.43 -214.23 -210.85 -219.20 -217.72 -218.34 -215.69 -202.46 -197.16 -199.33 -190.89 -196.28 -200.66 -532.15 -547.82 -548.46 -557.51 -554.60 -563.35 -567.63 -570.99 -568.38 -569.72 -564.74 -571.42 -568.31 -949.98 -958.83 -958.54 -960.79 -955.23 -963.40 -958.30 -961.54 -957.82 -954.46 -949.45 -958.32 -963.31 -1156.51 -1163.74 -1169.84 -1182.72 -1177.46 -1211.72 -1240.89 -1407.91 -1519.31 -1743.81 -1890.04 -1919.62 -1942.97 -962.12 -941.12 -898.24 -863.04 -848.35 -814.51 -763.63 -740.95 -735.14 -731.00 -719.45 -751.66 -795.59 -866.76 -961.91 -1047.25 -1144.70 -1203.67 -1203.55
1197.54 1200.68 1061.03 976.27 914.83 861.14 836.62 895.93 932.85 919.91 912.31 921.63 933.06 228.06 185.05 133.80 139.98 133.60 73.08 47.35 35.82 1.05 -11.37 -41.28 -28.23 -22.96 499.39 503.73 497.77 493.10 496.81 499.91 519.06 525.57 558.60 591.15 598.81 601.24 585.71 580.94 565.51 558.57 551.88 542.73 541.61 550.21 563.46 571.63 573.62 570.94 565.92 550.38 -130.43 -118.27 -122.18 -123.81 -136.00 -144.89 -152.18 -162.36 -166.13 -180.37 -180.91 -181.95 -186.65 -205.20 -212.66 -214.54 -205.42 -210.07 -210.31 -200.32 -206.64 -198.06 -189.82 -195.10 -204.41 -205.51 -546.72 -551.43 -556.65 -555.64 -566.78 -568.10 -566.51 -564.97 -566.36 -565.44 -563.44 -568.58 -568.17 -956.88 -955.85 -959.22 -954.94 -958.03 -951.95 -955.63 -954.32 -955.30 -956.65 -952.45 -964.44 -963.57 -1166.75 -1165.30 -1157.90 -1175.00 -1175.85 -1201.90 -1298.26 -1343.55 -1524.99 -1706.30 -1878.01 -1901.89 -1932.53 -955.48 -910.41 -875.68 -831.65 -814.19 -757.10 -710.35 -712.49 -688.20 -691.83 -716.71 -753.37 -788.57 -809.50 -933.92 -986.02 -1119.62 -1164.41 -1160.72
1187.71 1185.31 1065.84 937.54 869.15 815.25 834.47 876.61 903.75 891.57 865.49 890.14 907.37 264.35 229.63 176.18 147.33 123.94 57.22 7.60 5.70 -16.21 -22.09 -26.26 -7.25 8.36 516.90 503.84 510.09 518.39 511.17 512.80 525.64 541.10 559.31 584.83 602.10 594.93 574.85 573.65 564.40 560.93 551.47 545.17 552.25 560.50 569.36 580.02 597.00 580.58 574.34 562.13 -115.29 -116.11 -126.46 -130.63 -140.11 -144.34 -152.95 -169.55 -173.61 -171.30 -166.03 -169.30 -171.16 -203.82 -210.74 -211.85 -197.92 -205.61 -196.70 -206.94 -201.52 -199.38 -198.15 -201.02 -205.65 -211.52 -552.53 -554.75 -561.94 -558.07 -567.95 -571.87 -571.32 -561.93 -561.84 -560.39 -554.75 -557.39 -565.54 -956.42 -963.16 -951.70 -956.27 -957.54 -947.19 -952.55 -953.43 -952.80 -958.64 -960.49 -959.77 -958.01 -1160.44 -1162.44 -1166.67 -1174.58 -1177.49 -1187.30 -1277.42 -1427.94 -1548.69 -1635.16 -1836.19 -1864.98 -1900.96 -912.32 -875.35 -832.62 -804.32 -790.37 -721.70 -709.42 -672.43 -674.67 -673.91 -676.40 -721.25 -744.21 -786.89 -876.42 -909.30 -1122.00 -1118.32 -1121.09
1239.89 1244.70 1114.18 953.41 879.55 810.22 803.00 818.41 844.97 838.19 838.73 851.59 896.21 250.57 223.95 166.29 160.02 130.00 61.41 -8.13 -4.20 -9.14 -3.12 -10.88 0.93 -3.39 530.82 517.33 531.50 543.34 547.80 542.27 529.89 551.94 574.42 596.70 604.67 595.12 581.03 579.65 566.38 554.70 555.42 559.36 569.52 569.31 582.84 603.16 599.31 592.19 575.15 572.48 -106.66 -113.24 -121.29 -134.64 -140.20 -162.13 -163.24 -160.88 -166.98 -158.85 -159.50 -151.31 -166.22 -196.52 -194.72 -194.97 -184.17 -197.28 -201.40 -202.64 -206.28 -197.08 -204.70 -195.25 -208.25 -217.48 -559.62 -559.29 -557.32 -569.31 -570.51 -566.90 -568.21 -565.74 -555.88 -549.43 -546.37 -561.10 -566.78 -958.69 -957.52 -956.46 -947.62 -941.74 -944.06 -952.07 -953.35 -949.83 -957.23 -954.42 -958.71 -961.31 -1159.53 -1160.54 -1166.82 -1163.88 -1178.94 -1188.98 -1251.44 -1402.53 -1471.94 -1605.56 -1732.49 -1761.23 -1824.81 -882.60 -858.58 -795.26 -773.61 -727.10 -681.48 -628.25 -637.52 -644.01 -637.09 -641.16 -678.76 -699.20 -756.64 -796.69 -886.50 -972.35 -1065.86 -1067.29
1201.80 1204.76 1088.40 955.01 920.03 828.79 773.07 775.52 756.19 779.63 819.31 858.69 898.13 254.90 221.60 164.75 130.61 75.48 38.57 14.43 18.30 5.02 28.70 18.33 35.92 11.49 539.37 523.80 537.65 560.51 574.56 573.34 558.85 570.11 594.64 613.59 604.48 588.07 583.60 571.11 571.14 567.31 569.17 569.52 575.37 587.46 594.49 617.03 616.49 610.54 596.65 579.76 -110.44 -114.02 -119.46 -132.61 -126.39 -136.21 -152.73 -159.93 -153.85 -157.79 -144.06 -154.19 -154.09 -182.59 -184.93 -188.89 -192.78 -192.79 -203.86 -216.65 -212.14 -219.99 -209.22 -209.64 -211.03 -213.35 -559.31 -565.54 -562.88 -562.25 -568.95 -567.69 -572.54 -565.27 -549.26 -540.25 -547.06 -554.79 -566.07 -947.51 -949.78 -945.57 -943.70 -944.22 -940.95 -949.26 -949.14 -956.15 -956.72 -957.04 -957.88 -953.69 -1158.95 -1163.60 -1159.92 -1163.43 -1172.56 -1187.77 -1195.87 -1281.10 -1343.21 -1533.83 -1582.53 -1658.85 -1753.89 -773.83 -773.37 -780.69 -723.92 -697.73 -644.40 -625.88 -590.32 -607.69 -610.68 -631.29 -656.60 -698.73 -708.54 -744.45 -836.27 -966.67 -1000.64 -1003.83
1160.37 1160.05 1073.72 951.16 928.45 848.06 779.77 763.55 752.13 778.70 814.15 879.34 896.29 259.53 252.24 185.76 122.71 69.53 74.15 44.09 44.40 32.01 46.36 49.65 43.14 36.59 555.68 541.58 550.96 554.78 582.88 583.70 582.12 598.52 625.17 627.95 616.15 596.51 588.79 587.96 584.92 577.81 575.86 591.80 599.68 593.19 606.40 624.98 638.08 612.63 599.09 573.42 -106.94 -118.45 -114.42 -131.99 -124.03 -134.35 -150.24 -154.93 -152.92 -146.29 -146.00 -149.43 -149.70 -183.19 -181.75 -187.91 -197.00 -193.96 -211.96 -217.77 -222.39 -215.30 -215.87 -216.52 -212.95 -217.09 -553.56 -566.42 -564.50 -568.15 -557.59 -556.91 -562.75 -556.38 -552.06 -543.29 -545.92 -547.44 -556.13 -947.49 -943.23 -943.12 -944.96 -945.05 -945.04 -947.32 -952.35 -944.67 -960.19 -959.54 -951.42 -955.69 -1158.55 -1157.15 -1161.71 -1163.69 -1172.26 -1176.46 -1185.53 -1189.58 -1197.91 -1287.01 -1344.21 -1388.74 -1547.89 -706.06 -734.30 -718.94 -686.53 -630.45 -604.09 -585.36 -579.72 -557.51 -571.89 -589.66 -587.56 -626.82 -655.98 -711.74 -729.86 -933.78 -930.49 -926.28
2542.49 2538.03 2448.09 2312.57 2258.26 2246.15 2197.44 2153.71 2135.46 2171.51 2195.02 2266.10 2319.90 2350.07 2336.18 2299.24 2229.36 2178.60 2150.02 2136.17 2124.23 2125.25 2129.68 2156.82 2149.17 2131.55 510.17 482.87 483.34 502.51 519.90 538.56 539.50 566.31 577.64 573.88 552.42 546.06 524.66 464.95 452.67 438.93 438.31 458.10 475.47 477.14 484.78 492.23 495.06 476.74 435.29 417.25 72.84 63.21 50.73 59.41 56.19 50.55 34.03 19.26 14.40 30.75 36.98 35.74 28.19 -84.04 -85.57 -90.44 -87.55 -100.54 -113.01 -118.61 -122.55 -123.40 -120.45 -118.16 -126.59 -130.98 -225.19 -230.36 -215.65 -216.27 -217.60 -216.54 -211.74 -212.14 -200.66 -202.99 -204.50 -202.48 -207.65 -220.43 -222.41 -226.76 -228.99 -226.05 -230.27 -232.81 -239.10 -243.58 -243.59 -239.11 -242.58 -245.29 -250.48 -252.12 -252.32 -256.18 -259.10 -250.03 -266.49 -265.67 -274.64 -282.60 -293.48 -389.52 -456.77 -578.85 -667.37 -673.72 -617.97 -589.27 -550.99 -519.03 -517.42 -512.22 -514.80 -539.48 -523.90 -563.59 -582.28 -648.35 -712.27 -792.45 -848.88 -850.91
2461.51 2462.42 2460.04 2302.00 2229.80 2209.60 2169.89 2151.65 2132.93 2162.41 2207.80 2266.49 2282.91 2349.54 2326.75 2304.78 2270.64 2229.76 2215.92 2173.59 2162.43 2165.42 2158.78 2172.88 2186.91 2167.96 530.66 494.97 492.30 508.32 533.75 570.01 577.79 589.86 601.45 578.35 554.10 538.63 544.15 474.71 465.40 450.39 455.76 480.74 491.06 484.63 495.09 495.11 488.01 447.05 416.57 407.59 59.55 51.02 39.18 40.90 46.58 43.65 34.98 12.55 9.86 9.40 15.39 26.51 19.06 -99.10 -98.65 -91.08 -95.04 -96.93 -111.47 -121.86 -120.36 -124.20 -129.92 -124.54 -130.61 -130.11 -220.19 -215.46 -213.44 -208.72 -208.07 -208.53 -202.23 -202.49 -203.25 -201.45 -194.33 -206.66 -209.93 -225.55 -222.90 -228.62 -231.76 -229.35 -233.11 -242.16 -233.38 -235.28 -240.40 -233.63 -245.05 -238.98 -249.01 -247.29 -246.38 -246.99 -254.89 -258.94 -251.91 -255.72 -255.87 -264.89 -294.85 -311.44 -416.06 -377.71 -635.39 -597.06 -590.27 -519.27 -494.67 -484.46 -469.35 -461.52 -480.65 -478.75 -503.13 -500.29 -553.68 -610.41 -645.76 -757.25 -778.85 -772.38
2368.83 2365.61 2384.30 2224.66 2195.06 2190.57 2160.14 2119.46 2126.71 2155.04 2200.53 2240.82 2278.81 2301.37 2311.50 2305.35 2291.50 2271.71 2243.14 2213.99 2225.86 2238.33 2217.82 2213.57 2185.70 2179.99 551.28 529.82 504.06 522.60 573.91 611.12 617.79 612.89 591.75 555.54 538.67 531.56 552.20 496.04 478.14 480.40 478.94 482.60 482.77 474.22 479.17 472.04 462.62 438.50 407.36 405.01 41.23 40.96 30.77 37.34 47.08 46.37 27.57 12.09 3.04 5.37 16.36 13.08 2.17 -116.99 -113.78 -110.15 -99.69 -104.95 -114.12 -122.02 -120.48 -115.52 -121.80 -122.78 -124.64 -120.84 -225.21 -219.78 -201.55 -203.64 -199.23 -197.74 -194.31 -197.34 -191.58 -197.18 -194.68 -200.64 -203.45 -220.77 -225.20 -224.72 -232.16 -231.84 -238.51 -238.09 -237.61 -237.05 -244.33 -238.69 -235.63 -245.55 -252.80 -251.17 -254.38 -251.08 -253.00 -256.26 -254.59 -251.77 -255.82 -255.07 -276.90 -293.95 -312.14 -316.18 -421.40 -508.64 -514.31 -500.27 -481.23 -445.67 -454.99 -441.64 -433.37 -438.75 -460.71 -473.29 -492.88 -521.73 -577.57 -630.04 -701.44 -703.47
2334.04 2339.41 2269.69 2186.54 2173.09 2170.87 2145.20 2126.60 2121.02 2136.97 2188.53 2221.38 2244.59 2287.43 2301.74 2312.72 2297.17 2283.36 2311.13 2314.55 2316.83 2273.40 2273.96 2242.04 2216.11 2213.43 593.25 565.30 580.23 595.43 650.50 645.87 639.98 609.88 577.21 529.43 519.72 530.75 542.29 486.02 473.20 470.61 471.87 465.14 474.35 466.78 456.87 435.19 430.19 415.51 405.97 390.67 45.42 33.70 24.74 34.74 25.39 21.46 19.76 8.14 4.97 3.96 -1.42 -0.05 -9.87 -117.83 -122.40 -118.44 -116.13 -110.86 -116.37 -120.14 -116.81 -114.01 -113.93 -110.83 -118.24 -122.67 -219.86 -209.60 -201.67 -196.95 -189.46 -185.78 -194.02 -192.53 -194.81 -192.61 -194.74 -198.18 -203.22 -217.07 -229.40 -229.25 -233.78 -240.49 -234.18 -235.27 -238.43 -240.61 -245.38 -238.34 -237.71 -246.18 -247.51 -255.95 -255.40 -252.23 -257.20 -252.93 -255.32 -252.55 -252.53 -248.79 -249.61 -277.21 -307.51 -312.29 -371.21 -501.45 -480.78 -453.12 -432.22 -425.79 -420.15 -416.54 -423.47 -421.45 -445.65 -463.22 -468.37 -510.92 -556.51 -630.29 -636.52 -634.25
2333.36 2338.55 2270.48 2179.40 2158.48 2143.92 2132.35 2121.21 2107.89 2130.06 2164.23 2222.53 2236.16 2268.59 2259.65 2268.40 2296.70 2322.86 2344.68 2363.73 2336.21 2277.82 2274.55 2256.36 2244.78 2246.68 634.54 616.85 612.96 674.12 666.14 662.63 617.95 603.50 552.51 508.46 498.94 506.53 534.34 471.51 458.85 454.54 438.71 454.79 457.42 461.28 440.35 420.54 403.69 402.15 397.48 388.75 38.74 35.21 27.54 15.49 7.51 8.17 0.35 4.96 1.48 4.51 5.58 -5.55 -12.33 -115.04 -128.00 -121.76 -118.34 -119.63 -121.13 -115.07 -114.75 -99.28 -97.98 -102.57 -109.78 -104.79 -207.30 -202.71 -196.96 -192.07 -193.56 -189.22 -186.05 -187.02 -191.55 -197.67 -204.12 -207.19 -206.07 -223.94 -224.94 -234.43 -233.63 -233.99 -234.16 -230.35 -234.70 -235.03 -243.30 -248.08 -243.88 -241.38 -247.89 -253.08 -248.45 -253.35 -254.04 -249.33 -254.94 -256.08 -255.38 -250.23 -252.72 -267.51 -294.15 -231.70 -362.24 -405.74 -453.32 -419.86 -409.05 -385.19 -393.05 -391.68 -404.77 -420.06 -424.21 -440.38 -456.01 -499.35 -524.03 -573.81 -592.77 -589.46
2324.04 2320.13 2248.26 2146.54 2147.43 2114.82 2108.06 2107.19 2115.11 2142.76 2153.87 2196.56 2207.67 2227.33 2234.45 2231.27 2300.65 2339.83 2349.95 2361.55 2325.92 2297.23 2278.10 2237.89 2229.33 2251.67 640.07 644.91 665.55 685.02 700.67 650.16 579.57 565.43 523.15 489.25 484.32 485.96 482.41 435.91 421.35 426.09 411.68 428.00 435.95 430.93 418.23 393.14 387.29 380.83 381.88 376.86 41.58 32.56 25.41 15.12 15.28 5.61 -2.36 6.37 13.94 1.02 -2.14 -12.20 -1.26 -103.98 -109.02 -117.74 -109.41 -103.25 -104.50 -109.62 -101.12 -93.00 -93.94 -90.14 -102.64 -92.76 -192.23 -197.38 -193.70 -190.48 -192.78 -191.35 -192.07 -198.73 -198.89 -200.85 -204.68 -211.96 -211.21 -235.43 -232.04 -232.19 -232.86 -228.87 -233.42 -236.85 -231.35 -239.82 -239.90 -241.05 -244.00 -242.95 -250.97 -244.82 -249.21 -246.92 -254.68 -251.25 -252.72 -247.33 -250.96 -254.46 -248.74 -263.19 -276.46 -232.87 -278.66 -330.76 -417.97 -381.07 -376.51 -365.18 -362.23 -366.59 -373.66 -403.27 -411.21 -432.26 -453.75 -479.56 -498.10 -533.50 -557.26 -556.26
2324.78 2329.38 2261.15 2143.57 2111.92 2110.99 2106.33 2093.66 2104.14 2130.97 2141.02 2155.05 2149.38 2195.43 2197.46 2231.19 2255.60 2322.19 2332.89 2315.66 2294.04 2273.73 2238.55 2220.29 2201.51 2217.09 635.46 639.54 657.33 689.75 702.85 685.08 633.55 547.05 523.85 488.36 478.89 468.96 481.46 423.38 421.86 410.60 412.34 410.96 423.11 405.62 394.94 392.82 378.79 372.25 370.93 373.96 38.47 26.15 15.40 23.28 19.78 16.17 9.10 17.27 16.21 9.83 5.80 0.74 2.98 -91.55 -106.48 -110.37 -96.08 -91.20 -94.16 -88.55 -82.80 -85.26 -86.25 -85.24 -84.90 -92.76 -186.84 -188.71 -195.61 -189.73 -194.46 -190.25 -193.88 -198.75 -202.35 -202.81 -210.39 -214.40 -222.81 -232.08 -234.27 -236.58 -228.85 -229.91 -237.11 -230.87 -235.15 -240.68 -239.13 -240.85 -246.75 -239.38 -250.60 -244.57 -252.22 -252.72 -252.09 -255.38 -253.49 -254.35 -258.75 -245.70 -255.63 -256.80 -274.49 -221.07 -276.57 -319.75 -362.28 -353.38 -329.21 -331.70 -343.76 -352.47 -375.00 -384.01 -406.72 -426.58 -457.09 -480.37 -508.47 -564.75 -546.02 -545.82
2384.89 2380.72 2267.76 2144.11 2133.97 2120.62 2123.21 2122.26 2109.99 2092.00 2104.70 2115.44 2124.41 2151.20 2181.02 2208.13 2241.94 2258.28 2244.15 2231.49 2220.20 2219.13 2191.55 2175.97 2164.58 2199.70 606.86 627.77 646.19 666.72 706.70 675.71 607.16 550.18 527.16 492.50 482.30 471.54 470.29 408.19 399.67 389.71 392.89 398.83 400.38 396.46 382.97 372.76 378.02 369.67 371.01 373.29 24.61 18.99 22.19 34.01 41.93 38.29 27.53 16.47 33.19 21.17 14.06 24.98 21.31 -97.66 -103.07 -101.16 -94.46 -89.85 -72.69 -83.81 -83.36 -88.33 -81.26 -85.56 -88.14 -91.84 -187.83 -193.08 -189.67 -193.33 -196.00 -200.29 -200.00 -205.37 -203.80 -205.96 -214.28 -219.69 -224.56 -238.95 -234.50 -232.77 -234.31 -233.15 -231.71 -233.48 -244.30 -243.96 -248.95 -241.51 -242.54 -243.58 -248.58 -253.08 -254.84 -251.23 -252.21 -255.89 -253.67 -255.12 -249.76 -258.03 -251.46 -252.17 -256.03 -215.09 -241.79 -270.97 -306.61 -301.14 -313.20 -293.63 -298.18 -306.34 -322.96 -370.03 -387.67 -434.62 -448.92 -487.58 -533.68 -583.55 -579.39 -582.45
2345.57 2335.23 2266.38 2150.10 2144.35 2155.46 2170.85 2144.69 2118.53 2106.32 2091.80 2099.88 2097.99 2137.27 2168.74 2185.04 2197.45 2193.33 2196.47 2200.32 2201.04 2189.41 2151.92 2144.64 2147.70 2170.48 598.34 612.33 600.36 636.53 673.10 656.53 612.50 551.34 525.62 502.90 507.17 471.12 471.83 414.62 409.59 396.94 393.71 394.00 383.96 381.48 378.60 372.51 371.19 371.06 368.47 377.95 25.77 23.91 28.32 32.67 47.56 41.42 40.40 33.75 44.50 38.96 37.27 35.34 24.82 -86.06 -93.26 -90.65 -82.27 -73.89 -74.72 -67.21 -75.06 -86.48 -83.58 -82.21 -91.01 -96.26 -188.76 -190.36 -196.72 -192.05 -195.62 -208.64 -209.96 -204.68 -207.19 -204.82 -205.90 -221.19 -225.48 -240.26 -240.77 -233.59 -238.67 -241.63 -244.46 -243.85 -238.62 -244.96 -243.12 -237.50 -241.84 -242.78 -254.94 -251.71 -251.71 -246.04 -257.74 -253.64 -254.31 -252.60 -251.09 -260.36 -254.00 -254.21 -254.18 -193.79 -233.63 -269.33 -296.81 -290.31 -262.09 -280.70 -267.65 -285.26 -305.87 -321.11 -387.32 -410.75 -441.47 -539.67 -547.14 -587.77 -637.85 -634.83
2374.67 2369.82 2392.45 2209.51 2187.88 2201.92 2188.00 2177.65 2126.81 2103.03 2100.96 2090.24 2095.89 2128.41 2164.14 2169.22 2179.98 2179.66 2172.13 2183.55 2214.54 2200.84 2162.32 2143.27 2127.30 2146.52 565.65 564.63 562.73 607.02 656.46 627.15 627.33 578.99 538.32 545.55 572.03 532.75 510.74 447.20 444.39 428.29 408.34 407.67 396.41 393.23 392.35 386.76 382.79 379.99 398.85 390.12 42.39 29.05 36.95 42.72 49.77 57.55 61.79 52.54 39.69 49.04 51.57 47.47 30.65 -79.03 -86.59 -82.80 -83.46 -67.90 -67.74 -63.23 -69.55 -82.49 -83.67 -87.30 -95.46 -96.92 -201.37 -196.66 -200.68 -202.60 -205.10 -212.19 -219.03 -216.72 -208.47 -200.66 -209.65 -213.20 -228.88 -241.66 -235.07 -237.00 -244.85 -240.22 -242.61 -245.51 -243.10 -238.23 -242.71 -242.69 -244.48 -241.00 -251.23 -248.09 -255.32 -251.75 -251.79 -252.44 -250.47 -252.80 -257.48 -252.24 -253.86 -251.49 -255.24 -188.52 -226.27 -255.03 -265.33 -235.22 -247.54 -231.90 -258.37 -248.95 -281.68 -312.81 -366.97 -403.42 -474.47 -541.62 -596.20 -621.61 -651.09 -648.11
2442.54 2442.30 2434.03 2252.30 2206.58 2223.05 2215.27 2168.87 2124.21 2111.99 2087.32 2075.73 2081.11 2119.49 2137.50 2133.54 2149.22 2153.63 2168.18 2198.00 2221.54 2226.29 2176.44 2137.73 2126.29 2117.82 536.94 542.45 545.89 592.05 629.07 645.33 621.08 596.16 573.62 573.59 580.48 572.09 556.69 479.69 476.02 448.65 425.97 412.35 403.16 398.70 403.38 398.79 394.77 392.52 403.30 417.86 70.90 66.70 66.34 60.84 64.50 75.97 75.02 60.16 51.44 50.39 66.64 62.80 31.69 -70.63 -62.37 -59.45 -69.40 -59.94 -68.87 -64.82 -75.25 -79.01 -88.55 -98.60 -100.86 -102.71 -203.40 -207.29 -196.68 -207.97 -213.27 -222.02 -218.81 -212.86 -215.87 -211.53 -209.80 -217.96 -223.72 -242.65 -237.43 -238.45 -240.87 -238.76 -240.16 -238.01 -242.23 -236.36 -233.63 -235.64 -239.66 -241.45 -249.67 -249.39 -249.73 -245.08 -249.32 -250.50 -252.74 -258.53 -249.12 -251.50 -250.85 -253.61 -253.00 -183.13 -201.14 -213.17 -203.63 -205.71 -216.30 -225.86 -224.13 -226.84 -249.80 -278.54 -336.64 -386.12 -476.49 -523.86 -585.24 -625.07 -636.93 -629.05
2476.79 2479.01 2380.88 2266.36 2278.44 2220.88 2207.80 2156.44 2125.35 2098.28 2075.08 2072.15 2071.51 2110.47 2123.43 2121.43 2113.54 2144.34 2161.45 2189.12 2215.73 2216.70 2205.23 2166.72 2135.08 2113.03 523.04 529.24 542.62 585.26 617.26 640.18 635.47 624.19 624.93 622.73 627.37 603.33 578.51 499.79 492.67 460.20 420.08 411.77 415.38 422.03 410.44 409.53 404.60 402.86 414.38 425.22 95.75 92.13 74.70 68.58 81.70 78.23 83.44 73.67 69.91 73.50 72.22 62.65 61.04 -56.90 -60.54 -65.54 -63.17 -69.85 -66.41 -67.71 -75.69 -85.01 -89.96 -99.40 -98.21 -94.57 -205.99 -210.32 -217.72 -213.21 -222.47 -224.49 -222.97 -230.42 -218.81 -221.16 -214.37 -226.13 -226.53 -241.80 -235.36 -235.18 -235.79 -231.98 -233.75 -236.92 -236.51 -240.02 -235.87 -238.57 -235.01 -238.17 -247.83 -246.47 -245.56 -259.22 -254.16 -253.17 -256.41 -251.42 -252.33 -250.31 -254.24 -255.46 -248.50 -170.84 -167.99 -193.41 -185.45 -180.26 -188.61 -189.51 -193.63 -197.05 -220.37 -257.23 -301.05 -334.95 -425.27 -513.79 -533.17 -593.22 -599.45 -598.76
967.72 965.33 862.01 828.05 819.69 757.24 696.95 656.05 616.37 609.94 586.20 571.66 557.34 412.96 403.78 404.35 411.76 433.29 459.26 492.11 495.00 514.65 482.74 467.03 435.63 426.25 257.62 270.81 309.30 337.82 347.94 354.78 346.04 341.90 354.39 373.41 370.28 358.66 349.90 512.92 477.84 444.00 423.41 411.12 410.55 420.14 409.88 399.77 383.86 382.62 391.49 402.21 93.50 95.40 89.05 92.81 86.99 88.93 94.09 89.44 90.72 84.01 84.00 72.45 72.21 -54.22 -51.94 -61.09 -64.61 -63.83 -74.72 -67.58 -81.01 -87.62 -90.89 -102.02 -99.93 -93.36 -214.42 -218.19 -215.57 -230.23 -231.86 -243.07 -240.04 -241.52 -232.22 -236.00 -234.30 -239.51 -238.00 -243.63 -239.59 -236.30 -245.41 -242.04 -245.95 -248.62 -251.31 -251.22 -248.10 -250.75 -249.45 -254.35 -527.59 -519.72 -529.25 -527.57 -530.20 -530.36 -530.43 -527.49 -532.44 -528.30 -525.48 -527.74 -527.52 -177.22 -176.21 -176.17 -173.17 -174.40 -173.27 -174.53 -174.89 -181.57 -201.57 -235.48 -248.01 -283.01 -384.38 -481.02 -512.91 -540.75 -546.31 -554.60
1018.44 1022.61 991.84 865.70 881.61 814.39 754.51 692.51 649.65 624.53 605.68 591.24 567.04 417.66 412.53 404.19 397.13 407.65 435.02 466.41 477.51 478.81 465.65 432.03 426.88 419.16 255.47 296.83 302.49 328.73 344.20 331.07 322.46 317.79 326.07 361.06 369.73 364.69 360.93 530.55 513.56 468.84 443.78 425.33 444.07 453.88 441.68 422.98 411.52 411.29 394.47 409.07 93.08 103.41 90.91 82.78 91.82 85.50 84.72 81.45 86.39 91.56 94.25 96.77 79.80 -36.53 -37.83 -56.45 -55.53 -69.49 -66.05 -69.20 -70.98 -77.89 -87.27 -95.80 -97.84 -95.87 -209.03 -210.68 -221.25 -214.47 -228.69 -230.98 -242.01 -243.10 -241.66 -242.52 -243.43 -231.14 -234.86 -235.71 -237.07 -246.07 -253.08 -249.38 -248.44 -251.33 -246.98 -258.85 -252.95 -252.50 -247.47 -251.34 -532.10 -532.58 -535.07 -527.42 -535.21 -530.57 -536.03 -536.11 -529.76 -524.13 -531.76 -535.91 -530.82 -171.73 -174.62 -177.80 -175.50 -174.58 -175.77 -178.77 -172.26 -178.99 -180.93 -207.39 -240.23 -272.00 -366.08 -434.28 -434.90 -486.89 -494.70 -494.15
1130.73 1120.40 1019.72 917.42 898.91 827.84 768.09 715.25 663.71 643.13 640.22 615.92 599.86 429.73 409.79 394.97 399.82 409.26 436.51 441.57 445.00 436.00 447.42 425.77 418.64 406.08 262.09 285.76 300.74 304.44 304.19 307.03 300.03 304.56 319.87 334.29 337.63 346.94 355.88 537.79 527.87 489.49 451.00 449.52 447.87 462.10 457.71 443.25 427.16 432.67 409.63 416.34 103.87 98.42 91.99 82.72 93.25 80.55 82.40 77.27 73.24 90.11 94.27 103.49 90.95 -27.79 -36.58 -49.71 -53.43 -65.99 -67.67 -70.61 -82.51 -75.88 -96.21 -103.26 -102.85 -98.79 -207.60 -213.01 -220.99 -227.08 -225.43 -229.69 -237.91 -237.47 -236.69 -235.02 -231.69 -228.89 -226.97 -234.81 -240.60 -247.49 -250.03 -243.29 -244.80 -248.49 -252.92 -248.48 -251.76 -250.96 -249.84 -247.33 -531.10 -535.27 -526.28 -530.13 -527.27 -536.13 -529.66 -529.13 -533.16 -536.50 -528.08 -526.50 -536.42 -173.97 -169.02 -168.50 -171.54 -176.03 -170.25 -174.48 -175.01 -170.96 -174.90 -190.84 -201.70 -268.69 -299.57 -392.36 -391.32 -430.59 -445.28 -445.47
1097.19 1101.92 1101.35 928.41 913.50 867.33 785.93 743.48 703.84 674.06 654.26 621.48 602.22 425.89 409.27 396.55 394.22 415.42 424.23 438.46 433.73 421.75 415.97 410.02 406.11 410.56 256.42 297.47 293.80 302.67 293.40 269.43 268.35 297.17 291.89 291.80 294.62 311.40 341.34 531.47 542.63 508.30 484.53 473.86 463.69 467.93 462.51 448.25 448.66 431.32 430.62 414.17 96.28 89.22 80.94 85.31 84.95 78.28 72.97 63.02 59.12 64.39 77.83 88.13 87.21 -29.26 -38.67 -59.84 -59.58 -67.18 -72.90 -78.10 -79.38 -85.98 -96.41 -94.85 -103.88 -107.86 -223.17 -220.67 -216.19 -232.54 -227.45 -228.79 -224.87 -233.18 -238.20 -230.34 -226.14 -235.13 -231.55 -242.11 -247.64 -244.87 -244.14 -243.93 -238.22 -252.35 -249.82 -246.06 -252.08 -244.58 -253.13 -244.76 -526.91 -525.59 -531.13 -530.35 -531.99 -525.07 -531.23 -529.00 -529.69 -533.30 -532.41 -529.94 -532.84 -176.56 -175.76 -170.15 -168.68 -172.66 -173.00 -169.55 -171.63 -171.84 -170.65 -174.81 -189.70 -204.70 -231.30 -329.29 -341.21 -393.65 -383.50 -393.59
1076.71 1077.83 996.61 951.92 908.63 847.70 758.31 704.69 690.01 666.92 640.06 626.77 605.29 434.89 416.52 410.31 408.40 400.46 412.16 416.56 404.35 410.48 411.21 398.62 405.48 418.14 269.02 292.88 307.61 287.38 267.98 256.89 261.10 277.92 277.53 269.09 273.40 283.56 333.53 531.16 544.32 514.35 491.24 476.00 464.36 460.29 447.79 444.64 439.25 430.19 420.97 414.95 81.37 81.26 75.57 68.58 69.80 64.38 57.09 58.89 62.38 57.13 78.04 78.35 77.66 -30.67 -53.49 -59.68 -74.69 -65.33 -76.85 -85.42 -83.40 -80.25 -82.97 -94.17 -100.98 -112.98 -222.97 -221.91 -234.97 -236.99 -232.88 -232.24 -227.44 -233.14 -230.01 -222.35 -229.67 -232.46 -235.69 -247.45 -245.36 -243.50 -241.69 -239.80 -239.95 -246.34 -251.97 -252.38 -246.05 -250.35 -241.53 -250.25 -527.17 -528.72 -529.08 -530.79 -531.37 -531.50 -532.87 -527.46 -537.43 -533.40 -532.57 -529.44 -532.90 -176.77 -171.88 -164.71 -168.06 -168.14 -166.22 -164.25 -167.37 -174.43 -175.84 -168.31 -179.57 -176.78 -179.49 -244.21 -274.10 -307.86 -340.52 -334.36
1072.14 1066.98 990.00 899.33 883.08 798.79 697.97 660.02 632.71 631.88 630.27 597.17 596.51 414.92 436.16 409.71 401.39 393.08 392.34 389.77 395.80 396.82 398.62 393.57 411.95 410.55 273.82 287.37 292.10 285.62 266.69 236.11 240.71 255.34 254.02 258.41 281.66 286.36 324.80 536.20 528.62 517.15 480.44 470.22 459.72 454.75 446.29 435.97 433.24 420.56 416.79 401.05 79.45 76.11 78.67 69.23 75.93 68.62 68.14 63.96 55.96 47.14 62.36 79.39 78.31 -33.09 -43.78 -60.58 -62.49 -77.18 -75.12 -76.14 -76.37 -88.31 -78.25 -93.89 -101.96 -107.75 -231.10 -221.04 -228.79 -230.73 -235.76 -235.11 -234.84 -232.69 -225.36 -230.05 -223.58 -225.15 -238.08 -247.87 -246.18 -245.64 -242.25 -236.75 -249.03 -246.14 -248.35 -246.09 -248.31 -247.31 -240.42 -241.86 -518.94 -526.99 -530.66 -530.16 -528.70 -525.15 -530.43 -536.78 -533.27 -527.47 -524.53 -529.49 -531.31 -165.68 -169.01 -162.25 -157.18 -162.82 -165.72 -159.14 -161.57 -165.85 -169.30 -178.07 -172.78 -174.76 -177.70 -195.07 -205.46 -242.85 -271.21 -271.15
991.15 994.95 941.57 846.51 780.69 736.95 678.40 649.16 631.76 602.14 579.91 582.51 587.46 450.11 448.73 436.07 412.15 396.10 391.93 394.13 396.88 389.37 377.50 392.06 400.52 407.22 237.19 272.72 264.43 266.20 246.65 240.62 230.90 240.86 245.48 269.58 285.98 320.41 324.71 515.52 513.06 481.22 469.71 456.52 444.47 437.53 425.00 427.25 427.40 421.03 403.83 395.21 82.30 86.33 82.89 86.25 83.32 89.92 78.46 72.85 54.49 47.85 51.76 66.83 76.28 -35.46 -34.40 -47.09 -60.99 -62.73 -66.55 -65.00 -68.45 -66.04 -75.62 -91.02 -105.81 -106.54 -220.26 -230.30 -230.17 -225.90 -237.59 -235.97 -230.44 -229.18 -226.21 -228.48 -229.88 -236.88 -237.10 -237.77 -231.57 -239.90 -239.72 -247.84 -246.25 -241.47 -245.26 -245.05 -237.00 -240.60 -241.17 -247.54 -522.27 -524.49 -536.20 -524.48 -533.59 -536.21 -527.43 -528.97 -534.38 -533.16 -529.67 -530.68 -528.30 -172.95 -171.95 -161.48 -157.84 -149.95 -154.34 -155.34 -159.91 -164.01 -161.60 -170.56 -178.42 -169.48 -177.33 -190.59 -183.50 -216.69 -221.50 -221.06
912.06 912.09 902.28 842.41 788.26 739.54 681.83 688.06 654.78 616.74 572.52 573.43 593.72 465.14 480.94 440.70 427.61 414.44 419.59 415.33 408.79 399.94 392.65 386.57 393.47 403.99 227.18 221.19 248.86 239.94 239.08 228.46 227.15 228.23 229.22 251.00 293.39 300.41 308.51 501.01 490.59 467.72 451.99 449.45 427.89 437.50 421.78 421.68 416.21 409.32 412.17 408.52 100.51 105.06 101.11 101.73 90.41 85.51 87.41 77.39 61.00 50.24 45.75 52.91 74.32 -44.46 -39.69 -49.15 -47.57 -53.13 -57.30 -60.45 -69.89 -71.63 -77.48 -84.93 -100.80 -106.43 -214.59 -215.44 -220.01 -228.71 -230.24 -222.39 -220.29 -225.74 -215.34 -225.47 -234.03 -235.45 -231.85 -232.16 -232.51 -233.39 -240.58 -240.66 -234.13 -229.91 -237.99 -233.47 -235.85 -236.15 -238.67 -243.23 -521.35 -530.19 -529.50 -529.56 -533.80 -529.67 -536.34 -529.54 -530.32 -531.85 -532.75 -525.31 -530.15 -173.24 -168.09 -160.71 -167.15 -152.95 -152.33 -147.15 -147.81 -162.39 -168.77 -168.37 -166.00 -174.05 -174.42 -176.41 -177.61 -193.90 -223.35 -219.82
831.03 832.86 874.73 816.76 806.75 772.53 745.24 738.05 705.04 631.81 577.52 597.17 637.33 510.21 499.00 477.63 434.81 431.22 442.17 447.44 427.59 417.21 387.91 387.17 379.37 387.05 205.91 211.55 226.34 233.27 229.46 228.26 220.23 225.08 223.21 232.37 264.90 294.47 303.13 495.62 481.15 471.73 445.34 437.89 434.45 428.72 427.27 410.38 414.59 423.18 419.96 410.59 109.11 113.73 104.02 98.06 87.47 91.28 91.21 81.58 71.73 57.13 45.64 39.45 56.52 -42.00 -36.27 -43.89 -51.78 -52.91 -60.40 -64.71 -67.48 -68.46 -76.70 -86.51 -95.04 -94.30 -204.59 -204.59 -218.12 -212.71 -219.83 -217.51 -214.08 -209.88 -209.55 -228.69 -231.92 -233.70 -223.59 -233.01 -231.63 -234.28 -233.00 -234.11 -223.90 -228.32 -229.38 -230.96 -231.13 -231.77 -235.65 -241.46 -522.35 -527.81 -528.76 -524.21 -529.61 -532.53 -532.26 -527.52 -525.89 -535.47 -528.93 -523.54 -523.70 -171.19 -174.03 -172.86 -158.05 -147.95 -140.63 -139.49 -146.30 -151.43 -159.62 -170.83 -166.03 -172.57 -179.25 -176.40 -174.75 -189.41 -170.64 -173.03
901.34 900.24 843.89 812.04 807.83 810.29 793.38 764.46 755.81 691.40 641.81 629.71 655.79 517.63 508.15 485.55 455.28 434.14 455.35 470.09 445.35 425.17 401.96 388.81 380.88 382.40 205.78 201.52 206.72 220.50 227.51 230.55 216.31 219.31 221.37 226.31 261.38 282.14 294.55 489.58 481.38 456.88 451.45 439.65 436.25 428.01 428.61 432.43 436.12 428.36 436.68 432.40 118.30 110.29 114.50 101.43 90.32 87.23 75.98 81.00 72.33 74.95 56.22 46.88 37.06 -52.14 -44.63 -40.97 -44.61 -55.18 -61.62 -70.42 -71.48 -74.24 -84.00 -95.22 -91.49 -87.50 -192.15 -191.57 -198.00 -202.88 -201.51 -210.34 -208.51 -212.05 -217.75 -226.32 -231.21 -222.26 -220.25 -225.29 -223.49 -221.90 -231.60 -228.06 -232.01 -224.20 -233.65 -225.99 -232.26 -240.02 -241.65 -241.30 -526.13 -528.46 -524.74 -527.04 -525.23 -519.52 -526.84 -527.70 -529.00 -527.31 -529.08 -522.96 -525.82 -175.71 -170.65 -165.78 -157.05 -152.30 -152.76 -143.92 -143.43 -158.43 -164.38 -165.27 -170.24 -171.07 -175.66 -175.05 -178.57 -166.82 -168.21 -172.79
894.63 896.27 858.53 801.88 795.07 815.07 803.69 786.11 742.38 747.01 664.95 656.55 666.92 516.23 498.41 465.38 444.66 440.17 464.17 488.16 459.93 441.51 419.94 403.30 394.61 382.31 207.99 200.16 200.95 202.71 210.73 206.57 202.71 209.78 223.53 222.87 258.33 273.18 301.56 500.89 492.64 478.37 465.62 465.90 444.92 457.83 453.80 454.44 439.25 446.50 437.14 433.11 118.02 107.12 107.51 94.72 80.17 74.06 67.96 64.22 71.79 77.06 62.23 42.02 27.09 -60.37 -52.46 -44.08 -43.28 -49.18 -52.86 -65.58 -78.64 -77.17 -83.01 -88.45 -83.50 -83.37 -190.32 -199.32 -198.90 -204.52 -205.02 -197.00 -208.64 -215.56 -222.07 -219.64 -228.81 -229.09 -218.29 -221.48 -216.53 -218.53 -226.59 -227.75 -227.26 -224.43 -221.61 -229.51 -234.67 -230.63 -240.82 -241.00 -523.66 -529.92 -526.62 -523.04 -527.50 -517.78 -518.86 -522.78 -529.09 -530.39 -534.55 -528.18 -528.10 -166.99 -165.74 -164.34 -151.87 -147.23 -150.35 -136.13 -141.71 -149.14 -156.57 -163.56 -174.69 -175.65 -172.26 -175.06 -176.54 -170.16 -171.77 -173.99
873.91 874.82 840.31 776.47 775.19 803.18 821.04 806.03 805.40 756.11 713.34 683.68 712.67 531.78 503.83 467.68 459.50 457.47 504.19 511.77 482.31 464.42 425.83 403.34 402.79 401.39 217.24 221.67 204.20 192.66 204.83 197.77 199.90 214.10 219.48 241.08 280.12 290.68 291.19 502.22 506.48 491.05 484.93 467.65 476.33 480.23 487.76 464.73 450.30 443.48 445.49 437.12 109.37 101.04 87.32 80.49 84.03 69.10 53.27 51.22 54.20 63.32 53.25 37.01 26.52 -72.50 -56.41 -40.03 -45.07 -41.40 -52.31 -56.76 -70.78 -71.55 -68.68 -73.91 -70.02 -69.24 -185.00 -193.62 -196.72 -196.94 -202.81 -208.44 -216.93 -213.62 -221.46 -225.92 -220.53 -215.38 -214.97 -216.19 -221.90 -215.52 -220.66 -219.62 -217.65 -216.94 -221.29 -222.34 -227.76 -232.68 -237.72 -243.03 -523.04 -526.40 -525.78 -531.56 -519.42 -534.46 -521.47 -521.35 -523.45 -522.48 -529.61 -525.41 -521.70 -164.29 -164.98 -149.32 -150.10 -144.60 -141.54 -140.33 -149.51 -152.36 -158.37 -167.61 -167.56 -172.42 -173.28 -178.01 -173.18 -169.17 -164.82 -165.91
1850.28 1850.62 1803.24 1767.59 1757.75 1768.50 1800.27 1796.21 1817.42 1768.06 1725.89 1733.72 1717.87 1727.56 1683.65 1652.94 1615.01 1651.17 1693.30 1685.48 1666.99 1623.82 1603.62 1585.48 1562.92 1551.22 528.34 525.47 500.85 490.94 478.27 483.36 488.62 513.85 519.40 548.34 576.33 570.83 587.05 611.47 625.11 620.87 619.76 601.05 604.71 617.53 612.20 607.08 580.77 566.98 570.59 570.00 111.97 90.94 78.50 78.61 67.74 62.72 43.28 46.32 43.82 53.01 46.78 27.54 29.69 -69.30 -49.40 -45.09 -41.33 -39.29 -45.00 -40.44 -59.94 -61.43 -58.55 -63.04 -66.69 -68.53 -145.42 -151.70 -158.67 -160.63 -161.24 -170.72 -180.23 -175.94 -182.35 -181.07 -179.59 -179.06 -176.58 -168.62 -164.00 -160.92 -163.20 -163.53 -166.54 -163.37 -166.98 -171.02 -180.29 -184.65 -191.51 -188.37 -196.75 -209.48 -206.41 -210.73 -212.33 -202.23 -201.63 -197.84 -203.40 -203.96 -204.86 -201.96 -203.60 -168.27 -151.72 -153.98 -147.54 -146.06 -134.80 -137.15 -140.14 -145.22 -156.92 -161.95 -166.84 -175.26 -173.31 -166.18 -166.18 -168.16 -164.69 -169.36
1833.54 1828.26 1827.55 1743.73 1749.62 1765.18 1785.87 1796.40 1810.80 1786.42 1756.54 1762.17 1742.83 1727.64 1688.02 1662.66 1650.52 1702.81 1740.41 1740.81 1710.14 1667.05 1606.67 1609.68 1587.17 1576.07 528.77 523.46 503.06 476.58 479.04 470.37 482.89 495.99 522.88 542.69 568.27 576.60 585.65 599.20 604.56 612.52 593.05 605.85 597.43 609.12 619.01 599.14 573.75 570.90 575.94 573.62 122.36 97.81 91.66 72.97 60.78 51.68 43.02 37.90 27.66 39.42 35.72 17.41 17.42 -72.17 -64.93 -54.04 -50.44 -41.33 -44.76 -45.79 -50.38 -52.44 -57.21 -52.01 -69.58 -69.64 -148.10 -153.09 -158.31 -166.63 -166.72 -169.49 -173.90 -183.40 -175.29 -167.80 -175.40 -178.68 -174.20 -167.67 -161.90 -156.63 -150.28 -155.42 -161.11 -157.43 -161.38 -174.36 -179.39 -178.20 -186.21 -186.35 -195.00 -200.15 -210.04 -208.44 -207.89 -196.34 -200.72 -196.88 -198.60 -199.95 -204.35 -200.87 -197.68 -156.23 -156.00 -148.63 -140.95 -141.20 -132.64 -138.94 -137.34 -143.42 -149.48 -152.00 -158.30 -164.59 -168.89 -169.96 -170.10 -167.10 -178.06 -177.46
1810.57 1810.79 1787.43 1757.29 1747.41 1756.65 1768.08 1780.40 1793.34 1794.93 1773.95 1767.41 1753.71 1771.39 1774.09 1720.65 1722.63 1715.64 1783.09 1790.91 1745.94 1735.72 1668.63 1645.83 1603.05 1585.49 540.50 530.18 501.04 484.89 480.25 474.16 470.65 493.53 513.05 534.09 559.43 572.25 581.41 585.21 564.61 587.28 577.30 587.68 601.93 601.42 591.83 587.48 566.00 571.39 567.68 574.16 120.39 115.12 99.68 86.50 76.64 66.45 58.17 40.22 29.09 28.51 21.17 15.91 23.88 -74.83 -78.62 -66.10 -50.24 -44.09 -32.29 -38.35 -44.51 -45.48 -51.09 -61.89 -64.06 -68.72 -141.81 -153.37 -161.65 -161.99 -167.19 -168.60 -164.80 -166.82 -164.61 -166.72 -170.06 -175.53 -163.57 -160.24 -159.97 -158.83 -158.53 -164.17 -157.39 -162.88 -164.39 -169.12 -173.52 -177.53 -173.05 -179.91 -192.67 -200.41 -196.63 -201.81 -200.86 -205.32 -198.19 -196.75 -191.28 -196.03 -193.84 -195.99 -194.59 -154.26 -156.26 -155.26 -145.13 -144.64 -137.30 -137.05 -141.69 -137.89 -148.36 -152.54 -152.93 -154.83 -156.96 -166.91 -166.36 -168.15 -156.74 -159.04
1804.06 1802.56 1777.88 1752.39 1749.85 1759.83 1765.74 1766.85 1765.55 1768.18 1760.66 1756.69 1767.68 1790.18 1781.37 1769.90 1762.78 1788.45 1804.11 1804.94 1801.51 1753.43 1703.81 1649.43 1590.83 1588.46 538.37 515.69 502.56 492.06 486.11 480.34 467.44 483.42 490.83 526.42 542.07 561.91 547.60 556.45 553.05 561.83 557.90 578.07 570.83 572.54 581.14 575.39 553.65 561.51 561.65 565.41 123.45 114.61 104.20 97.65 81.23 71.45 70.82 61.72 49.95 19.37 19.77 26.30 19.01 -88.60 -86.89 -82.96 -61.59 -53.41 -36.38 -42.34 -37.15 -43.82 -53.60 -59.96 -68.87 -72.69 -149.03 -154.84 -158.80 -158.48 -161.33 -163.65 -164.34 -161.81 -167.88 -163.43 -159.90 -161.38 -160.34 -167.40 -154.20 -145.58 -156.03 -154.35 -160.78 -156.35 -168.14 -158.87 -164.79 -171.77 -171.58 -179.50 -192.50 -194.15 -191.98 -194.69 -199.99 -189.67 -199.30 -190.38 -191.81 -190.06 -189.09 -194.64 -196.65 -153.34 -158.19 -156.87 -140.39 -144.99 -146.47 -142.27 -149.33 -138.60 -145.03 -145.75 -154.58 -154.67 -160.77 -160.10 -166.93 -166.65 -153.85 -156.57
1783.44 1781.48 1783.04 1744.80 1744.33 1758.07 1767.89 1763.49 1759.24 1757.52 1751.26 1756.26 1757.63 1794.94 1802.56 1795.40 1794.10 1807.52 1814.43 1796.80 1791.88 1749.19 1683.31 1652.92 1597.96 1574.13 533.48 517.64 512.69 517.97 513.05 493.56 468.47 473.89 489.44 517.64 527.89 526.07 524.55 537.17 532.57 538.47 535.03 536.04 548.86 548.68 564.34 559.14 555.78 542.67 546.49 546.27 110.43 113.31 106.30 98.91 82.21 86.03 78.35 63.51 52.89 47.45 40.64 29.70 22.84 -108.69 -87.14 -81.77 -71.36 -51.33 -39.92 -39.08 -39.15 -48.35 -57.86 -57.19 -74.30 -83.42 -147.89 -153.19 -159.23 -161.26 -164.16 -158.84 -157.10 -157.68 -158.26 -158.92 -158.25 -156.14 -151.75 -157.08 -150.14 -157.58 -155.53 -149.99 -152.04 -158.19 -163.44 -158.04 -170.99 -170.97 -167.22 -176.12 -191.59 -199.55 -192.62 -190.81 -192.35 -190.29 -195.05 -194.85 -193.18 -188.71 -192.50 -193.23 -188.06 -159.81 -158.06 -164.69 -160.12 -150.73 -150.64 -155.35 -148.91 -144.70 -142.67 -147.97 -144.51 -147.26 -147.26 -153.59 -158.33 -148.37 -143.03 -153.16
1771.29 1770.98 1758.45 1741.36 1740.71 1748.51 1759.34 1760.05 1761.93 1754.47 1749.19 1749.60 1770.63 1798.19 1798.15 1799.92 1805.99 1800.62 1807.73 1793.61 1765.79 1714.36 1686.13 1630.35 1602.66 1582.99 534.22 529.78 531.63 537.15 517.86 490.97 481.59 473.03 500.52 502.86 514.65 512.39 496.21 523.62 517.90 527.35 528.40 520.41 531.11 548.83 558.95 557.89 560.77 542.97 536.74 521.35 87.73 94.50 102.70 93.02 86.57 88.66 77.19 67.02 67.29 54.30 42.37 38.59 11.90 -110.83 -91.07 -83.70 -74.54 -51.10 -44.73 -38.33 -44.33 -48.59 -61.59 -71.71 -74.42 -83.04 -153.98 -152.81 -161.75 -170.15 -174.33 -165.92 -173.10 -160.55 -160.64 -160.36 -157.90 -147.71 -148.85 -149.95 -147.32 -148.64 -152.73 -154.97 -158.76 -159.04 -164.20 -165.44 -171.32 -176.64 -171.49 -182.56 -194.46 -196.20 -196.50 -194.29 -197.74 -201.10 -196.77 -198.35 -189.86 -193.27 -197.63 -193.00 -199.48 -162.12 -168.37 -171.88 -159.50 -152.82 -152.51 -153.97 -151.74 -149.30 -141.08 -139.34 -140.41 -144.66 -142.95 -152.08 -144.94 -146.06 -139.82 -133.84
1770.58 1771.22 1753.03 1745.29 1740.75 1743.95 1757.36 1751.91 1755.21 1746.08 1744.72 1750.18 1765.85 1799.44 1806.72 1803.59 1805.39 1807.96 1796.28 1779.66 1739.40 1716.36 1695.18 1668.97 1616.26 1579.88 552.05 547.41 541.09 543.51 506.64 500.26 476.32 470.48 475.76 482.94 486.27 485.33 472.25 510.15 506.68 512.62 517.12 509.23 520.79 548.30 555.65 562.86 558.57 548.91 534.43 534.79 81.13 85.62 99.91 93.32 81.21 69.54 72.97 71.84 67.31 48.59 29.34 19.59 7.03 -116.35 -93.56 -79.48 -69.64 -51.84 -34.92 -38.18 -55.31 -55.98 -68.07 -71.99 -84.94 -92.91 -164.02 -159.04 -172.12 -178.84 -178.07 -179.13 -173.83 -167.44 -161.74 -151.96 -155.94 -148.84 -148.54 -151.84 -155.51 -156.14 -159.53 -150.72 -159.22 -161.28 -177.68 -178.14 -171.23 -185.63 -181.82 -193.87 -199.46 -202.79 -203.01 -199.44 -201.44 -202.40 -199.29 -200.83 -197.18 -195.88 -193.61 -200.90 -203.80 -169.03 -170.69 -165.52 -159.71 -156.78 -163.94 -169.55 -158.22 -155.94 -144.56 -145.35 -138.47 -137.36 -138.70 -145.49 -150.38 -147.11 -138.34 -144.75
1779.52 1778.39 1770.98 1735.32 1738.77 1751.49 1750.20 1742.36 1740.81 1744.31 1745.08 1756.29 1769.80 1787.40 1788.94 1789.95 1787.76 1795.58 1796.93 1772.56 1747.54 1728.18 1716.46 1676.77 1649.54 1603.41 563.55 539.16 538.59 516.33 497.12 477.99 465.46 463.96 458.17 462.06 453.96 460.47 468.10 492.44 503.83 500.82 490.91 484.42 509.89 526.26 541.79 552.52 566.09 558.75 538.89 527.88 84.14 75.81 78.13 78.44 78.43 60.92 71.86 60.99 53.00 42.51 27.64 9.49 -4.69 -111.77 -93.08 -82.97 -69.85 -51.42 -62.19 -69.19 -71.35 -70.32 -75.33 -84.79 -92.59 -103.90 -174.75 -177.85 -177.33 -189.14 -195.89 -188.25 -184.49 -185.33 -173.34 -167.07 -161.58 -152.78 -153.57 -153.61 -164.56 -166.65 -165.55 -158.34 -159.40 -163.73 -175.68 -169.45 -187.56 -188.83 -196.20 -195.51 -203.26 -207.73 -203.44 -208.87 -205.61 -206.94 -203.11 -206.51 -205.08 -204.01 -202.48 -204.76 -207.22 -172.69 -173.23 -171.30 -161.23 -165.51 -159.60 -171.05 -170.33 -163.22 -151.63 -145.54 -144.81 -140.19 -141.57 -149.88 -152.78 -145.44 -145.80 -150.46
1772.60 1777.07 1764.04 1747.01 1743.23 1746.95 1746.06 1753.04 1751.99 1744.03 1745.25 1756.82 1776.89 1796.54 1784.82 1778.93 1786.14 1788.74 1773.43 1752.90 1737.21 1739.81 1744.79 1688.20 1667.93 1622.55 543.12 513.46 507.35 498.24 478.07 465.56 466.47 480.39 474.54 458.25 449.10 450.91 447.14 494.88 496.90 488.49 481.09 489.35 495.46 524.83 536.98 555.23 557.97 554.26 532.53 535.02 80.63 76.25 71.24 65.47 66.14 58.22 51.55 57.83 51.22 29.29 19.03 19.32 9.76 -103.91 -92.96 -76.61 -71.62 -71.42 -84.77 -86.10 -73.81 -69.05 -83.65 -103.07 -104.99 -114.07 -182.75 -182.51 -180.92 -188.40 -197.13 -191.41 -190.46 -187.38 -180.98 -175.82 -169.66 -158.87 -157.87 -163.28 -162.89 -174.08 -167.86 -167.77 -165.69 -164.45 -175.59 -176.29 -181.55 -181.56 -189.07 -195.73 -205.11 -205.55 -205.65 -211.94 -210.29 -218.30 -210.53 -206.18 -200.03 -209.58 -206.02 -210.48 -211.61 -172.70 -174.00 -174.48 -170.25 -169.86 -173.73 -165.45 -159.98 -166.97 -160.49 -153.69 -139.42 -148.96 -143.88 -147.26 -157.36 -151.93 -154.42 -159.02
1777.55 1773.40 1763.32 1747.67 1741.49 1745.25 1744.81 1745.90 1752.67 1747.34 1742.49 1760.35 1767.35 1788.46 1775.04 1767.56 1772.22 1780.36 1765.51 1749.29 1721.98 1710.47 1709.49 1690.76 1653.49 1616.49 533.34 496.15 505.60 511.53 500.48 496.62 490.52 495.19 479.78 471.33 456.65 458.91 447.59 485.99 505.49 495.44 479.89 463.72 467.69 487.90 541.65 541.93 557.07 541.83 533.04 528.74 89.82 83.01 67.50 58.31 58.52 53.22 43.42 56.94 47.49 32.04 29.95 24.71 21.09 -92.98 -99.53 -96.98 -89.04 -83.21 -101.01 -82.29 -75.54 -86.08 -87.52 -103.93 -106.24 -122.77 -191.43 -191.84 -189.84 -194.93 -201.52 -192.26 -191.72 -189.98 -184.89 -177.38 -174.35 -168.74 -170.52 -171.44 -172.17 -177.78 -171.41 -168.31 -162.28 -170.09 -165.70 -169.80 -177.19 -178.86 -179.15 -187.81 -200.11 -199.24 -208.58 -208.88 -212.84 -214.61 -209.15 -209.44 -209.25 -214.07 -205.60 -209.01 -209.98 -160.93 -168.97 -172.83 -173.26 -172.42 -174.61 -172.75 -167.20 -155.52 -160.28 -147.38 -150.58 -152.44 -148.67 -155.96 -154.11 -158.67 -164.39 -167.40
1783.84 1786.89 1781.50 1738.10 1740.58 1740.50 1748.66 1749.78 1741.98 1743.10 1749.07 1754.40 1768.49 1786.50 1769.34 1764.95 1766.02 1753.06 1739.86 1727.75 1702.84 1680.36 1694.28 1689.08 1639.08 1567.34 529.10 520.28 536.88 524.16 520.66 507.02 507.21 495.01 488.08 475.70 485.80 474.93 450.41 481.62 499.76 507.59 474.81 467.97 456.47 477.90 525.00 533.72 534.74 527.39 512.51 523.49 84.51 83.20 67.39 67.18 56.19 47.41 47.47 41.57 42.51 36.50 29.74 25.58 26.19 -93.59 -116.69 -109.83 -97.10 -91.30 -102.82 -94.87 -86.22 -85.96 -99.63 -100.52 -118.77 -123.58 -200.48 -200.96 -200.30 -194.05 -193.94 -195.35 -200.62 -196.00 -182.72 -179.60 -173.47 -171.26 -177.02 -181.46 -175.39 -184.68 -172.29 -170.38 -161.59 -167.59 -172.20 -180.32 -177.20 -180.32 -178.24 -187.22 -204.89 -204.85 -207.34 -208.60 -214.59 -208.04 -212.07 -213.81 -215.19 -212.48 -215.58 -211.46 -211.60 -178.47 -170.81 -174.55 -171.84 -177.07 -175.02 -173.51 -170.06 -166.07 -155.67 -152.02 -158.16 -152.71 -167.12 -156.55 -167.11 -166.85 -167.98 -169.37
1787.23 1793.62 1766.92 1747.66 1739.97 1737.45 1741.24 1737.69 1740.19 1741.78 1747.17 1753.10 1760.98 1784.35 1772.94 1762.70 1763.77 1737.70 1733.86 1705.52 1683.01 1661.37 1633.78 1650.55 1595.56 1575.86 538.29 549.23 552.60 540.01 529.16 521.94 509.69 495.12 474.35 483.83 493.60 483.52 454.50 464.07 476.21 483.95 483.59 465.80 440.16 473.26 487.04 526.65 513.95 500.56 493.92 517.08 82.73 85.11 60.23 60.82 42.69 52.89 49.43 37.31 37.33 37.62 37.17 38.33 38.35 -93.16 -106.60 -115.25 -114.22 -111.59 -115.20 -115.04 -98.85 -95.91 -108.60 -108.92 -122.39 -126.67 -197.05 -199.72 -202.79 -190.41 -179.16 -184.76 -188.33 -198.52 -195.76 -186.29 -185.64 -185.40 -182.35 -189.28 -186.91 -183.84 -179.21 -166.34 -161.76 -173.61 -176.79 -188.21 -188.02 -183.25 -188.94 -185.02 -204.95 -201.95 -203.84 -207.07 -213.46 -216.66 -211.91 -213.24 -211.25 -214.65 -209.64 -213.70 -212.06 -172.62 -174.61 -169.53 -179.48 -176.40 -175.53 -165.75 -173.14 -164.88 -153.52 -158.04 -157.19 -162.70 -164.63 -166.05 -168.08 -168.45 -165.60 -169.45
208.04 197.37 187.92 163.11 171.59 157.20 160.73 153.56 160.03 159.34 173.24 177.77 183.25 182.99 169.33 165.44 151.85 134.70 125.31 109.78 77.19 28.01 17.64 9.41 -6.72 1.86 6.40 18.03 -9.77 -26.88 -52.56 -63.70 -75.79 -70.03 -80.26 -63.63 -60.11 -78.52 -117.38 -123.13 -120.88 -113.34 -106.47 -140.53 -142.72 -129.32 -115.41 -108.07 -95.53 -104.50 -103.74 -85.78 -76.62 -88.45 -99.30 -108.57 -96.27 -95.11 -101.19 -107.50 -116.39 -104.14 -98.72 -98.53 -92.89 -118.88 -140.38 -158.20 -153.39 -157.74 -160.73 -160.09 -152.16 -145.49 -146.66 -151.36 -161.48 -164.58 -167.32 -164.34 -160.45 -145.45 -146.23 -154.79 -161.58 -168.33 -173.91 -167.52 -168.18 -163.24 -167.14 -165.48 -162.57 -165.82 -159.00 -146.49 -144.69 -152.69 -160.10 -161.85 -161.17 -166.28 -161.94 -165.74 -171.80 -169.00 -170.49 -177.17 -173.88 -173.78 -175.87 -166.87 -176.73 -171.58 -176.64 -175.98 -174.95 -171.62 -174.60 -170.36 -172.17 -174.33 -165.68 -171.66 -168.88 -167.52 -164.46 -154.78 -163.29 -175.56 -169.45 -172.25 -167.49 -170.56 -176.71 -176.92
218.31 209.40 193.09 172.38 173.53 167.64 152.25 158.98 162.13 164.54 164.32 171.45 180.78 179.86 169.38 153.48 144.93 135.58 121.89 117.18 78.12 42.96 20.94 8.55 17.00 44.00 47.96 27.43 -9.57 -24.64 -53.86 -63.50 -75.45 -64.08 -43.61 -41.44 -45.57 -71.46 -97.57 -112.73 -115.11 -110.88 -116.76 -131.39 -159.37 -139.71 -144.79 -146.35 -149.03 -131.18 -125.65 -100.49 -83.54 -102.89 -115.44 -134.10 -111.34 -100.86 -82.92 -89.55 -92.21 -101.03 -91.23 -102.39 -102.52 -115.53 -138.05 -148.46 -160.79 -163.94 -166.12 -165.18 -157.88 -160.20 -164.25 -165.09 -170.60 -170.66 -167.55 -156.01 -133.99 -138.67 -138.37 -148.23 -157.11 -164.87 -171.61 -169.78 -170.39 -172.31 -165.83 -165.81 -171.47 -173.44 -157.83 -154.02 -148.34 -163.52 -166.23 -168.35 -170.60 -176.51 -174.72 -170.77 -175.13 -172.57 -171.57 -170.34 -174.84 -170.10 -170.94 -170.81 -174.56 -167.82 -169.79 -170.84 -171.36 -175.38 -170.34 -169.08 -172.05 -163.50 -170.34 -173.13 -164.54 -164.31 -164.88 -162.76 -167.03 -162.52 -169.59 -170.41 -171.34 -173.97 -165.38 -164.90
