748.58 708.98 591.28 421.61 289.52 219.58 200.50 205.76 201.68 186.25 165.64 142.32 121.83 109.45 98.32 83.60 67.36 53.75 48.58 57.99 78.20 94.56 98.84 95.71 85.30 45.69 -23.36 -72.97 -91.81 -97.40 -98.87 -102.79 -111.19 -119.49 -123.60 -124.10 -126.18 -133.71 -142.62 -149.48 -156.17 -161.84 -164.94 -164.80 -160.80 -155.94 -153.50 -152.28 -149.32 -146.28 -147.48 -156.29 -169.90 -179.71 -183.59 -183.53 -181.72 -181.13 -182.04 -183.42 -185.52 -188.39 -191.31 -197.47 -220.32 -256.52 -278.02 -283.18 -284.13 -284.83 -285.92 -287.49 -289.20 -290.19 -290.65 -292.16 -299.15 -326.64 -374.22 -408.05 -420.35 -424.16 -423.65 -420.75 -418.33 -416.79 -415.32 -415.25 -417.03 -411.41 -373.31 -308.22 -273.86 -279.38 -305.24 -348.26 -415.56 -530.15 -705.31 -913.34 -1145.62 -1398.33 -1599.55 -1715.94 -1781.74 -1833.36 -1877.55 -1909.47 -1933.59 -1951.11 -1960.36 -1963.18 -1963.77 -1964.29 -1965.72 -1969.82 -1974.59 -1979.37 -1986.62 -1996.06 -2005.61 -2012.84 -2017.12 -2017.62 -2015.75 -2014.66 -2016.40 -2021.12 -2027.05 -2035.36 -2047.51 -2061.89 -2077.67 -2093.21 -2103.43 -2107.45
734.26 698.66 597.07 452.23 337.26 277.98 266.79 274.86 267.54 242.31 209.06 172.01 140.37 123.96 114.09 100.66 83.41 67.12 59.02 66.75 87.04 104.74 111.53 110.20 99.09 56.51 -15.11 -65.22 -84.78 -92.56 -96.77 -103.23 -114.35 -125.44 -131.18 -132.27 -135.23 -143.01 -150.85 -156.50 -161.95 -165.47 -165.75 -163.18 -157.47 -150.69 -146.14 -144.70 -143.86 -143.11 -145.63 -154.69 -168.14 -178.02 -181.74 -180.48 -177.22 -176.04 -177.24 -179.64 -183.11 -186.55 -189.47 -195.80 -219.14 -255.43 -276.81 -281.96 -283.21 -284.50 -285.30 -286.38 -288.41 -290.22 -291.03 -292.13 -298.51 -325.12 -371.56 -404.39 -415.34 -416.46 -413.75 -411.10 -410.06 -409.54 -408.56 -408.15 -409.41 -404.13 -365.93 -298.86 -260.74 -261.70 -281.08 -314.85 -371.47 -471.54 -624.85 -813.22 -1046.19 -1329.27 -1571.42 -1711.43 -1786.24 -1840.79 -1883.87 -1915.29 -1941.02 -1960.78 -1971.42 -1974.66 -1975.60 -1976.63 -1978.75 -1983.36 -1988.48 -1993.80 -2001.50 -2010.70 -2019.32 -2025.83 -2029.16 -2028.55 -2025.49 -2022.30 -2021.72 -2024.82 -2029.57 -2036.63 -2046.56 -2057.86 -2070.88 -2084.36 -2093.14 -2096.75
681.25 649.97 570.36 465.91 383.87 339.93 329.93 333.94 326.11 299.53 255.72 200.91 158.87 143.65 136.42 120.91 98.22 76.55 68.10 78.84 100.20 117.95 126.00 125.22 111.94 66.19 -6.19 -55.42 -76.12 -87.38 -95.75 -106.03 -120.52 -134.30 -141.88 -144.53 -148.59 -154.67 -159.06 -162.46 -166.63 -168.46 -166.58 -162.06 -154.93 -145.94 -138.78 -136.67 -137.68 -139.96 -144.75 -154.07 -166.77 -176.11 -178.94 -176.46 -172.68 -171.23 -172.37 -175.25 -179.22 -182.90 -185.99 -192.84 -217.07 -254.16 -275.82 -281.06 -282.94 -285.02 -285.68 -286.10 -287.73 -289.38 -290.32 -291.08 -296.89 -323.67 -370.16 -402.11 -411.37 -410.33 -406.85 -405.30 -405.24 -404.66 -403.69 -402.96 -403.07 -396.68 -357.23 -288.97 -249.79 -248.99 -264.33 -290.63 -335.46 -417.32 -544.08 -707.40 -931.00 -1234.02 -1522.22 -1693.44 -1777.66 -1834.83 -1879.85 -1915.61 -1945.25 -1967.09 -1979.03 -1983.74 -1985.84 -1987.93 -1991.42 -1996.32 -2001.12 -2007.03 -2015.96 -2024.96 -2031.47 -2035.66 -2037.24 -2035.72 -2032.35 -2028.42 -2026.52 -2028.45 -2032.37 -2038.27 -2046.07 -2055.10 -2066.53 -2078.71 -2086.39 -2089.32
631.84 607.05 545.48 467.97 412.19 385.88 378.17 376.44 367.80 342.40 294.89 232.33 184.91 167.83 156.63 134.82 107.09 83.64 79.20 95.39 117.35 133.28 139.74 136.38 119.22 70.98 -0.53 -48.33 -69.36 -82.82 -94.45 -108.36 -126.37 -142.40 -151.73 -156.82 -161.27 -164.77 -166.04 -167.13 -169.75 -170.53 -167.49 -161.56 -152.92 -141.90 -132.53 -128.92 -130.30 -135.36 -142.82 -152.45 -164.08 -171.99 -173.30 -170.12 -166.89 -166.06 -167.10 -169.59 -173.31 -177.33 -181.03 -188.67 -213.40 -251.23 -273.85 -279.81 -282.25 -284.67 -285.48 -285.76 -287.19 -288.50 -289.15 -289.72 -295.38 -322.59 -368.92 -399.10 -406.38 -404.58 -401.85 -401.53 -402.09 -401.47 -400.31 -399.11 -398.33 -390.53 -349.66 -280.65 -241.42 -239.49 -250.53 -268.15 -298.46 -358.44 -462.89 -613.60 -826.82 -1124.12 -1437.67 -1647.84 -1754.04 -1819.27 -1868.92 -1909.75 -1943.85 -1968.38 -1982.33 -1989.58 -1993.61 -1996.66 -2000.92 -2006.35 -2011.69 -2018.54 -2027.81 -2035.48 -2039.85 -2041.89 -2041.60 -2038.86 -2035.30 -2032.10 -2030.25 -2030.91 -2033.69 -2038.80 -2045.71 -2054.01 -2064.63 -2075.52 -2082.31 -2084.57
600.48 581.72 529.81 460.94 417.05 403.95 402.04 400.13 391.76 368.35 325.16 266.77 216.50 189.60 166.35 136.32 108.24 91.27 94.99 114.83 133.83 143.89 145.22 137.39 116.99 68.69 -0.08 -45.29 -64.98 -78.84 -92.33 -107.90 -127.09 -143.66 -154.66 -162.87 -168.23 -170.05 -169.38 -168.40 -169.18 -169.63 -166.83 -160.69 -151.16 -139.02 -128.45 -123.47 -124.48 -130.68 -139.22 -149.09 -160.19 -167.09 -167.94 -165.56 -163.08 -162.23 -162.87 -165.09 -168.56 -172.67 -176.67 -184.42 -208.73 -247.01 -270.94 -277.89 -280.86 -283.44 -284.46 -284.80 -286.25 -287.71 -288.04 -288.56 -294.78 -322.19 -367.49 -395.75 -401.76 -400.39 -398.79 -398.78 -399.30 -399.16 -398.27 -397.00 -395.97 -387.50 -345.80 -275.96 -235.87 -231.97 -239.17 -251.04 -271.82 -314.79 -399.23 -534.46 -730.76 -1000.95 -1304.94 -1555.14 -1709.70 -1797.39 -1853.50 -1897.34 -1934.61 -1962.70 -1980.34 -1990.56 -1996.42 -2000.31 -2005.27 -2012.22 -2019.20 -2026.83 -2034.98 -2040.76 -2044.27 -2045.68 -2044.25 -2040.78 -2037.55 -2035.58 -2034.02 -2033.08 -2034.43 -2038.85 -2045.32 -2053.70 -2064.37 -2074.75 -2081.12 -2083.16
578.68 562.04 512.86 445.71 406.09 399.88 404.11 407.00 404.04 389.35 356.86 304.13 247.82 206.39 170.10 134.39 109.92 103.50 114.94 133.02 144.20 145.24 139.23 126.68 104.98 59.08 -5.24 -46.12 -62.75 -76.51 -91.63 -106.70 -123.00 -137.36 -149.54 -160.97 -168.11 -168.78 -166.08 -163.28 -162.60 -163.56 -163.02 -158.64 -149.57 -137.58 -127.43 -122.86 -123.73 -129.10 -136.62 -146.45 -158.04 -165.60 -167.73 -166.91 -164.49 -162.08 -161.55 -163.72 -167.24 -170.92 -174.24 -181.08 -204.62 -243.00 -267.82 -275.46 -278.84 -281.50 -282.87 -283.83 -285.68 -287.47 -287.51 -287.76 -294.59 -321.97 -365.68 -392.34 -398.12 -397.88 -397.17 -396.98 -397.25 -397.66 -397.38 -396.55 -395.67 -386.99 -344.71 -274.02 -232.53 -226.32 -230.44 -238.91 -254.85 -285.99 -350.35 -465.79 -641.23 -875.29 -1148.65 -1420.41 -1632.25 -1760.61 -1831.18 -1879.57 -1919.64 -1951.36 -1973.59 -1987.27 -1995.26 -2000.52 -2006.20 -2014.12 -2021.94 -2029.08 -2036.13 -2042.33 -2047.68 -2050.14 -2048.88 -2045.82 -2043.10 -2041.35 -2039.50 -2037.53 -2037.85 -2041.64 -2047.87 -2056.51 -2067.15 -2077.36 -2083.66 -2085.56
568.26 549.59 499.70 434.70 393.71 386.79 396.58 407.94 415.28 413.90 393.36 343.72 278.19 220.74 174.91 138.90 119.47 119.70 131.39 140.51 141.04 133.63 120.37 103.07 81.17 39.65 -17.92 -52.86 -66.06 -79.40 -94.52 -106.52 -117.95 -129.84 -142.56 -155.83 -164.56 -164.43 -159.18 -154.01 -151.70 -153.45 -156.10 -154.80 -148.35 -139.18 -131.94 -129.45 -130.45 -133.67 -138.25 -146.64 -158.33 -167.24 -171.70 -172.49 -169.54 -164.95 -162.70 -164.20 -167.51 -170.83 -173.37 -179.10 -202.25 -241.11 -266.51 -274.28 -277.52 -280.22 -281.89 -283.56 -285.87 -287.53 -287.37 -287.70 -294.93 -322.14 -364.69 -390.31 -396.11 -396.52 -396.23 -396.29 -397.07 -398.06 -398.09 -397.50 -396.53 -387.11 -344.03 -272.76 -230.15 -222.30 -224.42 -229.98 -241.38 -263.31 -310.31 -402.77 -548.28 -746.38 -997.51 -1276.59 -1529.93 -1703.33 -1797.87 -1855.64 -1901.28 -1937.80 -1965.20 -1983.55 -1994.47 -2001.60 -2007.95 -2015.30 -2022.04 -2027.34 -2034.57 -2048.60 -2066.86 -2076.98 -2078.05 -2076.41 -2074.28 -2072.27 -2070.27 -2068.40 -2068.46 -2071.87 -2078.18 -2087.00 -2096.89 -2106.54 -2113.07 -2115.04
589.10 570.65 520.65 452.87 405.19 395.87 413.56 437.06 455.66 464.68 452.97 406.12 326.76 239.60 176.09 140.75 123.73 119.45 118.70 112.90 103.47 90.74 73.29 53.32 33.46 1.87 -40.27 -64.41 -74.14 -86.76 -100.12 -108.68 -116.73 -127.27 -139.35 -151.70 -160.26 -159.32 -151.97 -145.16 -141.93 -143.91 -148.32 -149.79 -147.47 -144.10 -142.04 -141.96 -143.19 -144.44 -145.74 -150.78 -159.99 -169.00 -175.22 -176.68 -173.18 -167.73 -164.35 -164.61 -167.11 -170.11 -172.56 -178.11 -202.16 -243.59 -270.44 -277.98 -280.70 -283.52 -285.41 -286.85 -288.59 -289.73 -289.84 -290.77 -298.04 -324.78 -366.69 -391.76 -397.47 -397.77 -397.36 -397.95 -399.37 -400.24 -400.00 -399.62 -398.74 -388.48 -344.44 -272.46 -228.95 -220.21 -221.30 -224.74 -232.40 -247.99 -280.19 -345.14 -455.58 -624.05 -863.69 -1153.72 -1440.14 -1646.98 -1762.47 -1832.49 -1886.01 -1927.95 -1960.82 -1985.48 -2001.15 -2010.55 -2017.30 -2022.82 -2025.57 -2026.08 -2036.91 -2082.08 -2152.88 -2195.25 -2204.84 -2205.72 -2204.77 -2203.19 -2201.77 -2200.77 -2201.28 -2204.60 -2210.75 -2219.35 -2229.24 -2239.22 -2245.82 -2247.51
628.43 611.33 561.00 489.42 441.88 439.39 467.52 500.86 525.59 539.03 534.42 494.72 401.46 274.04 181.99 140.40 117.67 97.77 76.15 55.22 39.20 23.46 4.59 -14.53 -29.75 -47.54 -67.72 -77.55 -83.64 -95.53 -107.88 -115.59 -123.10 -132.83 -142.42 -150.58 -155.40 -152.83 -145.65 -139.63 -136.47 -137.82 -142.17 -145.23 -146.83 -149.43 -152.78 -155.54 -157.57 -157.79 -156.88 -158.07 -162.80 -170.14 -176.65 -177.98 -174.58 -169.72 -166.11 -165.31 -166.70 -169.50 -172.45 -178.64 -204.86 -250.25 -279.08 -286.31 -288.49 -291.33 -293.29 -293.66 -294.11 -295.11 -295.75 -296.87 -303.63 -329.19 -369.85 -394.54 -400.51 -401.07 -401.08 -401.88 -402.90 -403.06 -402.57 -402.38 -401.72 -391.38 -346.72 -273.35 -228.74 -219.55 -220.26 -222.60 -227.84 -239.12 -261.69 -306.91 -389.58 -532.70 -759.98 -1061.63 -1374.42 -1598.23 -1723.70 -1807.15 -1872.78 -1920.88 -1957.41 -1987.46 -2009.16 -2022.21 -2030.17 -2034.21 -2031.45 -2024.67 -2042.08 -2138.26 -2295.30 -2390.82 -2414.04 -2417.89 -2418.61 -2418.21 -2417.69 -2417.83 -2419.02 -2422.07 -2427.89 -2436.67 -2448.01 -2459.27 -2465.33 -2466.25
637.33 617.12 563.44 493.80 455.00 464.05 499.82 536.03 560.60 574.71 577.55 552.87 465.56 324.47 216.05 163.06 127.36 89.10 49.47 20.15 1.94 -15.55 -34.43 -51.44 -64.93 -77.92 -88.65 -92.78 -97.21 -107.65 -119.53 -128.08 -136.24 -144.55 -149.69 -151.35 -150.22 -145.38 -139.34 -134.58 -131.37 -132.36 -136.86 -141.04 -145.74 -152.91 -160.62 -166.29 -168.96 -168.45 -166.61 -166.04 -167.54 -172.14 -177.56 -179.23 -177.01 -173.16 -169.74 -168.49 -169.39 -172.24 -175.82 -182.88 -210.42 -257.44 -286.88 -293.71 -295.03 -297.11 -299.01 -298.82 -298.52 -299.53 -300.12 -300.59 -306.71 -331.39 -371.15 -395.96 -402.22 -403.20 -403.98 -404.75 -405.07 -404.91 -404.31 -403.76 -403.06 -393.31 -348.52 -273.81 -228.22 -218.79 -219.19 -220.97 -224.60 -232.80 -251.88 -291.09 -359.14 -481.21 -691.95 -987.21 -1295.43 -1517.67 -1651.06 -1751.78 -1837.73 -1898.68 -1940.94 -1975.34 -2001.61 -2018.58 -2029.48 -2034.42 -2029.40 -2019.28 -2041.70 -2169.40 -2379.20 -2507.55 -2539.53 -2545.17 -2547.24 -2548.29 -2548.89 -2550.02 -2551.73 -2554.96 -2561.52 -2571.04 -2582.80 -2594.24 -2600.08 -2600.96
611.95 591.39 537.25 468.90 435.56 451.35 489.37 524.06 547.06 562.16 571.63 561.68 491.90 361.62 255.08 196.47 149.55 98.97 52.38 21.88 1.64 -18.34 -37.03 -53.46 -69.54 -87.26 -102.06 -108.75 -113.07 -121.37 -131.77 -140.57 -148.35 -153.61 -153.65 -149.30 -143.24 -136.57 -130.95 -126.73 -123.86 -125.16 -130.61 -137.19 -145.32 -155.74 -166.38 -173.78 -176.30 -175.31 -173.87 -173.66 -173.86 -175.42 -178.46 -180.24 -179.56 -177.51 -175.21 -173.77 -174.17 -176.56 -180.36 -188.56 -216.63 -262.81 -291.11 -297.26 -297.88 -299.21 -301.40 -301.92 -301.69 -302.17 -302.13 -301.86 -307.50 -332.12 -371.89 -396.92 -402.95 -403.31 -403.84 -404.85 -405.34 -405.10 -404.52 -403.87 -402.99 -393.43 -348.85 -273.85 -227.92 -218.24 -218.14 -219.49 -222.04 -227.66 -244.73 -282.09 -343.91 -450.10 -631.65 -892.20 -1180.20 -1406.24 -1552.82 -1668.28 -1774.35 -1853.39 -1906.40 -1947.85 -1978.88 -1999.48 -2013.93 -2021.95 -2019.20 -2011.03 -2036.34 -2171.99 -2394.38 -2531.09 -2565.95 -2572.76 -2576.20 -2578.44 -2579.53 -2581.26 -2584.19 -2588.84 -2596.47 -2606.10 -2616.54 -2627.05 -2633.54 -2635.40
573.07 556.13 505.39 436.46 401.80 415.30 450.04 483.36 508.85 527.85 542.02 539.12 478.11 356.81 259.31 208.72 166.89 118.87 74.38 40.90 12.06 -14.57 -35.14 -51.60 -69.01 -90.94 -111.19 -120.68 -124.07 -129.32 -137.20 -145.91 -153.55 -155.62 -150.38 -141.36 -132.63 -125.56 -120.94 -118.13 -116.72 -118.84 -125.89 -135.81 -146.98 -159.24 -171.36 -178.72 -180.05 -178.56 -178.16 -179.09 -179.17 -178.52 -178.68 -179.26 -179.60 -179.93 -179.79 -178.82 -178.48 -179.55 -182.29 -190.76 -219.58 -265.52 -292.90 -298.77 -299.74 -301.00 -302.90 -303.83 -304.11 -304.46 -304.05 -303.33 -308.51 -333.20 -373.24 -397.98 -403.48 -402.91 -402.54 -403.56 -404.39 -404.17 -403.80 -403.58 -402.87 -393.23 -348.92 -274.47 -228.87 -219.08 -218.44 -219.02 -220.46 -223.70 -237.19 -269.37 -323.26 -410.94 -555.38 -778.99 -1060.94 -1307.03 -1468.74 -1591.14 -1703.74 -1791.96 -1855.53 -1906.71 -1945.54 -1972.87 -1992.24 -2004.30 -2006.51 -2002.36 -2029.81 -2167.55 -2392.52 -2531.37 -2567.56 -2575.71 -2580.81 -2584.21 -2585.60 -2587.91 -2592.43 -2598.73 -2606.58 -2615.37 -2624.90 -2635.33 -2642.87 -2646.02
547.34 530.37 480.55 414.16 375.91 376.48 399.61 429.93 458.89 480.88 494.11 488.39 425.17 305.70 219.14 189.86 172.23 141.00 101.71 60.75 19.73 -15.05 -39.43 -56.56 -72.71 -93.74 -114.54 -124.30 -126.23 -128.27 -133.83 -143.38 -151.84 -151.41 -141.84 -130.06 -120.91 -114.74 -112.66 -113.51 -114.48 -117.47 -126.24 -139.14 -152.20 -164.70 -175.76 -181.00 -180.17 -177.56 -177.72 -179.85 -180.56 -179.01 -176.94 -175.75 -176.65 -179.23 -181.48 -181.64 -180.87 -180.46 -181.57 -189.23 -218.68 -265.64 -293.70 -300.41 -302.27 -303.39 -303.93 -304.09 -304.76 -305.71 -305.73 -305.33 -310.11 -334.09 -373.88 -398.16 -403.38 -402.89 -402.31 -402.95 -403.61 -403.50 -403.11 -402.95 -402.36 -392.84 -348.78 -275.05 -229.97 -220.26 -219.45 -219.46 -220.29 -222.03 -230.71 -254.49 -297.81 -368.96 -495.78 -712.52 -993.31 -1244.36 -1414.76 -1540.61 -1645.14 -1727.50 -1795.70 -1854.63 -1902.46 -1940.52 -1967.71 -1985.64 -1993.98 -1993.99 -2024.00 -2164.06 -2391.12 -2531.46 -2568.28 -2577.22 -2583.44 -2588.07 -2590.70 -2594.03 -2599.53 -2606.84 -2614.75 -2622.64 -2632.02 -2643.45 -2652.46 -2656.77
554.07 534.34 482.37 417.11 372.53 354.35 359.27 380.58 405.71 423.48 429.63 415.75 346.82 229.31 157.22 153.58 163.87 151.67 117.61 72.06 24.76 -14.23 -42.09 -61.23 -76.46 -93.74 -110.64 -118.15 -118.88 -120.58 -127.13 -138.00 -145.64 -142.67 -131.32 -119.53 -111.77 -107.93 -110.01 -116.14 -120.45 -124.55 -133.70 -146.46 -158.82 -170.16 -178.71 -181.08 -177.92 -173.67 -173.04 -175.17 -176.23 -174.67 -171.77 -169.79 -171.46 -176.06 -180.17 -181.52 -181.13 -180.23 -180.36 -187.36 -217.21 -265.34 -294.58 -302.00 -304.09 -304.87 -304.08 -302.80 -303.26 -304.95 -305.64 -305.83 -310.88 -334.48 -373.78 -397.76 -403.02 -403.17 -403.07 -403.63 -404.12 -403.83 -403.07 -402.68 -401.73 -392.13 -348.03 -274.55 -229.98 -220.70 -220.01 -220.00 -221.25 -223.44 -230.42 -249.17 -285.28 -346.65 -465.70 -678.63 -950.81 -1197.73 -1373.71 -1498.85 -1591.37 -1664.93 -1732.29 -1795.55 -1853.96 -1904.97 -1943.29 -1970.97 -1985.56 -1988.02 -2020.41 -2163.50 -2393.29 -2534.71 -2571.27 -2580.06 -2586.18 -2591.53 -2595.90 -2600.61 -2606.89 -2614.81 -2623.26 -2631.34 -2640.66 -2652.51 -2662.18 -2666.40
581.38 559.73 505.72 438.26 385.34 350.34 337.70 346.87 362.98 373.36 372.28 351.19 277.67 163.09 103.64 117.40 145.63 147.15 119.47 76.65 30.56 -10.09 -40.00 -59.41 -73.56 -87.78 -101.04 -106.95 -108.69 -113.86 -123.41 -132.93 -136.45 -131.31 -121.08 -111.98 -107.35 -107.74 -115.21 -126.55 -133.81 -138.39 -145.75 -154.87 -164.40 -173.74 -179.30 -178.80 -174.07 -168.87 -166.53 -166.49 -166.82 -166.05 -164.00 -162.58 -165.02 -170.93 -176.25 -178.80 -179.61 -179.61 -180.21 -187.45 -217.60 -266.31 -296.03 -303.15 -304.46 -304.61 -303.13 -300.92 -301.04 -303.43 -304.76 -305.15 -310.64 -334.72 -374.14 -397.83 -402.74 -402.99 -403.21 -404.07 -404.83 -404.33 -403.60 -403.66 -402.58 -392.45 -347.52 -273.48 -228.96 -220.05 -219.75 -219.99 -222.03 -226.29 -236.16 -256.74 -291.73 -345.04 -445.03 -634.18 -890.65 -1133.45 -1311.48 -1434.54 -1523.64 -1596.62 -1665.65 -1735.39 -1805.85 -1869.02 -1920.00 -1960.81 -1982.31 -1986.60 -2020.70 -2165.83 -2397.40 -2539.22 -2575.53 -2584.24 -2590.22 -2596.23 -2602.39 -2608.44 -2615.42 -2623.32 -2631.52 -2639.95 -2649.74 -2661.94 -2671.68 -2675.18
599.11 579.46 527.38 456.69 396.64 352.42 328.30 326.53 335.47 343.57 341.04 315.75 237.41 122.46 68.70 88.82 124.02 134.54 115.00 79.18 37.10 -5.08 -36.14 -53.75 -65.31 -77.67 -90.74 -98.83 -104.25 -112.82 -122.42 -126.99 -124.92 -118.12 -110.38 -105.98 -106.47 -112.29 -124.87 -140.09 -148.97 -152.91 -157.73 -163.55 -170.40 -176.58 -177.84 -174.20 -168.94 -164.05 -160.41 -157.96 -157.19 -157.30 -156.56 -155.66 -157.80 -163.96 -170.37 -174.63 -177.54 -179.54 -181.15 -188.39 -218.30 -267.00 -296.83 -303.51 -303.78 -303.28 -301.81 -299.81 -300.08 -302.76 -304.39 -304.67 -310.11 -334.50 -374.04 -397.34 -402.07 -402.44 -402.49 -403.30 -404.53 -404.44 -404.27 -404.89 -404.16 -393.55 -347.80 -273.36 -228.74 -219.53 -219.15 -219.32 -221.88 -228.33 -241.69 -264.92 -298.20 -342.74 -426.58 -596.59 -835.97 -1064.87 -1236.02 -1354.33 -1443.40 -1520.86 -1595.84 -1673.21 -1753.98 -1830.23 -1894.83 -1948.24 -1977.83 -1986.87 -2023.99 -2169.74 -2400.62 -2541.57 -2577.72 -2587.15 -2594.08 -2601.04 -2608.23 -2615.06 -2622.70 -2630.45 -2637.65 -2646.23 -2657.58 -2671.25 -2681.51 -2684.95
601.91 584.69 533.71 459.44 396.62 350.92 320.81 310.31 314.94 324.85 326.02 300.72 218.15 99.54 45.54 65.35 100.96 117.30 106.08 76.20 36.69 -4.90 -34.67 -50.62 -60.00 -70.96 -85.60 -98.29 -107.49 -115.05 -119.15 -117.35 -111.79 -105.24 -100.47 -101.14 -107.43 -117.94 -133.73 -150.93 -161.12 -165.06 -168.29 -172.12 -176.17 -177.66 -173.66 -167.18 -162.27 -158.43 -154.20 -150.44 -149.17 -149.96 -150.84 -151.17 -153.27 -158.80 -165.36 -171.21 -176.53 -180.44 -182.25 -188.44 -217.43 -265.85 -295.59 -302.26 -302.39 -301.83 -300.94 -299.72 -300.06 -302.33 -303.81 -304.19 -309.49 -333.71 -372.71 -395.84 -401.58 -402.88 -402.82 -403.04 -404.04 -404.16 -404.18 -404.90 -404.81 -394.34 -348.23 -273.81 -229.22 -219.52 -218.75 -218.84 -221.87 -228.78 -241.31 -262.11 -289.75 -326.58 -406.99 -577.75 -811.59 -1025.59 -1182.14 -1287.73 -1367.73 -1444.34 -1522.78 -1605.29 -1696.45 -1788.14 -1865.31 -1926.61 -1964.89 -1984.15 -2027.43 -2173.46 -2402.37 -2542.00 -2577.60 -2587.17 -2594.75 -2602.17 -2609.69 -2617.49 -2626.06 -2634.22 -2641.68 -2651.26 -2664.47 -2679.35 -2689.56 -2692.83
599.73 579.86 524.79 448.23 384.39 338.71 307.03 292.74 295.21 305.81 310.18 287.05 204.18 85.67 32.26 49.83 82.19 100.97 95.77 68.80 31.28 -5.27 -31.10 -46.74 -57.21 -69.38 -85.90 -101.06 -110.13 -112.64 -109.56 -103.17 -97.35 -93.35 -91.83 -96.81 -108.28 -122.43 -139.30 -156.48 -167.28 -171.46 -174.04 -176.55 -177.46 -174.48 -166.88 -158.66 -153.72 -150.85 -147.64 -145.01 -144.43 -145.66 -147.80 -150.09 -153.72 -159.06 -164.88 -171.10 -177.21 -181.25 -182.52 -187.67 -215.29 -262.45 -291.67 -298.96 -300.31 -300.53 -300.08 -299.22 -299.17 -300.40 -301.31 -302.05 -307.76 -331.88 -370.69 -394.48 -401.09 -402.62 -402.73 -402.83 -403.21 -403.02 -402.84 -403.13 -403.03 -392.94 -347.46 -273.76 -229.41 -219.55 -218.75 -218.82 -221.56 -226.75 -235.08 -250.34 -272.92 -306.60 -386.01 -555.98 -786.02 -991.42 -1137.32 -1235.74 -1308.67 -1378.74 -1455.64 -1543.37 -1645.24 -1750.35 -1836.30 -1899.48 -1944.99 -1977.74 -2028.54 -2174.57 -2400.82 -2538.79 -2573.77 -2582.83 -2590.04 -2597.40 -2605.48 -2614.81 -2624.43 -2633.31 -2642.06 -2652.66 -2666.21 -2680.88 -2690.79 -2693.93
581.90 557.92 498.33 419.93 352.84 304.93 275.22 263.66 266.88 275.69 278.68 259.02 190.67 95.83 57.50 77.77 108.30 126.88 124.34 100.72 67.67 37.04 14.31 -2.15 -17.30 -38.91 -66.26 -85.70 -92.63 -90.73 -83.50 -75.30 -70.41 -69.26 -71.57 -80.06 -94.16 -110.05 -129.11 -150.01 -163.53 -168.85 -172.05 -174.63 -174.10 -168.81 -159.57 -150.07 -143.99 -141.55 -141.23 -142.76 -145.11 -147.30 -149.59 -152.45 -157.34 -163.13 -168.60 -173.85 -178.22 -180.43 -180.47 -184.65 -209.88 -253.75 -281.94 -290.66 -293.79 -294.67 -293.71 -292.13 -291.28 -291.32 -291.43 -292.54 -299.20 -323.02 -360.47 -383.83 -390.12 -390.96 -390.98 -391.11 -391.37 -391.43 -391.21 -390.79 -390.28 -381.35 -340.05 -272.08 -230.73 -221.56 -221.21 -221.26 -222.52 -224.84 -229.24 -239.70 -259.50 -294.00 -366.79 -514.42 -725.36 -930.01 -1080.68 -1182.39 -1256.34 -1320.92 -1396.14 -1492.42 -1604.37 -1718.85 -1808.96 -1870.68 -1920.28 -1963.85 -2020.10 -2162.04 -2379.51 -2513.01 -2547.91 -2557.05 -2563.85 -2571.76 -2581.72 -2592.88 -2603.00 -2611.89 -2621.54 -2632.60 -2645.47 -2659.33 -2669.34 -2672.92
501.43 475.79 414.86 336.90 270.15 222.66 195.60 187.27 191.40 196.93 197.06 190.49 183.65 189.17 212.77 248.27 279.88 297.79 296.79 278.99 253.61 227.94 206.61 188.41 163.57 110.65 36.84 -8.26 -19.38 -16.79 -8.13 0.69 4.64 3.63 -2.15 -13.14 -26.74 -43.43 -76.29 -122.14 -151.55 -161.60 -166.31 -169.92 -170.01 -164.60 -154.87 -144.16 -136.02 -133.03 -135.18 -141.08 -147.80 -152.33 -154.86 -157.11 -161.71 -167.42 -172.45 -175.44 -176.32 -176.22 -175.55 -178.88 -198.29 -231.60 -253.91 -262.22 -265.85 -266.52 -264.58 -261.48 -259.04 -257.80 -257.64 -259.85 -266.91 -286.15 -314.66 -332.41 -337.42 -338.34 -338.50 -338.22 -338.06 -338.22 -338.04 -337.51 -337.39 -332.37 -307.18 -264.81 -238.40 -232.36 -232.38 -232.65 -232.85 -233.14 -235.50 -243.17 -260.82 -295.34 -356.15 -464.08 -633.68 -828.33 -989.07 -1101.45 -1184.91 -1252.25 -1329.04 -1435.42 -1560.81 -1681.66 -1771.57 -1832.68 -1884.31 -1933.66 -1991.14 -2114.62 -2298.81 -2413.95 -2447.22 -2457.88 -2465.44 -2474.39 -2486.58 -2500.16 -2511.46 -2520.62 -2530.74 -2542.04 -2554.28 -2567.26 -2577.19 -2581.18
366.25 340.15 278.51 202.97 144.57 105.77 81.40 70.90 70.97 72.51 72.49 89.45 183.62 351.89 472.79 528.66 561.30 580.08 582.85 572.67 556.97 538.50 519.65 499.27 460.84 359.28 209.30 119.09 97.69 98.26 105.87 113.74 116.15 113.35 105.29 92.92 80.58 61.19 4.13 -84.03 -140.35 -157.60 -163.22 -166.71 -167.16 -162.76 -154.11 -142.93 -132.81 -128.55 -130.82 -137.88 -146.90 -153.62 -157.28 -159.85 -163.95 -169.05 -173.08 -173.16 -170.66 -169.10 -169.16 -172.40 -183.27 -199.69 -210.86 -215.30 -216.82 -216.09 -213.93 -210.78 -207.57 -205.56 -205.81 -209.40 -215.58 -225.58 -238.40 -246.72 -249.99 -251.41 -252.02 -251.69 -251.11 -250.78 -250.37 -250.06 -250.38 -250.60 -251.06 -251.46 -251.07 -250.90 -250.91 -250.84 -250.78 -250.64 -252.20 -257.43 -270.79 -301.14 -350.44 -422.76 -542.75 -704.56 -854.64 -973.50 -1074.11 -1159.51 -1248.02 -1363.92 -1501.57 -1626.83 -1717.33 -1781.83 -1836.93 -1889.59 -1944.16 -2036.68 -2165.92 -2248.00 -2276.24 -2289.56 -2300.53 -2312.40 -2327.47 -2344.48 -2358.65 -2369.52 -2380.31 -2391.53 -2403.42 -2415.91 -2425.35 -2429.06
280.03 251.99 186.56 110.81 61.09 33.80 14.30 0.68 -6.27 -9.67 -9.96 22.49 179.76 446.32 621.38 682.57 712.57 733.80 743.69 743.53 738.67 729.73 715.78 695.11 648.23 515.81 318.34 200.75 174.10 173.49 177.55 180.76 179.75 174.78 164.62 150.93 138.78 117.30 46.20 -66.92 -139.16 -159.82 -164.06 -164.52 -162.91 -159.58 -153.81 -144.14 -133.53 -127.87 -128.40 -133.64 -141.64 -148.38 -152.63 -156.04 -160.19 -165.04 -168.04 -165.80 -161.86 -160.76 -163.03 -167.72 -174.03 -180.47 -184.07 -184.26 -182.97 -181.05 -179.41 -177.88 -175.61 -173.81 -174.95 -179.53 -184.65 -188.59 -191.78 -194.15 -196.40 -198.27 -198.87 -198.63 -198.17 -197.96 -197.92 -197.98 -198.17 -200.85 -216.32 -242.51 -258.27 -262.10 -262.32 -261.80 -261.84 -261.83 -262.54 -265.47 -273.08 -293.17 -328.34 -374.51 -452.04 -574.96 -702.26 -817.01 -932.34 -1046.08 -1158.68 -1285.36 -1429.11 -1559.88 -1657.13 -1727.56 -1785.69 -1838.08 -1888.80 -1962.32 -2057.29 -2116.87 -2140.83 -2157.18 -2173.91 -2192.83 -2214.46 -2237.05 -2256.05 -2270.11 -2282.48 -2294.14 -2306.19 -2318.59 -2327.14 -2330.08
271.67 239.98 166.62 84.01 35.04 14.12 0.44 -12.69 -23.73 -31.38 -33.98 0.75 172.55 460.27 641.40 694.21 717.18 739.33 756.00 766.35 772.05 771.93 764.49 748.23 702.40 562.86 352.95 228.31 200.83 199.51 199.05 195.56 189.38 181.05 168.40 153.35 140.90 119.79 47.38 -69.70 -144.11 -163.96 -165.50 -161.86 -156.66 -152.63 -148.60 -141.17 -131.93 -125.84 -125.02 -128.85 -135.17 -140.38 -144.05 -147.72 -151.71 -156.03 -158.18 -155.23 -151.72 -152.24 -156.90 -163.36 -169.37 -173.79 -174.73 -172.20 -169.41 -167.99 -167.16 -166.45 -165.49 -165.08 -167.60 -172.43 -176.28 -178.21 -179.20 -180.25 -182.54 -184.96 -185.54 -185.17 -184.91 -185.43 -186.63 -187.52 -187.58 -190.76 -209.38 -240.62 -259.35 -263.85 -264.47 -264.36 -264.75 -264.79 -264.74 -266.02 -269.31 -278.39 -295.98 -317.69 -356.77 -440.30 -546.69 -656.33 -781.90 -916.70 -1049.06 -1190.38 -1344.73 -1483.38 -1588.13 -1664.75 -1726.24 -1776.69 -1824.67 -1893.57 -1980.54 -2036.26 -2061.19 -2080.95 -2102.49 -2128.52 -2157.41 -2186.71 -2213.40 -2232.89 -2247.57 -2260.78 -2273.81 -2285.96 -2293.56 -2296.25
293.33 259.75 180.08 88.53 35.89 17.83 8.60 -3.24 -15.92 -26.19 -31.02 1.86 174.23 462.51 637.41 678.24 690.71 709.12 727.86 743.62 756.83 765.08 766.40 758.90 720.46 583.77 371.86 243.67 213.04 207.66 201.51 192.55 182.52 171.49 157.44 142.24 129.90 109.43 38.77 -75.10 -146.14 -164.30 -165.23 -160.40 -152.61 -145.16 -138.59 -131.52 -124.82 -120.08 -119.06 -122.94 -128.89 -132.75 -134.94 -138.02 -141.74 -145.35 -147.19 -145.19 -142.69 -144.11 -149.93 -157.50 -164.27 -168.79 -168.94 -165.07 -161.63 -161.07 -160.98 -160.27 -160.30 -161.85 -165.61 -169.77 -172.31 -173.58 -174.51 -175.86 -178.39 -181.13 -182.37 -182.40 -182.24 -182.99 -184.66 -186.04 -186.53 -190.44 -209.61 -240.92 -259.70 -264.15 -264.74 -264.78 -265.12 -265.15 -264.91 -265.13 -266.21 -269.79 -275.82 -278.97 -286.18 -329.10 -409.87 -512.07 -637.77 -777.92 -925.74 -1088.15 -1255.20 -1399.13 -1507.92 -1587.10 -1648.09 -1696.59 -1747.30 -1821.10 -1911.23 -1970.79 -1999.30 -2023.44 -2049.04 -2077.76 -2108.84 -2144.20 -2181.50 -2208.76 -2226.20 -2241.24 -2255.56 -2267.40 -2273.94 -2276.13
311.86 281.30 202.33 105.36 51.15 38.28 33.83 21.61 5.31 -8.12 -15.05 15.65 187.03 474.21 642.51 671.81 674.12 686.64 701.54 714.11 729.19 745.21 756.87 759.33 729.67 599.45 388.62 256.61 220.22 208.10 195.47 182.49 171.03 159.42 145.65 131.50 119.68 99.85 31.90 -76.64 -142.50 -159.43 -162.73 -160.27 -151.86 -139.83 -127.72 -118.88 -114.01 -111.18 -110.81 -115.21 -121.52 -125.02 -126.29 -128.76 -132.40 -136.09 -138.51 -138.09 -136.49 -137.70 -143.13 -150.69 -157.57 -161.96 -162.47 -159.46 -156.20 -155.44 -155.53 -155.10 -155.36 -157.69 -161.82 -165.46 -167.74 -169.30 -170.40 -172.24 -175.22 -178.13 -179.93 -180.52 -180.57 -181.60 -183.23 -184.39 -185.12 -189.64 -209.12 -240.59 -260.03 -265.07 -265.95 -265.81 -265.40 -265.19 -265.07 -264.62 -264.74 -267.19 -269.62 -264.48 -254.23 -264.92 -311.08 -393.12 -511.53 -657.95 -830.08 -1015.13 -1182.45 -1321.33 -1431.53 -1508.30 -1558.86 -1599.51 -1653.35 -1736.68 -1833.53 -1895.77 -1926.83 -1956.14 -1987.81 -2020.82 -2054.05 -2094.47 -2141.70 -2177.68 -2199.48 -2216.21 -2230.88 -2242.89 -2249.25 -2250.82
324.50 296.70 220.26 123.84 74.19 71.16 74.93 62.72 38.95 18.28 7.04 35.43 205.20 489.77 652.50 673.49 667.83 673.51 682.15 688.94 701.86 721.61 740.11 750.14 728.94 608.18 402.64 268.65 226.55 208.43 190.11 172.59 159.32 147.80 134.69 121.61 111.18 94.04 30.94 -72.11 -134.18 -150.95 -157.20 -158.12 -150.84 -135.81 -118.23 -106.69 -102.70 -101.81 -102.97 -108.04 -114.96 -118.94 -120.64 -123.56 -127.23 -131.03 -133.87 -134.39 -133.25 -133.93 -138.12 -143.94 -149.28 -153.16 -154.68 -153.98 -152.61 -152.25 -152.36 -152.12 -152.21 -154.25 -158.03 -161.46 -164.02 -165.37 -166.04 -168.69 -173.05 -176.20 -177.56 -177.98 -178.27 -179.57 -180.96 -181.96 -183.27 -188.47 -208.12 -239.79 -259.81 -265.05 -266.16 -266.27 -265.67 -265.55 -265.59 -264.85 -264.68 -266.57 -267.55 -259.45 -243.16 -238.13 -256.89 -310.84 -414.76 -571.68 -772.79 -977.03 -1136.69 -1257.75 -1361.27 -1435.46 -1475.56 -1502.60 -1545.53 -1627.23 -1730.61 -1799.71 -1837.32 -1872.46 -1910.43 -1951.44 -1991.37 -2035.36 -2086.49 -2129.52 -2158.14 -2178.42 -2195.30 -2209.43 -2216.38 -2217.46
322.76 293.34 218.89 134.63 100.87 111.73 125.16 114.75 83.22 51.45 32.05 56.99 223.09 502.39 661.85 680.11 668.41 665.18 666.56 669.34 680.10 699.80 720.03 734.19 720.38 609.55 411.87 279.93 235.92 214.68 192.41 170.14 153.45 140.68 127.52 115.14 107.01 93.99 36.10 -62.70 -123.26 -140.73 -149.15 -152.67 -146.95 -131.06 -110.61 -97.26 -94.09 -95.25 -98.57 -105.21 -113.59 -118.65 -121.32 -125.38 -129.60 -133.06 -135.13 -134.93 -133.38 -133.33 -135.77 -139.04 -142.25 -145.41 -147.60 -148.83 -149.81 -151.01 -151.81 -152.00 -152.37 -154.28 -158.05 -162.01 -164.64 -164.73 -164.28 -167.12 -172.14 -174.83 -175.24 -175.43 -175.92 -176.97 -177.93 -179.18 -181.39 -187.27 -206.96 -238.94 -259.54 -264.85 -265.56 -265.85 -265.95 -266.12 -266.04 -265.31 -264.91 -265.66 -265.40 -255.86 -237.70 -228.09 -234.19 -265.95 -347.17 -498.36 -711.85 -926.27 -1082.30 -1191.98 -1289.33 -1363.00 -1398.25 -1412.98 -1439.44 -1511.70 -1618.37 -1696.16 -1741.17 -1779.74 -1822.03 -1871.22 -1919.83 -1966.00 -2013.70 -2058.06 -2094.34 -2123.04 -2146.95 -2165.98 -2174.74 -2175.82
338.69 304.41 227.00 152.70 136.09 158.46 175.61 165.65 129.37 87.55 59.33 79.48 239.96 512.84 671.01 691.53 677.61 666.02 658.86 656.29 662.46 678.42 698.08 715.45 707.27 603.33 412.61 286.01 244.44 223.53 200.32 175.01 154.54 139.30 125.15 112.85 106.00 95.56 41.69 -53.04 -111.83 -129.80 -139.57 -144.40 -139.16 -123.40 -104.10 -92.08 -90.53 -93.91 -99.29 -107.54 -117.51 -124.33 -128.21 -132.95 -137.98 -141.29 -141.48 -139.06 -136.70 -136.18 -137.13 -138.51 -140.44 -142.78 -144.59 -146.17 -148.29 -151.55 -154.18 -155.31 -156.23 -158.35 -162.62 -167.74 -170.50 -169.48 -167.80 -169.21 -172.66 -174.11 -173.94 -174.21 -174.70 -175.31 -176.04 -177.16 -179.23 -185.37 -205.62 -238.30 -259.36 -264.63 -264.86 -265.18 -265.85 -266.22 -266.10 -265.63 -264.97 -264.75 -263.76 -253.48 -234.36 -223.29 -224.24 -241.34 -297.47 -421.71 -615.63 -823.02 -980.74 -1098.52 -1204.17 -1285.00 -1325.63 -1338.51 -1358.67 -1425.82 -1529.60 -1606.54 -1650.34 -1685.62 -1725.90 -1776.19 -1828.68 -1876.15 -1923.02 -1971.96 -2019.33 -2059.21 -2089.12 -2111.66 -2124.11 -2127.13
380.43 343.71 263.44 189.86 178.44 204.43 220.46 209.36 170.05 120.25 85.03 100.71 254.64 519.97 676.17 701.45 691.23 677.13 663.88 654.36 652.36 660.89 677.22 695.71 689.85 588.60 402.33 281.44 243.72 225.76 205.94 181.05 157.15 139.22 124.43 112.04 105.16 95.21 43.60 -47.44 -102.93 -119.16 -128.06 -132.24 -126.91 -113.06 -97.98 -89.47 -90.21 -96.22 -104.05 -113.84 -124.64 -133.00 -137.82 -141.97 -147.04 -150.61 -149.50 -145.48 -142.67 -142.30 -143.40 -144.88 -146.71 -147.99 -148.25 -148.74 -151.26 -156.61 -161.41 -163.61 -164.45 -166.10 -170.23 -175.22 -177.59 -176.08 -173.61 -173.55 -174.97 -175.17 -174.58 -174.35 -174.06 -174.44 -175.58 -176.77 -178.51 -184.80 -205.82 -238.92 -259.59 -264.27 -264.17 -264.57 -265.28 -265.54 -265.46 -265.55 -264.97 -264.24 -262.85 -252.25 -232.57 -220.69 -219.80 -229.04 -264.51 -354.31 -509.44 -690.02 -843.28 -978.08 -1106.66 -1207.98 -1263.53 -1279.47 -1296.96 -1360.15 -1456.71 -1524.57 -1560.52 -1590.76 -1625.37 -1668.74 -1718.41 -1769.04 -1824.81 -1885.12 -1944.39 -1994.23 -2028.34 -2052.00 -2066.33 -2070.84
423.01 391.96 317.39 239.14 219.91 244.29 261.99 251.00 207.69 148.87 104.91 114.30 260.67 517.80 670.63 699.18 694.99 685.06 672.15 658.67 649.19 648.43 657.38 672.88 666.61 565.97 382.96 266.94 232.41 217.04 200.79 178.15 152.37 132.74 119.18 108.92 103.88 94.88 44.22 -44.98 -97.06 -109.27 -114.73 -116.55 -111.39 -101.22 -91.17 -86.41 -89.78 -98.87 -109.72 -121.44 -132.81 -141.03 -144.58 -146.87 -151.60 -156.57 -156.72 -153.00 -150.41 -150.90 -153.70 -157.11 -159.66 -159.70 -157.77 -156.65 -159.27 -165.27 -170.65 -173.17 -173.52 -174.19 -177.27 -180.74 -182.26 -181.17 -179.10 -178.66 -178.69 -177.80 -176.56 -175.75 -174.94 -175.15 -176.80 -178.55 -180.32 -186.32 -207.14 -239.84 -259.73 -263.73 -263.37 -263.61 -264.04 -264.35 -264.68 -265.20 -264.71 -263.89 -262.22 -251.28 -231.26 -218.99 -217.69 -223.62 -244.26 -302.56 -418.78 -570.42 -721.49 -878.99 -1036.21 -1157.05 -1217.25 -1227.47 -1237.12 -1292.09 -1378.78 -1436.10 -1464.16 -1490.45 -1519.86 -1558.27 -1607.68 -1664.97 -1730.02 -1794.91 -1858.49 -1916.43 -1959.40 -1988.07 -2002.62 -2006.51
502.39 473.65 396.59 303.76 268.75 287.15 306.23 294.92 246.29 176.73 119.82 115.93 244.82 482.52 624.39 651.16 651.07 647.86 639.92 627.31 613.80 604.72 605.23 615.27 608.74 515.58 346.09 238.52 205.47 190.51 175.33 154.87 130.84 112.63 102.83 98.03 97.98 92.11 45.08 -38.71 -85.34 -92.11 -92.80 -91.68 -87.06 -81.01 -76.11 -75.62 -81.98 -93.67 -106.96 -121.15 -134.66 -142.15 -143.38 -144.77 -150.21 -157.23 -160.42 -158.88 -157.31 -158.49 -161.99 -166.76 -170.61 -170.52 -167.31 -164.88 -166.64 -171.42 -175.79 -178.36 -179.18 -179.38 -180.90 -182.81 -184.04 -184.41 -184.08 -184.43 -184.20 -182.91 -181.48 -180.77 -180.21 -180.14 -181.53 -183.19 -184.80 -190.21 -209.64 -240.53 -259.01 -262.15 -261.27 -261.17 -261.59 -262.55 -263.64 -264.09 -263.38 -262.50 -260.48 -249.71 -230.18 -217.80 -216.08 -220.29 -233.15 -273.15 -365.17 -504.13 -667.05 -845.82 -1016.01 -1135.82 -1183.27 -1180.31 -1178.62 -1220.66 -1294.75 -1341.85 -1362.19 -1384.33 -1409.83 -1442.94 -1490.64 -1553.21 -1622.65 -1687.41 -1750.66 -1812.60 -1866.84 -1906.48 -1924.59 -1928.32
628.66 590.20 494.11 382.01 330.70 338.33 351.70 335.40 281.01 203.47 133.61 105.60 181.74 347.10 446.27 461.93 461.13 460.83 456.94 447.53 434.25 421.73 417.07 422.62 420.86 361.26 247.17 171.57 144.10 128.49 112.58 94.48 77.14 65.49 61.13 62.35 68.12 69.09 39.81 -15.57 -43.49 -42.99 -39.83 -36.47 -32.52 -30.54 -30.94 -34.57 -43.06 -55.71 -71.26 -93.65 -119.71 -132.84 -134.76 -138.04 -145.30 -153.20 -157.91 -158.84 -159.12 -159.95 -162.07 -167.13 -172.95 -174.50 -171.79 -168.93 -169.27 -172.10 -175.32 -177.98 -179.26 -179.14 -179.29 -179.81 -181.35 -185.23 -189.80 -192.81 -193.60 -193.05 -192.09 -191.55 -191.34 -191.05 -191.44 -192.48 -194.20 -198.89 -214.92 -240.71 -255.89 -257.90 -256.33 -255.71 -256.18 -257.59 -259.30 -259.87 -258.97 -257.69 -255.37 -245.71 -228.50 -217.61 -216.06 -219.35 -230.78 -269.82 -360.70 -503.76 -679.20 -860.39 -1018.62 -1120.76 -1152.68 -1139.47 -1126.06 -1149.35 -1202.84 -1236.64 -1248.34 -1263.70 -1283.16 -1305.43 -1343.21 -1403.30 -1472.46 -1540.63 -1610.17 -1677.35 -1739.61 -1789.98 -1813.94 -1818.58
749.09 701.96 589.21 462.03 398.95 393.91 392.35 362.71 301.00 220.22 141.40 85.69 84.60 133.74 163.14 161.21 155.80 152.67 148.13 140.97 131.05 120.07 114.35 118.18 125.94 120.03 96.24 74.98 59.37 43.85 28.16 14.20 5.40 1.95 2.86 8.57 18.88 29.42 31.29 25.15 26.60 33.92 37.99 41.07 43.55 42.24 37.89 31.95 22.95 10.07 -8.59 -44.52 -92.56 -118.18 -123.65 -129.27 -137.51 -144.74 -149.03 -151.48 -153.92 -154.55 -154.95 -159.77 -167.31 -171.58 -171.57 -170.38 -170.12 -170.90 -172.58 -174.75 -175.39 -174.09 -172.61 -171.87 -174.22 -182.99 -194.69 -201.60 -203.95 -204.89 -204.62 -203.77 -203.57 -203.58 -203.45 -203.75 -205.59 -209.59 -221.02 -239.27 -250.04 -251.17 -249.06 -247.73 -248.27 -249.77 -251.47 -252.28 -251.62 -250.37 -248.16 -240.14 -226.68 -218.60 -217.59 -220.57 -232.54 -275.79 -377.92 -536.52 -715.72 -877.94 -1010.31 -1094.31 -1119.15 -1102.79 -1082.42 -1087.87 -1114.43 -1128.89 -1130.18 -1134.87 -1143.56 -1155.07 -1180.11 -1228.32 -1292.72 -1366.99 -1448.63 -1524.88 -1589.98 -1644.68 -1675.52 -1683.97
834.02 782.52 662.18 530.13 461.73 441.97 417.92 369.95 301.64 221.03 139.44 71.74 29.61 10.15 -2.97 -15.81 -26.16 -34.68 -43.02 -50.49 -57.95 -66.27 -71.41 -69.02 -57.36 -32.45 -1.57 11.18 4.28 -9.32 -22.14 -30.48 -31.90 -28.86 -23.15 -13.66 -1.04 15.68 38.05 61.79 77.66 85.06 86.94 87.76 87.93 84.08 77.05 70.07 62.02 50.45 30.94 -12.79 -74.22 -108.03 -115.76 -121.73 -128.85 -133.82 -137.05 -140.98 -145.74 -147.30 -146.98 -151.03 -159.16 -165.47 -168.12 -169.65 -170.95 -171.81 -172.63 -172.95 -171.35 -168.35 -165.66 -164.28 -166.59 -177.46 -193.37 -203.29 -207.14 -209.29 -209.70 -209.04 -208.96 -209.33 -209.15 -208.98 -210.75 -214.55 -223.45 -236.92 -245.05 -246.11 -244.25 -242.64 -243.22 -244.75 -246.36 -247.24 -247.07 -246.64 -244.84 -237.77 -226.42 -219.92 -219.11 -222.14 -233.38 -274.10 -381.79 -557.93 -738.28 -876.65 -985.69 -1061.09 -1086.70 -1071.90 -1050.43 -1046.85 -1056.15 -1054.80 -1044.58 -1038.30 -1037.88 -1044.31 -1060.26 -1093.44 -1148.43 -1223.45 -1313.41 -1399.76 -1467.78 -1522.36 -1557.40 -1569.61
849.48 803.63 692.89 566.53 492.63 453.89 409.09 354.23 291.91 218.57 141.89 78.48 33.31 -0.30 -25.28 -43.23 -57.94 -71.83 -84.63 -94.28 -101.48 -108.34 -113.95 -115.40 -107.34 -78.42 -36.33 -15.38 -18.29 -28.38 -36.25 -37.80 -32.15 -23.24 -12.71 -0.21 12.53 30.54 57.94 86.74 100.87 102.66 100.46 98.23 95.53 89.17 80.21 72.97 67.18 59.53 42.63 -2.29 -66.98 -102.82 -110.60 -115.28 -120.54 -123.18 -125.14 -130.20 -136.80 -140.17 -140.53 -143.39 -150.30 -156.79 -160.86 -164.73 -168.87 -172.49 -174.35 -172.77 -168.50 -163.85 -160.39 -158.22 -159.23 -169.68 -187.00 -198.57 -203.59 -206.55 -207.89 -208.45 -209.28 -210.24 -210.28 -209.93 -210.91 -214.32 -222.97 -235.45 -242.80 -244.06 -242.84 -241.60 -242.17 -243.71 -245.43 -245.96 -245.85 -246.05 -244.62 -238.10 -227.32 -221.02 -220.36 -223.73 -233.38 -266.73 -370.81 -558.05 -742.31 -867.21 -963.02 -1036.31 -1062.67 -1048.02 -1025.71 -1016.36 -1016.44 -1006.85 -989.34 -975.73 -967.94 -969.22 -980.07 -1005.69 -1051.58 -1116.46 -1203.47 -1298.28 -1376.10 -1435.51 -1472.09 -1484.68
805.08 769.23 672.70 549.23 465.46 410.58 358.80 319.92 286.82 237.49 172.43 113.17 68.16 31.26 1.17 -21.65 -40.76 -59.61 -76.59 -89.45 -98.53 -105.88 -113.15 -119.31 -116.92 -92.13 -51.95 -30.39 -30.57 -36.36 -38.88 -34.13 -21.91 -6.83 8.52 22.92 34.68 51.10 77.06 102.78 110.73 106.25 100.72 95.99 90.19 81.62 72.53 66.86 64.22 61.22 48.21 4.08 -61.72 -97.72 -104.30 -107.40 -111.78 -114.01 -115.57 -120.92 -128.44 -133.79 -135.78 -137.50 -141.85 -147.19 -152.19 -158.01 -164.63 -170.94 -173.98 -171.47 -165.82 -160.24 -155.83 -152.72 -153.12 -163.39 -180.89 -192.95 -198.74 -202.67 -205.52 -207.44 -209.12 -210.86 -211.35 -210.91 -210.88 -213.52 -222.24 -235.17 -242.63 -243.66 -242.86 -242.81 -243.74 -245.09 -246.45 -246.34 -245.93 -245.82 -244.39 -238.37 -228.19 -222.32 -222.22 -226.30 -235.55 -264.80 -362.66 -548.80 -736.74 -863.11 -954.16 -1021.36 -1043.39 -1027.14 -1003.13 -987.42 -979.43 -964.76 -943.48 -924.90 -911.92 -908.55 -916.23 -938.70 -977.17 -1028.17 -1102.05 -1196.18 -1286.75 -1358.75 -1400.05 -1413.40
746.26 710.27 613.93 487.82 394.32 334.04 294.54 286.12 290.71 271.04 219.11 160.05 110.49 67.38 32.26 6.95 -12.92 -33.51 -53.97 -71.48 -83.93 -92.31 -101.66 -112.82 -116.26 -96.56 -59.80 -38.72 -36.75 -38.85 -37.19 -28.42 -12.83 5.89 25.56 43.58 56.68 69.92 89.78 109.03 111.50 103.86 96.97 90.55 82.82 74.29 67.72 64.85 64.93 65.22 54.99 11.13 -56.55 -93.04 -98.20 -99.94 -104.00 -107.04 -109.58 -115.22 -123.08 -130.09 -134.33 -136.33 -138.95 -142.58 -147.16 -153.89 -161.94 -169.02 -171.51 -167.64 -161.09 -155.45 -150.75 -147.92 -149.47 -160.13 -177.12 -188.86 -194.97 -200.26 -204.93 -208.20 -210.53 -212.42 -212.89 -212.36 -211.90 -213.74 -222.01 -235.47 -243.51 -244.19 -243.52 -244.45 -245.60 -246.24 -246.95 -246.71 -246.29 -246.05 -244.74 -238.73 -228.89 -224.22 -225.30 -229.97 -239.98 -268.28 -354.00 -520.45 -708.31 -853.58 -951.39 -1009.31 -1024.34 -1006.68 -980.62 -960.20 -948.68 -932.22 -906.33 -880.62 -863.53 -858.53 -864.95 -884.35 -916.18 -957.69 -1020.23 -1108.26 -1206.48 -1291.35 -1338.07 -1351.93
676.04 641.17 545.93 417.40 318.25 261.36 240.62 256.79 284.33 282.70 244.62 194.98 147.39 99.71 59.88 33.66 16.71 -1.96 -25.15 -47.26 -62.83 -73.69 -86.78 -102.05 -108.92 -92.19 -58.13 -38.12 -34.86 -34.97 -31.46 -21.29 -5.46 13.88 36.93 59.43 74.93 84.56 96.55 108.64 107.62 99.30 92.04 84.75 77.40 71.95 69.70 70.12 72.31 73.57 63.18 17.88 -52.22 -90.03 -94.73 -95.65 -99.92 -104.40 -108.74 -115.14 -123.04 -131.01 -137.29 -140.65 -142.90 -145.29 -148.70 -154.45 -161.46 -166.84 -167.37 -161.92 -154.65 -149.41 -145.61 -143.97 -146.97 -158.15 -175.20 -187.33 -193.79 -199.71 -205.24 -209.57 -212.23 -213.57 -213.73 -213.23 -212.98 -214.68 -222.27 -235.55 -244.16 -245.32 -244.79 -245.53 -246.40 -246.46 -246.76 -246.48 -245.89 -245.84 -245.35 -239.47 -229.08 -224.92 -227.33 -232.69 -243.88 -272.94 -346.06 -485.21 -663.44 -826.78 -937.35 -991.70 -1003.29 -985.18 -957.47 -935.53 -924.08 -907.12 -876.84 -844.84 -823.82 -816.69 -820.67 -836.10 -864.47 -905.15 -965.83 -1048.91 -1145.66 -1235.11 -1285.02 -1299.18
585.38 557.12 473.75 355.10 262.58 211.87 200.15 224.97 257.26 262.11 239.97 211.47 177.59 133.01 90.59 61.36 44.58 25.57 -1.83 -27.70 -45.93 -61.12 -78.37 -94.30 -98.78 -80.53 -47.57 -28.63 -24.97 -24.31 -20.80 -11.49 2.82 21.01 45.10 69.47 84.97 90.88 96.90 104.51 102.34 94.21 86.98 80.38 75.71 75.07 77.90 81.88 85.24 85.00 72.08 24.70 -46.96 -86.47 -92.69 -94.63 -100.23 -106.40 -112.49 -120.02 -128.04 -135.85 -142.47 -146.35 -148.49 -150.49 -153.01 -156.07 -159.31 -161.64 -160.88 -156.19 -150.13 -145.40 -142.42 -142.08 -146.34 -158.25 -176.13 -189.35 -196.03 -201.17 -206.11 -210.28 -212.60 -213.29 -213.11 -212.51 -212.47 -214.73 -222.50 -235.55 -244.40 -246.41 -246.14 -246.14 -246.39 -246.37 -246.48 -246.05 -245.26 -245.49 -246.02 -240.28 -228.67 -223.39 -226.03 -232.37 -244.92 -276.58 -345.07 -463.46 -621.99 -785.82 -906.99 -966.58 -980.41 -963.69 -935.08 -912.27 -900.03 -881.54 -848.62 -814.49 -792.19 -782.74 -783.69 -796.60 -824.24 -865.95 -926.63 -1006.75 -1097.95 -1184.52 -1236.19 -1252.07
518.12 487.81 408.70 304.93 224.08 178.33 169.77 193.34 219.58 224.30 215.43 207.92 193.11 160.13 119.86 86.51 64.60 40.02 5.36 -25.68 -46.37 -63.40 -79.50 -90.27 -87.82 -65.53 -32.38 -13.92 -9.89 -8.69 -6.17 0.52 12.29 28.93 51.66 74.47 87.76 90.39 92.62 98.40 97.21 90.26 83.61 78.88 78.08 82.08 89.19 96.22 99.89 97.23 81.65 32.74 -39.88 -81.70 -91.55 -96.20 -103.28 -110.87 -118.43 -126.52 -133.61 -139.11 -143.07 -145.82 -148.29 -151.05 -153.67 -154.47 -154.06 -154.26 -153.63 -151.36 -148.02 -144.31 -142.02 -143.10 -148.79 -161.82 -180.54 -193.91 -200.05 -204.21 -208.56 -211.81 -212.64 -211.83 -210.69 -209.52 -209.35 -212.55 -221.95 -235.94 -244.64 -246.29 -245.76 -244.99 -244.34 -244.51 -244.97 -245.18 -245.40 -246.30 -246.90 -240.70 -228.33 -221.75 -223.51 -230.00 -243.27 -277.68 -348.04 -456.72 -596.22 -746.94 -869.91 -935.80 -954.04 -939.27 -909.58 -885.43 -871.84 -850.83 -815.65 -782.15 -761.41 -752.14 -753.18 -767.25 -795.16 -834.05 -889.61 -964.71 -1052.24 -1138.71 -1191.71 -1208.16
500.18 464.88 381.24 279.57 200.18 153.90 144.02 161.06 178.99 182.83 182.47 188.99 191.27 173.74 140.00 104.04 74.89 42.26 -0.16 -36.54 -57.30 -70.23 -79.38 -82.64 -74.91 -50.77 -17.89 0.44 6.51 10.35 12.80 16.06 23.97 38.66 59.03 78.58 88.75 88.57 88.78 94.37 94.62 89.20 84.23 82.43 85.10 91.67 101.00 110.09 113.68 108.81 91.25 41.57 -32.22 -77.20 -91.15 -98.48 -106.51 -114.99 -123.03 -130.11 -134.71 -136.35 -136.65 -138.06 -141.61 -145.91 -148.88 -148.71 -147.08 -147.44 -148.52 -148.97 -147.92 -145.60 -144.27 -145.91 -152.33 -166.54 -185.86 -198.54 -203.79 -207.46 -211.25 -213.42 -212.88 -210.14 -206.89 -204.32 -204.14 -208.84 -220.51 -235.90 -244.32 -244.76 -243.15 -241.57 -240.74 -241.72 -242.98 -244.09 -245.64 -247.02 -246.79 -239.77 -227.25 -220.65 -222.01 -227.77 -240.20 -273.72 -344.87 -449.74 -572.58 -703.50 -817.91 -886.42 -912.06 -903.69 -876.78 -853.10 -838.80 -815.41 -778.74 -746.61 -728.59 -722.07 -724.30 -738.40 -765.28 -800.85 -849.86 -916.87 -1001.05 -1089.28 -1144.47 -1161.95
504.29 468.32 382.78 279.10 196.95 143.36 121.11 124.09 133.77 141.19 151.95 170.28 184.40 177.56 149.00 111.37 76.05 37.89 -5.89 -41.16 -58.43 -64.96 -66.81 -65.60 -58.08 -36.50 -4.83 13.99 23.02 31.37 36.39 37.63 41.18 53.41 71.73 87.34 92.74 89.45 88.77 94.40 95.48 91.57 89.22 90.68 95.55 102.95 113.24 123.38 126.41 119.81 100.37 49.22 -26.47 -73.98 -90.13 -98.56 -106.49 -115.39 -123.44 -128.73 -130.61 -129.48 -127.76 -128.68 -132.88 -137.67 -140.49 -140.82 -140.65 -143.10 -147.16 -150.37 -151.04 -149.83 -148.72 -149.61 -155.51 -170.00 -189.72 -201.98 -206.39 -209.45 -212.13 -213.25 -212.27 -208.27 -202.47 -198.29 -198.77 -205.29 -218.30 -233.78 -241.61 -241.34 -238.86 -236.96 -236.99 -239.20 -241.31 -243.07 -245.14 -246.41 -245.48 -238.06 -225.68 -219.32 -220.24 -225.05 -235.95 -263.21 -322.67 -412.65 -517.68 -631.29 -732.28 -802.02 -841.80 -848.93 -833.68 -816.06 -802.01 -776.56 -739.86 -709.29 -693.91 -690.76 -694.77 -708.40 -733.40 -766.18 -808.51 -866.85 -946.47 -1032.70 -1089.03 -1108.50
499.62 466.37 386.69 290.16 212.42 152.99 114.64 100.49 101.95 115.40 140.33 171.43 195.12 197.21 173.74 133.63 90.70 49.65 12.98 -13.37 -25.74 -28.54 -26.10 -23.00 -18.58 -3.55 21.84 37.54 46.85 58.31 67.56 70.65 73.33 84.28 100.37 110.81 109.87 102.27 97.68 98.14 96.92 93.80 93.66 97.72 103.84 111.14 121.41 131.89 134.46 125.99 103.87 50.83 -25.05 -72.33 -88.06 -95.38 -101.42 -109.67 -118.63 -123.92 -124.52 -122.19 -120.05 -121.10 -125.12 -129.73 -132.97 -135.22 -137.65 -142.16 -148.91 -154.56 -156.67 -156.10 -154.66 -154.53 -158.73 -171.55 -190.47 -202.57 -206.13 -207.58 -208.53 -208.87 -208.00 -203.63 -196.72 -192.01 -192.94 -199.68 -212.37 -226.97 -234.23 -234.44 -232.85 -231.80 -232.56 -235.21 -237.79 -240.12 -242.52 -243.45 -241.75 -234.18 -222.22 -215.89 -216.23 -220.28 -228.84 -246.18 -282.42 -341.43 -420.02 -513.00 -598.18 -671.00 -733.09 -768.19 -776.84 -774.99 -767.62 -744.24 -710.76 -683.44 -668.97 -666.35 -672.26 -686.11 -708.31 -737.73 -774.33 -826.07 -902.08 -986.13 -1039.25 -1056.48
510.38 481.14 409.96 321.79 251.11 195.03 150.69 125.60 121.46 138.60 172.73 215.38 256.27 282.15 274.61 236.56 188.40 146.32 116.57 97.10 87.05 85.03 89.15 93.61 94.25 95.69 100.46 102.25 106.74 118.36 131.56 139.91 146.43 158.23 171.11 175.04 167.88 153.93 132.53 106.24 88.53 81.55 82.50 89.52 97.23 103.80 112.55 121.53 122.17 109.93 84.63 35.34 -30.42 -71.27 -84.72 -89.86 -93.76 -101.06 -111.07 -118.05 -118.97 -115.83 -113.22 -114.25 -118.81 -124.68 -129.00 -132.41 -136.30 -142.24 -150.56 -157.43 -160.33 -160.20 -159.04 -158.85 -161.86 -171.48 -186.12 -195.50 -197.22 -196.65 -195.82 -195.19 -194.10 -190.35 -184.67 -180.91 -181.46 -186.58 -197.58 -210.91 -218.01 -219.55 -219.72 -219.85 -221.11 -223.73 -226.36 -228.81 -231.22 -231.80 -229.88 -222.79 -211.39 -205.07 -205.23 -208.56 -214.06 -222.56 -238.39 -265.35 -308.50 -368.00 -431.77 -504.72 -589.85 -664.43 -710.53 -737.61 -753.85 -743.36 -715.86 -692.55 -679.11 -675.32 -681.04 -693.13 -710.41 -736.36 -771.67 -821.19 -892.56 -972.16 -1020.73 -1034.94
537.82 514.48 452.37 367.66 300.03 252.93 213.79 186.54 180.44 199.06 236.71 287.44 351.90 415.01 433.41 406.30 362.50 322.73 294.57 275.44 265.10 262.84 266.62 271.55 268.25 250.29 222.55 201.92 198.78 210.17 227.74 242.93 254.30 265.74 272.91 269.03 256.44 235.77 188.16 117.07 70.66 56.37 57.72 67.15 76.16 81.80 87.72 92.24 87.78 70.22 43.15 4.16 -42.56 -72.36 -82.97 -85.79 -87.65 -93.74 -104.25 -113.65 -116.48 -113.37 -109.73 -110.05 -116.05 -124.47 -129.57 -131.94 -135.10 -141.44 -150.25 -157.30 -160.55 -161.30 -161.16 -161.60 -164.28 -170.13 -177.65 -181.19 -179.72 -177.57 -176.08 -174.71 -172.93 -170.09 -166.50 -164.21 -164.53 -168.43 -177.56 -189.17 -196.16 -199.05 -200.52 -201.47 -203.41 -206.12 -208.37 -210.41 -212.05 -212.29 -211.21 -205.16 -194.43 -188.14 -187.88 -190.26 -193.46 -197.03 -202.59 -211.61 -228.47 -257.05 -298.54 -361.40 -450.08 -550.25 -634.91 -701.93 -757.54 -769.17 -748.20 -727.47 -715.55 -711.79 -716.51 -726.28 -739.73 -762.57 -798.13 -847.60 -912.52 -982.50 -1026.91 -1040.87
519.28 504.22 454.66 375.95 312.08 273.43 242.15 218.49 214.22 234.47 272.97 324.67 400.00 485.58 523.62 511.77 481.41 450.30 424.91 405.94 396.10 392.96 392.57 392.73 384.38 354.30 306.75 271.92 263.56 276.05 299.16 320.23 332.67 338.27 335.29 322.27 305.85 283.82 224.27 128.15 65.15 47.30 48.39 56.67 63.55 66.48 68.42 67.27 57.30 36.43 10.36 -20.65 -55.65 -78.70 -87.38 -88.43 -88.24 -92.68 -102.90 -113.89 -119.07 -117.63 -114.07 -114.17 -121.50 -131.73 -136.61 -136.70 -137.49 -142.34 -150.27 -156.70 -159.47 -160.58 -161.49 -162.51 -164.66 -167.91 -170.79 -169.88 -165.76 -162.40 -160.43 -158.67 -156.80 -155.09 -153.41 -152.37 -153.02 -157.06 -165.68 -176.63 -183.85 -187.52 -189.91 -191.63 -194.00 -196.29 -197.47 -198.82 -199.95 -199.97 -199.45 -194.29 -184.24 -178.02 -177.15 -178.57 -180.87 -182.66 -184.11 -186.59 -192.56 -205.91 -231.66 -276.54 -347.10 -443.04 -546.56 -646.66 -736.18 -766.91 -752.38 -734.21 -723.63 -719.84 -722.87 -731.18 -743.98 -764.25 -796.90 -842.63 -900.13 -960.85 -1001.45 -1015.46
463.61 451.68 409.30 341.15 288.68 259.58 235.24 216.13 214.53 235.47 272.73 321.07 395.26 485.68 534.09 536.57 521.96 504.71 489.77 477.72 469.74 462.72 454.60 445.02 429.54 396.60 347.20 311.42 303.65 318.82 344.79 364.57 370.24 363.78 347.04 325.01 307.82 290.08 233.13 134.67 69.55 51.76 51.12 55.07 57.80 56.88 53.57 46.86 34.57 15.89 -5.95 -33.26 -65.52 -86.87 -94.65 -95.27 -94.88 -98.57 -107.44 -117.49 -123.25 -123.59 -121.96 -123.70 -132.02 -142.50 -147.09 -145.86 -144.33 -146.53 -152.00 -156.48 -157.51 -157.31 -157.98 -159.29 -161.42 -164.40 -166.60 -164.07 -158.32 -153.80 -150.88 -148.92 -147.94 -147.52 -147.24 -147.43 -148.85 -153.11 -161.73 -173.26 -181.49 -185.78 -188.85 -191.13 -193.01 -194.36 -195.18 -196.60 -197.86 -197.55 -196.68 -192.00 -182.58 -176.84 -175.87 -176.44 -177.87 -178.83 -178.87 -179.13 -181.17 -187.91 -203.78 -233.08 -282.98 -360.42 -460.53 -578.41 -690.08 -734.41 -726.26 -711.18 -702.51 -698.85 -700.21 -707.70 -721.05 -739.12 -765.66 -804.39 -854.53 -907.15 -943.11 -956.18
422.29 406.60 361.84 301.87 261.01 239.52 221.31 207.00 206.68 226.00 260.67 305.86 376.82 466.44 519.27 532.47 533.63 534.07 535.59 533.45 523.30 507.06 490.88 474.45 455.73 425.21 380.84 350.59 348.58 366.54 387.40 394.78 386.01 365.89 337.39 309.31 293.31 280.21 226.99 130.23 65.80 47.72 45.04 46.61 47.94 44.69 36.11 24.31 11.85 -1.41 -17.03 -40.97 -71.65 -92.38 -100.70 -103.51 -105.72 -109.70 -115.82 -122.09 -126.02 -127.35 -128.39 -132.16 -140.12 -149.45 -154.38 -153.71 -151.40 -151.34 -153.70 -155.24 -153.85 -151.33 -150.54 -151.91 -154.72 -158.25 -160.89 -158.65 -153.05 -148.28 -144.96 -143.09 -142.95 -143.68 -144.77 -146.42 -148.97 -153.26 -161.54 -173.39 -182.40 -187.09 -190.09 -191.98 -192.71 -193.25 -194.49 -196.67 -198.61 -198.64 -197.31 -192.01 -182.49 -177.17 -176.37 -176.72 -177.46 -177.75 -177.77 -177.62 -177.70 -180.09 -189.56 -210.45 -247.90 -309.45 -399.08 -521.75 -644.67 -696.68 -693.02 -681.15 -675.17 -673.99 -677.33 -685.89 -699.33 -715.94 -738.54 -772.14 -815.51 -859.09 -887.03 -896.45
405.10 385.30 335.69 276.86 239.43 220.20 206.56 197.74 199.74 217.28 247.79 289.05 355.86 441.98 494.80 515.95 534.08 552.51 565.98 567.53 552.17 527.89 506.24 487.62 471.25 446.84 410.04 387.52 391.76 409.88 420.36 410.34 384.96 354.06 319.85 290.21 275.25 263.11 210.13 113.86 49.92 31.29 27.80 30.13 32.58 28.74 17.35 2.90 -9.10 -17.95 -27.99 -47.79 -75.70 -95.41 -104.85 -110.49 -115.11 -119.54 -123.31 -125.29 -126.55 -128.40 -131.42 -135.95 -141.96 -149.29 -154.76 -155.40 -153.06 -151.53 -151.61 -150.84 -147.48 -143.17 -141.31 -142.67 -145.66 -148.95 -152.15 -151.92 -148.42 -144.96 -142.66 -141.30 -141.46 -143.04 -145.40 -148.43 -152.19 -156.82 -164.88 -176.37 -184.69 -188.58 -190.39 -191.24 -191.58 -191.95 -193.33 -195.99 -198.71 -199.84 -198.53 -192.11 -181.73 -175.90 -175.10 -175.88 -176.70 -176.86 -177.06 -177.08 -176.74 -177.23 -182.87 -198.16 -226.27 -274.54 -352.33 -471.87 -601.55 -660.08 -659.93 -650.72 -647.42 -649.89 -657.65 -669.37 -683.33 -700.05 -722.16 -752.03 -787.75 -822.43 -843.63 -850.13
401.10 378.70 324.42 261.48 222.35 203.77 193.51 189.26 194.21 209.83 233.17 266.35 327.44 411.44 466.08 494.17 524.36 553.37 569.37 568.14 550.40 525.10 501.00 480.98 467.48 450.05 422.48 408.85 418.05 435.25 439.30 417.91 379.30 339.19 302.92 274.76 259.80 244.83 188.95 92.30 29.26 11.13 8.10 11.10 13.66 9.20 -2.07 -15.27 -25.65 -32.22 -38.82 -54.66 -79.61 -98.23 -107.33 -112.38 -116.44 -120.86 -123.86 -123.61 -123.50 -126.28 -130.45 -134.24 -137.74 -143.25 -149.06 -150.60 -147.61 -144.49 -143.22 -141.67 -138.19 -134.47 -132.90 -133.93 -136.52 -139.64 -143.55 -145.68 -144.90 -143.36 -142.62 -142.33 -143.30 -145.72 -148.50 -151.80 -156.17 -161.56 -170.01 -180.93 -187.68 -189.74 -189.90 -190.07 -190.91 -191.69 -193.20 -195.89 -198.35 -199.79 -198.92 -192.16 -181.09 -174.58 -173.90 -175.05 -176.22 -176.65 -176.69 -176.62 -176.52 -176.65 -180.11 -190.77 -211.54 -248.60 -312.90 -425.29 -558.55 -623.01 -626.69 -620.64 -620.38 -626.34 -638.14 -653.72 -670.54 -689.86 -713.20 -740.71 -771.56 -800.61 -817.25 -821.89
410.52 385.28 324.97 255.65 214.23 198.02 190.92 187.42 189.63 198.71 212.84 236.72 292.95 378.40 438.47 471.35 502.73 529.99 541.27 536.16 520.43 499.31 476.37 457.32 446.81 435.36 416.12 409.61 422.02 440.40 446.12 424.08 379.65 332.50 295.02 268.52 252.57 233.75 174.30 76.23 13.13 -4.81 -7.46 -5.30 -4.34 -9.56 -19.17 -28.85 -36.43 -41.54 -46.44 -60.19 -83.96 -101.60 -108.01 -108.85 -109.66 -113.00 -116.37 -116.63 -116.50 -119.60 -123.60 -126.26 -129.51 -135.80 -142.13 -143.38 -139.26 -134.46 -131.72 -130.20 -128.60 -127.38 -126.88 -127.70 -130.23 -134.04 -138.60 -141.94 -143.04 -143.17 -143.89 -144.98 -146.83 -149.47 -151.94 -154.96 -159.67 -165.88 -174.76 -184.85 -190.15 -190.85 -190.20 -190.29 -191.34 -192.60 -194.77 -197.43 -199.02 -199.68 -198.77 -192.16 -181.22 -174.94 -174.48 -175.41 -176.51 -177.26 -177.27 -177.11 -176.96 -176.88 -178.78 -185.68 -201.59 -231.48 -285.03 -388.00 -517.94 -584.90 -592.27 -589.29 -591.84 -600.98 -616.62 -636.88 -659.25 -683.64 -710.50 -740.59 -773.35 -801.87 -815.78 -818.82
425.26 398.09 334.41 261.97 221.28 209.21 204.71 197.87 190.38 187.50 191.66 208.68 262.43 350.17 414.73 447.92 471.97 488.48 492.79 487.90 477.95 462.31 442.17 426.24 419.78 413.08 398.92 395.18 407.66 427.97 438.86 421.49 378.99 331.97 296.16 272.54 256.81 234.18 170.40 69.87 5.52 -13.48 -17.14 -17.05 -18.28 -23.36 -30.77 -37.38 -41.99 -45.10 -48.73 -62.19 -86.52 -102.98 -105.82 -102.29 -99.36 -100.74 -104.46 -106.19 -106.22 -108.44 -111.40 -113.92 -119.61 -128.79 -135.58 -135.93 -131.16 -125.28 -121.32 -120.38 -121.62 -123.27 -123.92 -125.22 -128.46 -133.05 -137.89 -141.38 -143.14 -144.35 -146.63 -149.53 -151.87 -153.50 -154.71 -156.90 -161.62 -168.62 -178.05 -187.75 -192.11 -192.29 -192.19 -192.73 -193.71 -195.06 -197.26 -199.45 -200.16 -199.73 -198.47 -192.39 -182.17 -176.32 -175.47 -175.77 -176.82 -177.68 -177.67 -177.42 -177.46 -177.76 -178.28 -181.69 -193.18 -217.79 -264.11 -358.78 -482.68 -549.17 -558.88 -557.46 -560.61 -571.14 -589.96 -616.06 -646.32 -677.87 -712.06 -750.47 -788.55 -819.91 -836.82 -841.68
435.71 413.25 356.12 284.60 243.98 234.51 229.82 216.55 198.02 184.04 179.32 190.46 242.21 330.93 396.14 425.17 440.17 447.66 450.00 451.24 449.47 437.69 417.66 401.93 396.14 390.02 376.38 371.08 381.52 403.97 420.52 410.85 377.40 336.96 305.80 288.44 276.47 250.98 182.14 78.73 12.82 -8.83 -16.36 -20.25 -24.22 -28.85 -33.85 -38.46 -41.42 -42.44 -44.17 -57.38 -82.48 -98.57 -99.97 -95.01 -89.96 -88.72 -91.08 -93.89 -94.93 -95.85 -97.47 -101.34 -110.18 -121.16 -127.68 -127.57 -123.05 -117.28 -113.37 -112.98 -116.36 -120.73 -123.24 -125.79 -130.06 -135.31 -140.37 -143.70 -145.60 -147.44 -150.92 -155.41 -158.02 -158.08 -157.18 -157.57 -161.54 -169.13 -179.56 -189.62 -193.75 -194.20 -195.14 -196.31 -197.32 -198.12 -198.86 -199.62 -199.71 -199.15 -198.05 -192.49 -182.73 -176.80 -175.49 -175.50 -176.54 -177.27 -177.25 -177.25 -177.70 -178.24 -178.06 -179.32 -186.92 -206.66 -248.20 -337.09 -454.50 -517.48 -527.44 -527.57 -531.39 -542.17 -562.57 -593.10 -630.86 -671.06 -716.50 -765.87 -808.89 -842.78 -864.46 -872.36
462.53 447.13 397.85 324.33 277.91 264.76 254.83 233.52 206.49 185.55 174.56 180.57 229.72 316.71 378.53 401.98 411.87 417.78 424.11 434.16 441.20 433.04 411.05 390.39 378.66 366.92 349.56 341.89 352.34 377.97 400.21 400.08 378.99 348.63 324.57 314.66 308.18 282.74 210.24 103.57 35.10 8.90 -4.82 -13.59 -19.74 -23.92 -27.14 -30.65 -33.25 -32.81 -32.07 -43.78 -68.64 -85.29 -88.02 -84.69 -79.65 -76.22 -77.05 -81.42 -84.75 -84.85 -84.81 -89.95 -101.20 -112.33 -117.67 -117.80 -114.98 -110.84 -108.29 -108.76 -113.22 -119.39 -124.28 -128.67 -133.48 -139.04 -144.84 -148.27 -150.08 -152.66 -156.95 -161.74 -164.00 -162.96 -160.48 -159.23 -161.94 -169.10 -179.91 -190.25 -194.43 -195.41 -196.74 -197.67 -198.43 -198.91 -198.58 -197.95 -197.68 -197.81 -197.21 -191.75 -181.98 -176.01 -174.86 -174.91 -175.64 -176.33 -176.79 -177.28 -177.48 -177.45 -177.28 -178.04 -182.93 -197.61 -233.03 -314.43 -424.25 -484.43 -496.41 -499.11 -504.05 -514.61 -535.69 -568.82 -611.63 -660.67 -717.42 -775.09 -822.48 -857.36 -878.47 -885.70
512.59 496.24 444.95 370.32 320.36 298.76 278.93 249.44 217.71 193.50 178.33 179.36 219.63 292.70 342.69 359.45 367.69 377.58 391.32 409.09 422.46 418.72 397.15 371.54 351.58 332.19 311.78 305.16 318.39 346.21 371.98 380.04 369.83 351.00 336.40 331.76 327.79 304.81 236.24 134.89 67.47 36.66 16.84 4.56 -1.56 -4.52 -7.13 -10.62 -13.53 -12.76 -10.52 -20.90 -46.02 -64.35 -70.31 -70.30 -66.80 -63.24 -63.82 -68.96 -73.41 -73.59 -73.21 -78.85 -90.81 -101.85 -106.75 -107.94 -107.81 -106.68 -106.36 -108.14 -113.27 -120.12 -126.66 -132.30 -136.60 -141.80 -148.83 -153.42 -155.61 -158.91 -163.73 -167.96 -169.40 -168.15 -165.59 -163.80 -165.19 -170.86 -180.25 -189.54 -193.23 -194.00 -194.80 -195.05 -195.54 -196.24 -196.25 -195.37 -194.74 -195.08 -194.81 -189.89 -180.65 -174.93 -174.24 -174.96 -175.73 -176.49 -177.33 -177.64 -177.06 -176.58 -176.78 -177.39 -179.59 -187.94 -214.13 -284.79 -385.51 -443.91 -458.81 -463.44 -468.29 -478.20 -499.19 -532.63 -576.47 -630.61 -695.22 -757.70 -807.26 -842.12 -860.35 -865.35
584.87 562.65 507.21 440.58 394.90 362.49 328.92 291.96 258.43 233.51 215.84 207.15 212.63 229.52 242.53 247.95 254.99 269.18 289.04 310.64 326.02 326.11 308.75 283.32 259.97 240.38 226.78 228.23 246.03 273.13 296.94 307.43 304.17 295.95 291.94 292.66 290.10 273.65 231.07 169.76 123.17 92.84 69.79 56.81 52.95 51.88 48.45 43.02 38.44 38.00 38.17 20.63 -16.60 -42.97 -52.71 -55.11 -53.48 -51.29 -51.70 -55.37 -58.66 -59.45 -60.61 -66.49 -78.01 -90.61 -97.99 -101.51 -103.75 -105.29 -106.74 -109.35 -114.88 -121.89 -128.76 -134.39 -137.59 -142.24 -150.65 -157.21 -160.76 -164.72 -169.75 -173.78 -175.28 -174.49 -172.20 -170.53 -171.08 -174.62 -180.31 -185.65 -187.38 -187.68 -188.32 -188.52 -189.24 -190.55 -191.44 -191.31 -190.69 -190.66 -190.36 -186.92 -179.92 -175.45 -175.66 -177.38 -178.38 -178.91 -179.34 -179.06 -178.20 -177.62 -177.88 -178.07 -177.72 -180.03 -196.10 -250.31 -331.52 -379.92 -392.98 -397.00 -401.04 -410.40 -430.38 -461.09 -500.61 -553.81 -622.82 -689.00 -737.71 -770.47 -786.99 -791.57
678.99 655.63 602.70 544.98 502.43 460.11 413.20 368.74 333.01 307.89 288.51 264.86 212.80 137.79 92.81 82.71 87.31 102.27 124.10 145.74 159.62 160.75 147.28 125.83 106.79 97.90 102.37 117.63 139.28 162.29 179.00 185.03 183.00 181.18 185.79 193.46 195.61 192.57 196.84 207.10 200.48 176.60 153.37 141.30 139.93 140.59 135.84 127.17 119.63 116.24 110.05 75.71 13.68 -26.85 -39.64 -42.94 -42.88 -42.37 -42.80 -44.54 -45.71 -45.87 -47.18 -52.58 -64.42 -79.60 -90.27 -96.68 -101.14 -104.66 -107.33 -110.21 -115.50 -122.26 -129.18 -134.78 -137.54 -141.83 -150.58 -158.01 -162.64 -167.26 -172.64 -177.38 -180.02 -180.11 -178.42 -177.23 -176.99 -177.61 -178.40 -178.46 -178.22 -179.29 -180.98 -181.58 -182.46 -184.06 -185.51 -186.19 -185.81 -185.34 -185.02 -183.87 -180.89 -178.86 -179.46 -180.85 -181.84 -182.37 -182.55 -182.08 -181.13 -180.24 -180.34 -180.47 -178.89 -177.41 -184.82 -217.97 -269.74 -300.81 -308.80 -310.94 -313.63 -321.28 -338.01 -363.67 -397.30 -447.20 -516.20 -581.85 -626.69 -655.75 -671.12 -676.13
765.98 744.23 692.62 632.49 585.29 536.32 481.56 431.15 391.88 365.35 344.85 311.26 222.05 88.21 5.36 -16.22 -15.12 -2.46 17.32 35.67 45.69 45.70 35.46 19.32 7.18 9.26 28.50 53.00 73.67 89.81 98.73 99.31 96.59 97.83 106.55 118.36 125.72 135.35 173.51 232.79 254.83 236.56 213.24 201.66 201.61 203.40 198.29 187.82 178.35 171.75 158.51 110.75 31.28 -19.09 -34.08 -38.00 -38.81 -39.97 -41.62 -43.00 -42.40 -39.78 -37.98 -41.03 -52.84 -69.64 -82.72 -91.72 -98.31 -103.58 -107.24 -110.46 -115.17 -121.39 -128.83 -134.95 -138.06 -142.24 -150.22 -157.44 -162.52 -167.06 -171.94 -176.86 -180.68 -182.08 -181.45 -180.43 -179.04 -177.24 -175.13 -172.98 -173.12 -175.84 -178.19 -178.50 -179.00 -180.58 -182.18 -183.24 -183.11 -182.31 -181.76 -182.03 -182.43 -182.57 -182.66 -182.92 -183.73 -184.51 -184.78 -184.40 -183.53 -182.67 -182.66 -182.82 -180.85 -177.31 -179.82 -200.60 -235.07 -256.02 -261.06 -262.02 -263.17 -267.58 -278.91 -298.84 -328.41 -374.23 -436.66 -495.50 -534.89 -561.49 -576.64 -581.72
822.79 801.76 748.48 680.87 625.99 572.64 514.71 462.54 422.23 394.69 373.03 335.45 234.79 83.08 -12.51 -39.13 -40.09 -29.86 -14.49 -2.16 2.42 0.52 -6.32 -16.59 -22.71 -14.12 11.63 38.47 55.02 63.20 64.59 61.38 59.86 64.09 72.60 82.20 91.02 109.10 163.39 242.24 277.53 263.80 241.05 228.73 226.82 227.50 222.75 213.01 203.66 195.22 177.55 122.85 35.95 -18.89 -35.03 -38.98 -40.30 -42.98 -46.39 -48.99 -48.38 -43.61 -38.07 -37.47 -47.23 -64.06 -78.88 -89.71 -97.45 -103.56 -108.21 -112.23 -116.61 -122.17 -129.56 -135.86 -139.84 -144.82 -152.43 -158.94 -163.93 -168.19 -171.47 -174.65 -177.93 -180.02 -180.08 -178.64 -176.88 -175.29 -173.44 -172.04 -173.17 -175.81 -177.13 -176.64 -177.07 -179.27 -181.00 -181.64 -181.61 -180.98 -180.40 -180.74 -182.19 -183.25 -183.26 -183.25 -183.80 -184.39 -184.55 -184.47 -184.60 -184.47 -183.93 -183.58 -181.78 -177.57 -177.97 -195.16 -225.90 -245.03 -249.33 -249.82 -250.28 -252.18 -258.41 -271.91 -295.34 -332.53 -383.61 -435.76 -473.08 -499.22 -514.35 -519.44
835.56 816.97 766.93 699.33 641.13 584.31 523.56 472.08 434.77 408.10 384.98 345.53 242.26 86.79 -11.42 -39.38 -42.19 -35.64 -25.66 -18.85 -18.25 -21.25 -25.85 -31.23 -31.50 -17.69 11.04 37.58 50.11 51.01 44.85 37.88 37.78 44.22 50.24 55.05 63.26 87.34 152.42 242.56 286.74 278.40 257.52 243.57 237.38 234.35 228.87 220.74 212.61 203.57 183.95 124.94 33.37 -23.81 -40.00 -43.66 -45.51 -49.10 -53.55 -57.05 -57.48 -53.00 -45.61 -42.05 -48.89 -64.52 -80.29 -92.20 -100.06 -105.73 -110.83 -115.28 -118.91 -123.14 -129.13 -135.33 -141.27 -148.71 -157.14 -162.96 -167.44 -171.35 -173.04 -173.76 -175.07 -176.75 -176.79 -175.06 -174.20 -174.69 -174.67 -174.28 -174.87 -175.55 -175.22 -174.37 -175.26 -178.25 -180.25 -180.45 -180.13 -179.52 -179.02 -179.26 -180.55 -181.94 -182.80 -183.30 -183.51 -183.59 -183.77 -184.14 -185.03 -185.31 -184.47 -183.68 -181.91 -177.74 -177.30 -192.99 -222.81 -241.77 -245.83 -246.01 -246.75 -248.30 -251.41 -258.60 -272.57 -295.80 -332.75 -378.25 -415.65 -443.07 -459.05 -464.59
819.43 800.11 751.90 689.40 631.83 570.87 506.61 456.49 424.30 401.73 380.54 343.02 242.19 89.37 -6.27 -34.32 -41.07 -40.93 -37.14 -34.29 -34.66 -36.43 -38.84 -40.34 -35.53 -17.85 11.80 36.65 45.89 41.59 29.97 20.06 19.81 26.23 30.89 34.80 44.35 72.03 143.07 239.37 288.20 283.43 263.97 248.66 239.18 232.65 225.80 218.73 211.74 202.77 182.45 121.44 27.87 -29.47 -44.94 -48.61 -50.68 -54.07 -58.29 -61.82 -63.72 -61.32 -54.01 -48.78 -53.31 -67.33 -82.79 -94.83 -102.78 -108.01 -112.63 -116.48 -119.06 -121.80 -126.33 -133.15 -141.34 -151.10 -160.75 -166.68 -170.96 -174.34 -175.44 -175.04 -174.69 -174.80 -173.85 -172.34 -172.55 -174.64 -176.31 -176.28 -175.62 -174.77 -173.59 -173.04 -174.49 -177.39 -179.36 -179.47 -178.74 -177.75 -176.95 -177.36 -178.82 -180.80 -182.51 -183.31 -183.37 -183.35 -183.86 -184.72 -185.49 -185.06 -183.96 -183.19 -181.08 -176.54 -175.64 -190.40 -219.29 -237.87 -241.84 -241.95 -243.33 -245.82 -248.25 -251.73 -257.75 -268.20 -290.01 -323.14 -355.50 -383.10 -401.24 -407.86
786.66 766.55 718.39 656.87 598.27 536.42 474.58 429.12 400.97 381.21 363.11 330.89 237.71 93.00 2.65 -26.06 -38.02 -44.39 -45.92 -45.59 -45.87 -47.14 -48.47 -46.93 -39.16 -21.14 6.43 28.47 35.74 30.30 17.65 6.62 4.79 9.90 15.98 24.55 39.06 68.48 138.34 233.19 281.17 277.15 258.95 243.83 233.34 225.37 218.06 211.92 206.05 197.58 177.20 116.63 24.71 -30.54 -44.47 -47.53 -49.17 -51.77 -55.81 -60.89 -66.13 -67.28 -61.53 -55.02 -57.07 -68.72 -82.02 -93.05 -101.27 -106.78 -110.50 -113.14 -115.39 -118.09 -122.80 -131.01 -140.67 -151.16 -161.52 -167.89 -171.70 -174.67 -176.42 -176.29 -175.03 -173.56 -171.95 -171.31 -172.29 -174.73 -176.42 -175.40 -173.76 -173.08 -172.69 -173.04 -174.46 -176.04 -177.16 -177.01 -176.10 -175.19 -174.65 -175.40 -177.21 -180.04 -182.43 -183.16 -183.37 -183.54 -184.09 -185.10 -185.46 -184.31 -182.99 -182.28 -179.75 -174.76 -173.65 -187.65 -215.20 -232.80 -236.76 -237.17 -239.03 -242.26 -245.44 -248.54 -251.25 -255.13 -265.72 -284.11 -305.81 -329.15 -346.58 -353.17
730.44 715.41 675.38 617.88 560.36 504.76 454.29 417.92 390.83 366.33 345.88 319.27 237.33 103.46 17.76 -12.88 -29.37 -39.50 -43.29 -44.42 -46.50 -50.53 -53.84 -52.31 -44.82 -29.65 -7.54 10.56 17.75 14.84 5.54 -3.53 -6.45 -3.04 4.86 19.18 39.41 69.39 133.93 222.83 267.30 262.99 246.91 233.51 223.44 215.73 208.99 203.98 199.61 192.66 173.88 116.06 28.00 -24.43 -37.13 -39.94 -42.00 -44.49 -48.89 -56.23 -65.14 -70.36 -68.12 -62.00 -61.60 -70.11 -79.92 -88.59 -95.95 -101.21 -104.63 -107.21 -109.99 -113.48 -119.45 -128.90 -139.15 -149.09 -158.98 -165.66 -169.39 -172.32 -174.44 -174.14 -172.33 -170.52 -169.54 -170.84 -173.41 -175.54 -175.06 -171.70 -169.39 -169.85 -171.22 -172.21 -172.30 -172.22 -172.73 -172.48 -171.68 -171.65 -172.58 -174.38 -176.67 -179.91 -182.42 -183.14 -183.92 -184.40 -184.35 -184.59 -184.91 -184.31 -183.04 -181.76 -179.00 -174.32 -173.24 -186.76 -212.88 -228.33 -231.17 -231.69 -234.18 -238.36 -242.47 -246.05 -248.38 -250.64 -255.93 -264.51 -276.62 -293.30 -306.82 -311.93
665.29 658.37 633.98 590.88 544.02 500.25 462.98 434.90 405.76 371.54 344.13 320.69 248.31 122.28 37.97 4.21 -15.54 -26.17 -28.65 -30.30 -35.96 -44.80 -52.85 -55.48 -51.54 -40.41 -24.49 -10.91 -2.78 -1.53 -5.81 -11.45 -14.40 -12.74 -5.39 10.90 34.19 64.54 125.96 211.17 253.64 249.75 235.45 223.82 215.18 208.86 203.05 198.48 195.45 191.40 176.09 121.72 36.80 -14.18 -27.35 -31.82 -35.90 -39.12 -43.33 -51.06 -61.28 -69.60 -72.32 -69.49 -68.28 -73.62 -79.73 -85.34 -90.83 -95.54 -99.67 -103.48 -107.20 -111.35 -117.82 -126.90 -136.13 -144.53 -152.85 -159.19 -163.57 -166.88 -168.66 -167.87 -166.06 -164.87 -165.57 -169.55 -173.82 -175.04 -172.24 -167.59 -165.28 -166.23 -168.10 -168.44 -166.91 -166.09 -166.80 -167.06 -167.13 -168.23 -170.52 -173.48 -176.62 -179.94 -181.89 -182.55 -183.66 -184.46 -184.30 -183.71 -183.90 -184.17 -182.97 -180.85 -178.17 -174.39 -173.98 -187.66 -212.64 -225.63 -226.31 -225.99 -228.93 -234.55 -239.99 -243.81 -246.23 -248.84 -252.30 -256.16 -262.48 -272.78 -281.38 -284.59
626.51 622.62 606.48 576.82 546.40 518.84 493.43 469.76 438.36 397.14 363.35 339.15 269.60 144.31 57.56 20.80 -1.21 -11.16 -10.24 -10.51 -19.44 -33.59 -47.34 -55.64 -56.73 -49.69 -37.87 -27.76 -19.85 -15.17 -14.87 -17.60 -20.34 -19.75 -14.06 0.60 23.98 55.49 117.72 203.07 245.81 243.06 230.00 219.63 212.50 207.59 203.22 199.60 197.95 196.36 183.50 130.52 45.75 -6.11 -20.87 -27.72 -33.94 -38.18 -42.17 -48.31 -56.57 -65.34 -72.49 -75.40 -76.40 -79.15 -81.33 -83.91 -88.06 -93.02 -98.36 -103.41 -107.64 -112.05 -118.48 -126.05 -132.33 -137.93 -144.39 -150.12 -154.81 -158.16 -159.94 -160.00 -159.32 -159.53 -162.40 -168.19 -172.58 -172.33 -168.25 -163.59 -161.44 -162.16 -163.75 -163.60 -161.81 -161.11 -162.02 -162.93 -164.25 -166.51 -169.49 -172.96 -176.65 -179.67 -180.77 -180.96 -181.60 -182.22 -182.47 -182.19 -182.58 -183.29 -182.13 -179.64 -177.13 -174.22 -174.69 -188.33 -212.08 -223.83 -223.35 -222.07 -224.89 -231.26 -237.77 -242.30 -245.20 -248.21 -251.01 -252.83 -255.29 -258.95 -261.52 -262.53
624.74 616.51 594.86 567.48 549.02 537.10 522.26 501.74 472.24 432.41 395.57 365.83 291.58 162.01 71.32 32.83 11.26 3.73 9.12 11.73 1.15 -16.89 -34.82 -47.64 -53.31 -50.67 -42.83 -36.74 -31.84 -26.84 -23.93 -24.70 -26.62 -25.19 -19.22 -5.70 16.72 48.67 112.72 200.08 244.37 243.22 231.97 222.85 216.73 213.41 211.09 208.58 206.60 204.65 191.87 138.30 51.29 -3.13 -19.46 -27.93 -35.96 -42.10 -46.89 -50.82 -54.74 -60.69 -69.85 -78.72 -84.40 -86.48 -85.03 -83.98 -86.30 -91.33 -97.65 -104.13 -109.38 -113.94 -119.70 -125.17 -128.09 -131.15 -136.66 -142.19 -146.62 -149.77 -151.74 -153.22 -154.96 -157.62 -161.95 -167.29 -170.39 -168.90 -164.08 -159.01 -156.44 -157.06 -159.14 -159.78 -158.80 -158.17 -158.98 -160.60 -163.14 -166.37 -169.76 -173.19 -176.87 -179.46 -179.86 -179.46 -179.03 -178.60 -178.99 -179.94 -181.24 -182.30 -181.70 -179.47 -176.68 -173.35 -173.42 -186.55 -209.98 -222.38 -222.29 -220.33 -222.58 -228.93 -235.72 -241.05 -244.96 -247.91 -249.98 -251.03 -251.12 -250.28 -249.68 -250.03
609.78 598.35 570.92 540.82 527.28 526.50 522.00 507.48 483.56 449.36 412.98 380.88 312.42 196.79 113.01 75.50 57.34 55.77 66.77 71.70 59.94 39.24 18.16 1.95 -8.64 -18.02 -27.90 -34.50 -36.91 -36.02 -34.02 -33.91 -33.41 -28.70 -19.79 -4.62 17.45 47.44 108.88 193.90 238.49 239.41 230.01 222.03 217.64 216.87 215.62 211.09 205.40 200.82 187.16 134.49 48.78 -6.30 -24.01 -32.93 -41.46 -49.44 -55.89 -58.83 -59.04 -61.34 -70.05 -82.00 -91.07 -93.50 -89.44 -84.79 -84.45 -88.08 -94.22 -101.79 -108.56 -113.07 -116.99 -120.15 -121.36 -124.25 -130.96 -137.56 -141.95 -144.94 -147.18 -149.81 -153.64 -157.91 -162.25 -165.85 -167.31 -165.28 -160.27 -154.88 -151.97 -152.30 -154.49 -155.67 -155.24 -154.70 -155.69 -158.32 -161.83 -165.57 -169.39 -172.83 -176.19 -178.66 -179.14 -178.63 -177.62 -176.37 -175.93 -176.97 -178.91 -180.56 -180.88 -179.02 -175.43 -170.82 -169.67 -181.44 -203.92 -216.42 -216.78 -215.11 -217.39 -223.34 -230.07 -236.17 -240.98 -243.90 -245.34 -245.95 -245.08 -242.94 -241.84 -242.19
518.39 506.74 478.63 447.89 436.20 442.02 447.69 443.32 427.46 398.19 366.05 347.49 336.69 317.29 289.92 264.07 250.65 256.85 273.25 278.08 263.65 239.29 214.63 194.98 172.73 118.95 37.35 -14.72 -32.66 -38.95 -40.39 -39.93 -35.99 -26.99 -14.07 4.38 26.06 49.57 94.14 156.52 190.75 192.46 184.80 178.06 176.29 178.12 176.76 168.62 158.00 150.42 138.67 97.88 30.76 -14.95 -32.15 -40.69 -48.50 -57.49 -65.71 -69.29 -68.56 -68.75 -75.63 -86.92 -95.73 -97.56 -91.77 -84.89 -82.29 -83.71 -88.24 -95.04 -102.17 -106.37 -108.58 -110.54 -112.23 -116.61 -125.13 -133.09 -137.98 -141.19 -144.33 -148.52 -153.22 -157.03 -160.22 -162.10 -162.03 -159.90 -155.88 -151.41 -148.59 -147.92 -149.00 -149.95 -149.91 -149.94 -151.69 -155.34 -159.81 -164.19 -168.15 -170.81 -172.97 -175.36 -176.75 -176.90 -175.91 -174.24 -172.51 -172.31 -173.79 -175.54 -176.34 -174.95 -171.60 -166.94 -164.30 -171.59 -187.75 -196.38 -196.00 -195.40 -198.34 -203.90 -210.48 -216.73 -221.70 -224.97 -226.32 -226.32 -225.09 -223.17 -222.18 -222.41
369.68 359.04 333.04 303.65 292.35 300.09 312.00 317.17 310.45 287.98 264.09 271.45 361.53 509.70 583.73 580.62 572.89 586.45 606.91 610.40 592.31 562.90 533.97 510.36 468.96 341.26 140.79 14.96 -23.78 -37.03 -42.32 -42.13 -35.60 -22.93 -6.30 14.31 34.41 49.57 67.13 88.22 100.27 100.51 95.31 90.88 91.28 94.45 93.04 83.11 69.70 60.95 54.56 36.20 3.79 -22.67 -37.08 -46.36 -54.92 -64.39 -73.30 -78.29 -79.07 -79.10 -84.32 -93.33 -99.50 -99.68 -93.48 -86.00 -81.48 -80.20 -82.06 -86.63 -92.68 -96.64 -98.60 -101.08 -104.75 -110.85 -120.06 -128.46 -134.06 -137.87 -141.49 -146.17 -150.76 -153.56 -154.89 -155.23 -155.03 -153.91 -151.32 -148.04 -145.04 -143.01 -142.78 -143.73 -144.50 -145.29 -147.97 -152.76 -158.00 -162.55 -165.94 -166.99 -167.34 -169.59 -172.02 -172.97 -171.83 -169.30 -166.91 -165.96 -166.82 -168.31 -169.07 -168.14 -165.94 -162.46 -158.83 -159.43 -164.26 -165.81 -163.79 -163.61 -166.52 -171.58 -177.86 -183.71 -188.70 -192.58 -194.27 -194.11 -193.27 -192.53 -192.57 -193.19
272.26 263.68 241.63 214.87 203.77 210.56 223.27 232.82 233.32 220.26 205.61 230.11 383.02 637.01 777.72 791.91 789.05 806.18 828.68 832.14 812.08 778.61 743.89 714.06 657.49 481.65 205.78 33.07 -18.52 -35.47 -43.08 -44.42 -38.32 -24.41 -5.59 15.71 34.86 45.99 46.24 38.47 33.72 32.79 30.90 30.59 33.17 36.30 34.65 24.79 11.93 4.77 2.88 -0.48 -9.55 -22.27 -34.60 -45.79 -56.20 -65.98 -75.08 -82.44 -86.74 -88.85 -93.40 -99.88 -103.69 -103.68 -99.00 -91.48 -84.37 -79.58 -78.24 -80.50 -84.82 -88.60 -91.75 -95.80 -101.34 -108.55 -117.85 -126.38 -132.51 -136.73 -140.02 -143.41 -146.62 -148.43 -148.29 -147.84 -148.57 -148.73 -146.99 -144.57 -141.67 -139.03 -138.29 -139.45 -140.76 -142.15 -145.44 -150.61 -155.61 -159.37 -161.94 -162.46 -162.20 -164.16 -166.86 -168.15 -167.22 -164.70 -162.45 -161.08 -161.11 -162.17 -162.88 -162.35 -160.82 -158.54 -155.63 -152.72 -150.30 -147.61 -144.95 -144.72 -146.80 -150.62 -155.87 -160.92 -165.43 -169.41 -172.12 -173.47 -173.82 -173.73 -173.93 -174.45
237.85 230.65 212.51 190.73 181.40 186.30 196.20 204.63 207.89 202.60 195.63 227.38 399.65 685.89 850.13 873.50 872.67 887.28 907.22 910.68 891.71 857.29 816.72 777.26 709.91 519.12 223.43 38.15 -16.10 -32.62 -40.90 -45.05 -42.65 -30.89 -12.51 8.66 27.42 37.09 30.85 12.66 1.42 0.62 2.10 5.69 9.98 12.50 10.90 2.87 -7.30 -12.06 -11.89 -10.24 -11.00 -17.56 -28.04 -39.56 -50.57 -60.13 -69.13 -78.70 -87.41 -93.88 -99.02 -103.33 -106.93 -109.60 -107.71 -100.16 -90.21 -81.56 -76.70 -76.76 -79.69 -83.72 -88.78 -94.67 -101.16 -108.70 -117.85 -126.27 -132.19 -135.97 -138.62 -140.47 -141.69 -142.41 -142.22 -141.94 -142.69 -142.99 -142.01 -140.88 -138.66 -136.52 -136.46 -137.75 -139.04 -140.84 -143.92 -147.77 -151.79 -154.95 -157.11 -158.32 -158.70 -160.01 -161.70 -162.94 -162.95 -161.63 -159.98 -158.17 -157.17 -157.42 -158.05 -158.30 -157.65 -156.57 -155.34 -152.51 -148.40 -145.11 -142.96 -142.60 -143.51 -145.28 -148.85 -152.92 -156.53 -159.86 -163.17 -166.12 -167.55 -166.76 -165.07 -164.50
221.90 215.86 201.15 184.09 177.22 181.38 188.28 192.81 194.22 191.86 190.14 227.56 408.72 706.82 882.31 913.98 915.81 926.04 938.19 937.93 919.72 884.66 840.01 793.12 718.65 523.58 225.02 39.13 -11.88 -24.69 -33.01 -41.17 -44.64 -37.67 -21.72 -1.91 14.56 20.98 11.27 -9.01 -21.02 -21.63 -18.93 -14.31 -9.54 -6.06 -5.12 -9.69 -17.11 -21.10 -20.88 -17.61 -14.22 -16.15 -23.53 -33.45 -43.59 -51.88 -59.84 -69.74 -80.82 -90.74 -97.33 -102.26 -109.32 -116.46 -116.34 -108.61 -96.98 -85.36 -77.53 -75.50 -77.45 -82.20 -88.78 -95.87 -103.34 -111.25 -119.62 -126.90 -132.02 -135.20 -137.12 -137.79 -137.68 -137.64 -137.70 -137.35 -136.89 -136.43 -136.52 -137.04 -135.60 -134.23 -134.79 -135.93 -137.40 -139.77 -142.50 -144.95 -148.36 -151.51 -153.73 -155.76 -156.83 -157.53 -157.87 -158.47 -158.90 -158.52 -157.92 -156.48 -154.99 -154.51 -155.08 -156.00 -156.40 -156.74 -157.12 -155.47 -151.55 -148.46 -147.09 -146.74 -146.26 -145.61 -146.88 -149.59 -152.32 -154.94 -157.98 -161.18 -162.73 -160.95 -157.94 -157.02
208.20 203.73 192.34 178.67 173.66 178.13 183.95 186.11 185.25 182.67 183.39 225.02 411.77 716.19 898.63 937.02 941.23 946.96 950.36 943.32 922.27 886.42 842.27 795.31 719.81 523.48 225.35 42.72 -2.91 -11.98 -21.54 -34.40 -43.52 -41.44 -28.79 -12.74 -1.18 0.58 -10.96 -29.71 -40.18 -40.74 -38.91 -35.51 -29.73 -22.90 -17.99 -18.66 -23.84 -29.23 -31.69 -29.42 -23.67 -20.95 -24.00 -31.30 -39.57 -46.10 -53.07 -62.09 -72.16 -82.23 -90.72 -99.35 -111.87 -122.88 -122.51 -113.90 -101.73 -88.55 -79.16 -76.14 -78.19 -83.85 -91.29 -98.95 -107.13 -115.30 -122.48 -128.34 -133.35 -137.07 -138.66 -138.22 -137.03 -135.81 -135.02 -134.09 -132.46 -130.77 -131.03 -132.71 -132.82 -132.83 -133.59 -134.37 -136.17 -139.21 -142.25 -144.74 -148.24 -151.29 -153.41 -155.75 -157.05 -157.51 -157.11 -156.89 -157.30 -157.55 -157.59 -156.63 -155.00 -154.30 -154.95 -155.97 -157.15 -158.99 -160.75 -160.33 -156.81 -153.34 -152.18 -151.86 -150.21 -147.59 -146.28 -146.81 -148.13 -149.90 -152.41 -155.30 -156.19 -153.76 -150.74 -149.98
198.44 194.49 184.76 173.67 169.89 174.06 179.45 181.23 179.91 177.08 178.91 223.15 412.99 719.92 905.09 946.55 951.22 952.85 949.78 936.48 911.61 877.92 840.04 797.85 724.07 527.37 230.28 50.77 7.91 -1.35 -14.19 -30.27 -42.23 -43.87 -35.78 -25.44 -19.10 -20.61 -32.10 -47.80 -55.91 -56.02 -55.04 -52.76 -45.06 -33.99 -25.50 -22.85 -26.00 -33.03 -39.36 -40.26 -35.12 -29.80 -28.80 -33.22 -39.94 -45.67 -51.45 -58.40 -66.66 -76.99 -88.03 -100.17 -115.89 -127.89 -126.02 -115.98 -103.44 -89.99 -80.74 -78.59 -81.92 -88.18 -96.03 -104.09 -112.35 -120.50 -127.09 -132.15 -137.66 -142.60 -144.53 -143.57 -141.33 -138.19 -135.25 -132.84 -130.12 -127.39 -127.42 -129.98 -131.86 -133.16 -134.10 -134.81 -136.96 -140.75 -144.87 -148.05 -151.54 -154.82 -157.25 -159.35 -159.82 -159.75 -159.34 -158.99 -159.52 -159.99 -159.73 -158.63 -156.92 -156.26 -157.03 -158.43 -160.51 -163.12 -165.10 -164.52 -160.95 -157.68 -157.12 -157.11 -154.84 -150.84 -147.07 -145.11 -144.65 -145.40 -147.53 -150.35 -151.03 -148.68 -145.79 -144.76
195.98 191.90 182.13 171.52 167.83 171.08 175.06 175.91 174.61 172.69 176.36 222.65 413.40 719.84 904.64 946.30 950.65 950.37 943.76 927.02 902.18 874.94 845.97 809.23 736.13 537.14 238.25 57.56 12.62 -0.25 -16.14 -32.75 -44.79 -48.93 -46.26 -42.02 -39.81 -41.90 -50.87 -62.80 -68.66 -69.11 -69.33 -67.17 -57.28 -42.83 -31.18 -25.10 -25.48 -32.37 -41.02 -44.70 -42.28 -38.29 -36.30 -38.88 -44.88 -50.63 -54.75 -59.55 -67.34 -78.97 -92.21 -105.83 -121.06 -131.18 -127.54 -116.35 -103.87 -92.13 -85.63 -85.89 -90.01 -95.55 -102.84 -111.11 -119.70 -128.19 -134.87 -139.51 -144.87 -150.40 -152.87 -151.77 -148.75 -144.34 -139.25 -134.70 -130.76 -127.45 -127.54 -131.13 -134.79 -136.93 -137.32 -137.11 -138.96 -143.44 -148.77 -152.59 -156.32 -160.45 -163.66 -165.14 -164.22 -163.47 -163.28 -163.27 -163.73 -163.89 -163.17 -162.06 -160.63 -159.90 -160.48 -162.38 -165.02 -167.44 -168.51 -166.97 -163.67 -161.70 -162.32 -162.97 -160.64 -155.78 -150.22 -146.13 -143.83 -143.34 -145.14 -148.37 -149.75 -148.06 -146.00 -145.66
197.49 193.68 183.69 172.14 167.65 169.74 172.00 171.99 170.88 170.08 175.65 223.58 413.83 717.45 899.24 939.39 943.54 943.00 935.14 918.29 897.67 878.73 857.36 824.53 751.91 548.68 242.33 55.11 6.11 -9.20 -25.16 -39.64 -48.75 -52.45 -54.02 -55.81 -57.57 -59.51 -65.40 -73.90 -78.29 -80.52 -83.02 -81.01 -69.90 -53.36 -38.48 -28.56 -25.67 -31.26 -40.59 -45.48 -45.29 -44.71 -45.24 -47.72 -52.60 -57.95 -61.21 -64.95 -72.74 -84.64 -97.54 -110.03 -122.99 -131.21 -127.51 -116.99 -106.37 -99.04 -97.54 -99.23 -101.20 -104.47 -111.24 -120.12 -129.04 -137.68 -144.47 -148.51 -152.64 -157.90 -160.88 -159.76 -156.65 -152.35 -146.53 -140.61 -135.30 -131.19 -131.18 -135.36 -140.18 -142.89 -142.55 -141.06 -141.70 -145.54 -150.77 -155.02 -159.50 -164.14 -167.83 -168.99 -167.39 -166.41 -166.78 -167.65 -168.41 -168.44 -167.28 -165.89 -164.86 -164.52 -164.96 -166.63 -168.76 -170.38 -170.87 -169.46 -167.13 -166.19 -166.83 -167.15 -165.07 -160.63 -154.71 -149.24 -145.67 -144.57 -145.98 -149.29 -151.40 -150.80 -150.39 -151.34
198.47 194.94 185.32 173.64 168.17 168.79 170.35 171.05 170.62 169.96 175.99 224.55 414.04 714.74 892.65 930.49 934.13 932.76 923.63 907.41 890.52 877.60 862.13 832.88 760.76 553.09 238.37 45.17 -4.54 -17.45 -29.81 -40.33 -45.55 -47.79 -52.21 -58.82 -64.24 -67.95 -73.85 -80.55 -83.68 -87.48 -92.83 -93.23 -83.74 -65.71 -46.66 -33.63 -29.29 -34.13 -42.55 -46.23 -45.95 -47.77 -52.00 -56.26 -60.63 -65.49 -68.63 -71.28 -78.14 -88.98 -99.28 -108.36 -118.95 -127.94 -127.83 -120.66 -113.29 -110.46 -112.02 -112.15 -110.55 -112.22 -119.34 -129.05 -138.14 -146.76 -153.45 -156.71 -159.20 -163.22 -165.96 -164.97 -162.36 -158.68 -153.23 -147.23 -141.51 -137.29 -137.44 -141.48 -145.93 -148.41 -147.47 -145.14 -144.44 -146.77 -150.82 -154.87 -159.12 -163.09 -166.71 -168.47 -167.50 -167.04 -168.44 -170.50 -172.08 -172.42 -170.89 -169.04 -168.31 -168.60 -168.89 -169.79 -170.69 -171.07 -171.63 -171.66 -170.97 -170.76 -170.70 -169.41 -166.63 -162.90 -157.87 -152.34 -148.79 -148.12 -149.26 -152.02 -154.57 -155.56 -156.90 -158.66
200.89 197.25 187.22 174.59 167.83 167.45 169.03 170.26 170.25 169.96 176.13 224.00 411.44 708.92 883.54 919.14 920.94 917.24 906.60 890.16 872.93 860.46 848.94 824.48 752.87 544.11 230.49 40.45 -4.99 -13.46 -21.77 -29.52 -34.20 -38.21 -44.97 -52.76 -58.98 -65.63 -75.65 -83.92 -85.86 -89.56 -98.10 -103.76 -98.70 -80.25 -57.09 -41.91 -37.85 -42.62 -48.93 -49.16 -46.21 -48.22 -55.04 -61.48 -66.61 -71.43 -74.63 -76.68 -81.81 -90.01 -97.21 -103.41 -112.81 -124.97 -131.29 -129.05 -124.03 -122.54 -123.83 -121.54 -117.96 -119.32 -126.20 -135.48 -144.84 -153.98 -161.07 -164.16 -165.16 -166.68 -167.83 -167.17 -165.68 -162.68 -157.50 -151.80 -146.86 -143.96 -145.10 -148.90 -152.12 -153.31 -151.14 -147.62 -145.91 -147.50 -150.88 -154.62 -158.01 -160.70 -163.58 -165.92 -166.15 -166.55 -168.73 -171.43 -173.48 -173.95 -172.88 -171.83 -171.71 -171.98 -171.73 -171.73 -171.56 -171.02 -171.49 -172.66 -173.52 -174.05 -173.69 -171.53 -167.86 -163.54 -158.84 -154.52 -152.62 -153.06 -154.45 -156.57 -159.05 -161.17 -163.38 -165.20
205.74 201.74 190.18 175.48 167.30 166.09 167.36 168.09 168.05 168.99 175.91 220.82 397.38 678.21 842.34 874.13 872.27 864.40 851.78 834.37 814.60 798.71 787.59 767.32 700.29 505.84 218.18 47.46 8.28 0.41 -7.67 -15.78 -22.83 -30.29 -38.04 -43.12 -47.00 -56.41 -73.08 -86.78 -89.43 -91.27 -100.18 -109.94 -109.87 -93.76 -70.38 -54.64 -51.37 -56.17 -59.64 -55.41 -49.23 -50.48 -58.22 -65.70 -71.39 -75.66 -78.95 -81.92 -85.58 -90.08 -94.14 -98.37 -107.62 -123.35 -135.74 -138.36 -135.42 -133.99 -134.43 -131.36 -126.85 -127.21 -132.86 -140.86 -149.96 -158.98 -166.10 -169.23 -168.74 -166.76 -165.51 -165.81 -166.67 -165.50 -161.21 -156.05 -152.13 -150.68 -152.86 -156.78 -158.94 -158.49 -154.67 -149.66 -147.44 -149.64 -153.93 -158.03 -160.52 -161.91 -163.71 -165.70 -166.47 -167.07 -169.01 -171.75 -174.00 -174.59 -174.24 -174.18 -174.46 -174.53 -174.12 -173.75 -173.27 -172.55 -172.36 -173.27 -174.80 -175.62 -174.82 -172.62 -169.33 -164.59 -159.58 -156.67 -156.75 -158.52 -160.54 -162.21 -164.20 -166.12 -167.80 -169.11
210.41 205.26 192.56 177.84 169.39 166.59 166.18 166.14 166.72 169.18 176.36 211.12 343.68 553.43 674.48 695.18 689.01 677.56 663.38 644.59 621.25 599.50 584.57 567.65 519.30 382.22 179.87 59.54 28.40 16.56 4.87 -5.58 -14.40 -22.31 -27.84 -28.71 -30.65 -43.07 -66.32 -86.91 -92.79 -92.83 -99.14 -110.27 -114.02 -102.53 -83.83 -69.99 -66.80 -70.10 -70.06 -63.12 -57.45 -60.34 -69.01 -76.18 -79.80 -81.38 -83.95 -87.97 -90.88 -91.96 -92.58 -94.72 -103.40 -120.73 -136.91 -144.41 -145.27 -145.29 -145.75 -143.02 -138.03 -136.64 -140.41 -146.79 -154.54 -161.77 -167.02 -168.59 -166.07 -161.33 -158.81 -160.64 -164.46 -166.77 -165.40 -161.83 -159.01 -158.25 -160.78 -165.15 -167.13 -165.64 -160.58 -154.53 -152.47 -155.87 -161.23 -165.55 -167.57 -168.34 -169.15 -169.89 -169.90 -169.83 -171.15 -173.70 -175.88 -176.53 -176.14 -175.92 -176.25 -176.40 -176.34 -176.18 -175.36 -174.02 -173.05 -173.25 -174.59 -174.96 -173.60 -171.76 -169.53 -165.52 -160.94 -159.01 -160.52 -163.40 -165.58 -166.77 -167.94 -169.14 -170.23 -171.14
214.07 207.75 195.26 182.23 174.45 169.91 167.19 166.55 167.92 171.13 177.27 195.90 256.96 349.45 399.37 402.98 393.42 380.84 366.91 348.19 322.51 296.42 277.90 264.47 244.23 194.86 119.93 69.99 47.35 29.71 13.12 0.34 -7.40 -10.24 -9.38 -6.90 -9.96 -25.90 -53.40 -78.89 -88.74 -89.52 -94.74 -106.53 -113.19 -107.41 -96.58 -88.02 -84.48 -83.54 -79.18 -71.99 -71.04 -78.45 -88.59 -94.17 -92.75 -89.16 -88.61 -91.50 -94.04 -93.84 -92.94 -94.41 -102.06 -118.19 -135.44 -146.60 -151.53 -153.90 -154.90 -152.77 -148.39 -146.30 -148.39 -153.15 -158.89 -163.28 -164.73 -162.08 -156.54 -151.39 -150.40 -154.49 -160.79 -166.10 -168.00 -166.84 -165.41 -165.10 -167.77 -173.03 -175.99 -174.48 -168.90 -162.81 -161.46 -165.65 -170.95 -174.65 -176.75 -177.91 -178.08 -177.39 -176.07 -175.05 -175.58 -177.36 -178.70 -178.71 -177.84 -177.26 -177.59 -177.81 -178.18 -178.31 -177.00 -174.73 -173.00 -172.28 -172.43 -172.02 -171.05 -170.14 -168.56 -165.78 -162.64 -161.41 -163.42 -166.60 -168.57 -169.42 -169.95 -170.59 -171.15 -171.56
213.64 208.00 197.20 185.79 178.32 172.82 168.84 167.75 168.95 171.65 176.21 184.97 203.10 224.66 231.81 225.74 214.75 201.85 188.62 172.33 150.46 128.31 110.88 98.79 93.36 93.49 90.31 77.35 57.14 35.32 15.67 2.31 -2.29 1.99 10.21 14.41 8.74 -9.15 -37.63 -65.22 -78.45 -82.39 -89.14 -102.13 -112.22 -112.59 -109.62 -107.38 -105.07 -100.88 -92.56 -84.42 -86.54 -97.09 -108.18 -111.62 -104.49 -94.35 -88.17 -87.38 -89.20 -90.38 -91.86 -95.83 -103.90 -118.04 -133.68 -145.48 -152.89 -157.21 -158.41 -156.31 -152.86 -151.28 -152.90 -156.73 -160.66 -162.21 -159.59 -152.24 -144.61 -141.18 -142.83 -148.80 -156.70 -163.62 -167.44 -168.39 -168.69 -169.15 -171.94 -178.18 -182.40 -181.02 -175.45 -170.32 -169.97 -174.33 -178.86 -181.81 -184.08 -185.70 -185.49 -183.57 -181.15 -179.52 -179.14 -179.86 -180.47 -179.56 -177.85 -176.73 -176.82 -177.26 -178.21 -178.64 -177.38 -175.21 -173.29 -171.59 -170.10 -169.01 -168.95 -168.84 -167.45 -165.58 -164.01 -163.68 -165.31 -167.84 -169.83 -170.91 -171.38 -171.30 -170.72 -170.44
205.81 202.33 194.56 185.33 178.63 173.65 169.77 167.93 168.08 170.01 173.74 179.91 188.42 194.90 194.39 188.09 177.43 163.35 149.21 136.69 125.10 114.66 102.90 89.68 81.48 84.02 89.00 79.31 57.81 34.59 15.05 3.89 3.85 13.71 26.36 31.05 23.66 5.47 -22.37 -50.34 -65.84 -73.39 -82.72 -97.12 -109.48 -113.61 -114.79 -116.43 -117.33 -115.28 -108.00 -100.63 -103.56 -113.83 -123.62 -124.40 -113.26 -98.21 -87.04 -82.05 -81.92 -84.03 -88.91 -96.59 -106.43 -119.49 -132.17 -141.54 -148.41 -152.97 -153.94 -151.59 -148.37 -147.00 -148.56 -151.83 -154.51 -154.16 -149.45 -141.12 -135.13 -134.70 -138.08 -144.16 -151.97 -159.14 -163.41 -165.44 -167.41 -169.21 -172.94 -180.38 -185.53 -184.63 -180.14 -176.53 -176.67 -180.18 -183.60 -185.75 -187.28 -188.42 -188.01 -185.60 -182.87 -181.48 -180.74 -180.45 -180.34 -178.82 -176.26 -174.11 -173.94 -175.38 -177.36 -178.13 -177.10 -175.63 -174.22 -171.92 -169.39 -167.87 -167.93 -168.18 -167.27 -165.71 -164.81 -165.34 -166.87 -168.96 -170.89 -172.39 -173.14 -172.72 -171.78 -171.53
197.09 194.79 189.01 181.90 176.97 173.42 169.92 167.50 166.99 168.56 171.88 176.75 183.67 190.14 191.54 187.37 178.53 164.78 149.85 140.71 138.68 138.29 131.96 118.02 102.98 94.43 90.49 76.80 54.59 32.17 15.40 8.80 13.64 26.73 40.71 45.41 37.17 18.26 -9.14 -36.74 -53.99 -65.08 -77.27 -92.37 -103.45 -106.04 -106.22 -109.31 -114.72 -119.07 -118.39 -115.77 -119.10 -126.75 -134.01 -134.13 -123.33 -106.91 -92.34 -83.23 -79.67 -80.20 -86.07 -95.78 -106.78 -118.92 -128.67 -134.40 -138.37 -141.24 -141.96 -140.19 -137.64 -136.78 -138.34 -140.47 -141.79 -140.34 -136.08 -131.22 -129.72 -132.44 -136.58 -141.33 -146.96 -152.36 -155.61 -157.90 -161.54 -165.55 -171.42 -180.44 -186.60 -187.03 -184.42 -182.31 -182.15 -183.98 -186.14 -187.42 -187.64 -187.45 -186.64 -184.45 -182.04 -181.09 -180.05 -178.41 -176.97 -175.31 -173.09 -170.98 -171.00 -173.33 -176.26 -177.60 -176.86 -175.60 -174.39 -172.42 -170.57 -169.00 -168.26 -168.47 -168.10 -166.62 -165.80 -166.78 -168.40 -170.12 -171.88 -173.80 -175.25 -175.48 -174.89 -174.61
192.78 190.84 185.09 178.22 174.22 171.78 169.10 167.09 166.60 167.95 170.72 174.33 180.29 187.63 190.68 187.72 180.83 170.23 157.94 151.26 152.83 155.97 151.56 136.82 117.23 100.49 89.08 72.38 50.90 31.25 18.73 16.91 24.30 37.48 51.37 57.25 49.82 30.61 3.68 -23.96 -43.83 -58.71 -73.32 -87.47 -94.38 -91.94 -88.98 -93.01 -102.71 -112.89 -117.94 -119.30 -123.20 -129.17 -136.24 -140.14 -134.54 -120.93 -105.12 -91.59 -82.98 -79.97 -84.39 -93.67 -103.99 -114.26 -121.65 -124.94 -126.57 -127.74 -128.05 -126.88 -125.56 -126.04 -128.09 -129.47 -129.78 -128.45 -126.56 -126.25 -128.39 -132.33 -136.24 -139.71 -142.62 -144.78 -146.20 -148.91 -154.59 -161.37 -169.56 -179.93 -186.87 -188.17 -186.68 -185.59 -185.36 -185.60 -186.19 -186.83 -186.52 -185.05 -183.61 -182.00 -180.12 -178.87 -176.82 -174.10 -171.90 -170.33 -169.11 -168.43 -168.98 -171.38 -174.89 -176.93 -176.25 -174.65 -173.56 -173.03 -172.85 -171.28 -169.27 -168.74 -168.73 -168.14 -167.75 -168.63 -169.93 -171.06 -172.62 -174.58 -176.54 -177.89 -177.92 -177.29
191.58 189.71 183.29 175.68 171.43 169.30 167.48 166.45 166.41 167.48 169.70 172.76 178.29 185.85 189.39 187.00 181.46 174.19 166.20 161.98 163.61 166.11 160.88 145.20 124.64 105.68 90.36 71.26 50.42 34.25 27.06 29.97 39.01 50.47 62.54 69.18 63.31 45.02 18.11 -12.04 -36.41 -55.00 -70.79 -81.86 -83.24 -76.47 -72.65 -78.92 -90.95 -102.06 -107.12 -108.43 -113.02 -120.12 -130.04 -140.23 -142.39 -134.83 -120.99 -104.41 -90.65 -83.80 -85.78 -92.84 -100.80 -108.54 -114.49 -117.60 -119.22 -119.82 -119.37 -117.74 -116.99 -119.11 -122.30 -123.62 -123.51 -123.67 -125.16 -128.34 -131.98 -135.09 -137.57 -139.61 -140.20 -140.01 -140.96 -144.48 -150.98 -158.88 -168.29 -179.55 -187.07 -188.42 -186.84 -185.76 -185.59 -185.02 -184.18 -183.97 -183.28 -181.30 -179.84 -178.78 -176.98 -174.89 -172.15 -169.40 -167.58 -166.68 -166.50 -167.30 -168.34 -170.21 -173.44 -175.58 -175.03 -173.48 -172.82 -173.63 -174.55 -173.05 -170.38 -169.16 -169.28 -169.78 -170.02 -170.56 -171.45 -171.74 -172.72 -174.71 -176.80 -179.03 -180.45 -180.33
192.22 189.72 183.17 175.97 171.24 168.38 166.59 165.88 165.98 166.75 168.73 171.76 176.71 183.47 186.91 185.59 181.77 176.84 172.24 170.33 171.18 171.13 164.02 148.50 129.98 113.48 97.99 77.48 57.08 44.46 42.65 49.87 61.73 72.93 81.33 84.39 77.68 60.33 32.57 -1.78 -31.10 -52.62 -68.21 -75.16 -71.54 -63.38 -61.89 -70.79 -82.93 -90.89 -91.93 -91.73 -97.69 -107.35 -120.49 -135.92 -145.66 -145.23 -135.23 -118.28 -101.89 -93.25 -93.18 -97.32 -102.33 -107.67 -113.23 -117.98 -120.82 -120.96 -119.16 -116.34 -115.92 -120.22 -125.28 -126.96 -126.37 -127.11 -130.29 -134.86 -138.85 -141.41 -142.58 -142.94 -142.06 -141.38 -143.19 -147.29 -152.43 -158.37 -167.17 -178.69 -186.21 -187.15 -185.19 -183.45 -182.77 -182.11 -180.96 -180.00 -178.75 -176.99 -175.85 -174.60 -172.12 -169.69 -167.64 -165.79 -164.80 -164.72 -165.27 -167.04 -168.72 -170.08 -172.73 -174.90 -174.77 -173.54 -173.12 -173.91 -174.73 -173.75 -171.72 -170.74 -170.94 -171.77 -172.43 -172.84 -173.61 -173.64 -174.40 -176.71 -179.15 -182.37 -185.41 -186.24
197.55 194.52 187.27 179.14 173.26 169.54 167.35 166.31 165.80 165.79 167.27 170.15 174.32 179.85 183.19 183.35 181.58 178.79 176.73 176.16 176.24 174.10 165.52 150.37 134.08 121.70 109.67 90.51 71.45 62.57 65.62 76.00 90.09 101.62 104.85 100.16 89.28 71.45 42.29 4.31 -27.31 -47.97 -60.53 -63.75 -57.85 -51.50 -53.89 -63.65 -73.20 -77.04 -75.12 -76.15 -86.15 -99.77 -115.26 -132.07 -145.27 -150.40 -145.22 -131.13 -116.25 -108.43 -107.28 -109.43 -112.45 -116.07 -121.12 -126.60 -129.94 -129.73 -126.75 -122.47 -121.63 -127.23 -134.49 -137.45 -136.92 -136.99 -139.34 -143.10 -146.78 -149.63 -150.28 -148.84 -146.86 -146.43 -148.96 -153.41 -157.26 -160.69 -167.60 -177.92 -184.05 -183.83 -181.17 -178.55 -176.96 -176.40 -176.05 -175.16 -173.62 -172.21 -171.31 -169.59 -166.84 -165.12 -164.15 -163.30 -163.15 -163.66 -164.68 -166.81 -168.79 -170.09 -172.97 -175.71 -175.72 -174.41 -174.08 -174.49 -174.62 -173.74 -172.51 -172.40 -173.11 -174.37 -176.27 -178.67 -181.26 -182.85 -184.20 -185.98 -188.35 -193.04 -197.18 -198.20
209.03 205.09 195.05 183.08 175.10 171.01 168.54 167.12 166.21 165.56 166.10 168.33 172.24 177.50 180.97 182.06 181.68 180.83 180.27 179.49 178.83 176.30 168.08 154.25 139.43 129.42 123.03 111.48 98.35 92.27 96.29 106.53 118.91 126.08 121.70 108.31 91.86 72.37 42.40 4.08 -24.79 -39.34 -45.65 -45.94 -41.21 -38.78 -43.99 -52.26 -57.53 -57.61 -55.96 -62.60 -79.52 -97.29 -113.15 -127.43 -139.32 -147.84 -149.48 -142.22 -131.78 -125.57 -124.32 -126.29 -128.88 -131.34 -134.57 -138.66 -141.83 -141.69 -138.25 -133.53 -132.01 -136.63 -144.12 -148.17 -148.35 -148.24 -149.81 -152.42 -155.52 -158.10 -158.11 -155.46 -152.51 -151.94 -154.81 -159.42 -162.94 -165.15 -170.21 -178.32 -182.01 -179.96 -176.12 -172.39 -169.61 -168.88 -169.61 -169.49 -167.91 -166.62 -166.04 -164.66 -162.95 -162.47 -162.08 -161.93 -162.83 -164.41 -166.15 -168.08 -169.38 -170.57 -173.78 -176.89 -176.92 -175.19 -174.61 -174.70 -174.18 -173.23 -172.60 -173.20 -174.87 -177.79 -183.19 -191.24 -199.81 -205.54 -207.31 -206.42 -207.32 -213.84 -219.70 -221.10
218.25 212.79 199.81 185.38 176.78 172.77 170.09 168.57 167.39 166.04 165.52 167.20 171.40 177.05 180.62 181.90 182.24 182.40 182.22 181.24 180.41 178.48 172.80 162.88 150.21 140.20 138.35 138.06 136.20 134.69 136.39 141.06 145.42 142.96 130.09 109.81 88.93 67.66 37.77 2.49 -20.19 -26.84 -25.98 -23.09 -20.63 -22.10 -28.15 -34.15 -36.38 -35.51 -37.46 -51.41 -74.59 -93.80 -106.50 -116.04 -125.67 -137.47 -146.75 -147.77 -142.67 -138.13 -137.18 -139.59 -142.62 -144.83 -146.68 -148.97 -151.27 -151.14 -148.36 -145.05 -143.56 -145.49 -150.05 -153.20 -153.64 -153.80 -155.58 -157.80 -160.47 -162.95 -163.51 -161.65 -158.37 -156.78 -159.04 -162.83 -165.46 -167.13 -171.40 -178.11 -180.38 -177.14 -172.03 -167.07 -162.96 -161.45 -162.53 -163.40 -162.72 -162.00 -161.85 -161.12 -160.25 -160.65 -161.06 -161.52 -163.36 -166.42 -169.35 -171.03 -171.31 -172.00 -174.67 -177.17 -177.16 -175.56 -174.91 -174.72 -173.83 -172.91 -172.73 -173.82 -176.98 -183.15 -194.06 -209.84 -226.21 -236.77 -239.41 -236.77 -236.83 -244.87 -252.11 -253.94
