279.35181 281.62592 187.44897 67.27769 42.47475 76.45509 123.13743 113.26723 51.11673 15.25013 -8.22320 -11.32189 -21.02254 -24.05551 -41.11956 -77.02906 -93.52828 -88.92134 -78.19054 -84.11429 -74.20073 -33.25058 -20.91156 -6.51489 -0.28412 19.94738 13.38690 -13.08565 -40.10060 -55.13821 -75.51006 -101.62117 -119.71785 -129.28127 -139.02573 -156.28722 -167.36667 -155.61151 -151.34624 -137.43449 -137.47088 -132.89999 -148.92069 -154.01830 -148.30133 -142.61583 -100.16727 -79.46238 -89.65964 -85.28146 -92.00824 -97.10875 -103.79228 -102.61240 -100.19963 -113.66163 -112.94249 -114.38446 -119.09339 -125.11935 -118.42293 -114.98622 -122.04062 -124.54474 -125.50400 -128.27798 -136.06553 -131.36471 -142.41578 -137.09840 -141.09440 -137.16810 -144.55178 -135.02009 -148.53187 -142.44511 -151.91936 -149.01784 -139.67858 -149.32751 -166.08823 -165.74657 -162.22565 -165.28747 -158.17931 -165.68191 -164.71680 -164.19248 -174.20473 -175.35490 -175.53049 -170.76386 -176.43420 -176.01284 -174.91980 -175.50693 -177.04996 -177.90784 -174.73777 -172.79987 -176.45119 -171.28589 -177.04482 -181.65598 -180.71504 -184.66337 -182.20388 -193.32910 -288.25530 -377.67838 -778.37219 -976.45224 -1130.42910 -1145.59031 -1246.66617 -1361.52046 -1369.05298 -1392.58155 -1394.37667 -1392.09555 -1471.02241 -1505.91890 -1542.41934 -1601.74457 -1645.68368 -1712.78607 -1740.52387 -1799.24930 -1844.81944 -1900.07839 -1926.89401 -1937.16950 -1974.73771 -2008.71757 -1999.52693 -1994.41958
282.40817 286.69457 171.90682 45.14554 86.34348 139.44099 169.80456 174.77248 98.64228 70.12045 18.77449 9.46839 3.51083 -21.46772 -21.06514 -46.41430 -82.71540 -96.27776 -101.71942 -106.55534 -95.99466 -72.64550 -48.66065 -32.88809 -3.33080 10.69273 21.95741 -6.58670 -5.57194 -31.20456 -61.44925 -108.30713 -115.82052 -126.03868 -146.44855 -157.74686 -167.59733 -153.57883 -142.05585 -121.55590 -114.77979 -126.09882 -142.62816 -151.83823 -147.91242 -125.12402 -95.58094 -78.28363 -87.10234 -86.19500 -93.74593 -95.04715 -111.11116 -116.98329 -108.34294 -120.46849 -127.48175 -130.54681 -134.29944 -122.75181 -121.03419 -124.28370 -120.25551 -125.40833 -121.05242 -131.22335 -123.87608 -134.58672 -128.89751 -138.62225 -137.69513 -138.00859 -135.02872 -141.46477 -144.55852 -157.20884 -161.58184 -153.67659 -159.12639 -152.50894 -163.99811 -160.33921 -158.20896 -159.36619 -167.62951 -163.77064 -160.82656 -166.71156 -163.32941 -169.72629 -164.90834 -167.49470 -173.28486 -176.95861 -174.28110 -173.36541 -176.87638 -173.91275 -179.15119 -176.65078 -174.09532 -173.38841 -177.24044 -179.23728 -173.26262 -181.58378 -177.91521 -177.37996 -188.69212 -329.89667 -510.99649 -865.34644 -977.47156 -1077.30109 -1218.12834 -1288.60323 -1282.60818 -1332.41454 -1322.02932 -1369.46765 -1391.05528 -1426.65434 -1489.11371 -1496.83486 -1517.22629 -1604.47476 -1695.50609 -1723.72870 -1753.26042 -1769.36391 -1825.10219 -1891.88258 -1900.81167 -1950.85456 -1954.31291 -1952.02454
407.76698 397.56363 253.85652 90.01700 161.59575 215.00655 199.80440 205.96425 158.19310 80.93913 47.97164 38.90905 15.44057 -5.65401 -31.39669 -34.12537 -44.98753 -60.55997 -93.79888 -94.16595 -111.90698 -94.13166 -75.86659 -41.79041 -29.90809 1.30950 -0.44513 1.52946 -24.99156 -39.66583 -42.90116 -78.70789 -109.27552 -122.36603 -139.73508 -154.32343 -165.53994 -161.81620 -145.99839 -116.69755 -105.95456 -111.36270 -127.76917 -135.66578 -135.76267 -106.26237 -91.82243 -81.01552 -86.44781 -96.90566 -100.67670 -110.45181 -109.16724 -118.92171 -127.87056 -129.04764 -137.14993 -144.14833 -136.88381 -130.04086 -127.86644 -125.45563 -130.93473 -120.37165 -127.89659 -128.50965 -131.01604 -134.57367 -127.12365 -141.80225 -148.98642 -148.58377 -155.13017 -154.22040 -154.22377 -167.05647 -172.11561 -167.33718 -157.56688 -159.50873 -164.85848 -163.77313 -162.59269 -167.39474 -158.01808 -162.78026 -167.63572 -162.81137 -163.22606 -166.53172 -174.01289 -171.73006 -176.59802 -175.25558 -169.55063 -175.46613 -173.92689 -179.68418 -172.19918 -174.78992 -176.20222 -170.34061 -173.36795 -179.65086 -179.40281 -176.61682 -176.60837 -179.64033 -185.03327 -279.60449 -432.34834 -697.93159 -804.35829 -934.67276 -1056.79760 -1145.43489 -1262.02369 -1264.91702 -1285.48419 -1310.53624 -1353.25198 -1359.98860 -1386.84543 -1407.23216 -1467.18894 -1469.63444 -1522.29032 -1559.19121 -1612.42945 -1725.56090 -1784.35115 -1830.49325 -1850.26200 -1852.11793 -1902.15427 -1894.01799
377.07906 377.82917 252.26229 160.62752 151.28248 236.33589 238.34499 245.06677 184.35115 116.74651 63.78252 68.53955 39.08296 -18.14296 -38.19732 -29.04380 -38.38392 -56.90764 -67.81097 -87.21628 -113.02452 -95.38277 -103.88037 -63.20821 -50.40003 -30.52339 -26.86987 -24.11841 -23.47014 -45.01926 -51.93049 -74.57930 -121.66218 -125.11897 -140.80895 -158.86030 -170.59916 -162.64545 -147.61223 -121.48320 -98.17322 -105.32236 -117.19850 -120.21253 -108.39139 -99.29532 -89.12753 -77.88018 -83.06624 -94.38841 -101.63436 -120.13743 -123.12366 -139.01816 -140.42414 -138.48739 -143.22597 -155.82254 -147.86553 -137.37630 -139.30518 -135.25661 -141.47418 -149.45528 -153.46295 -151.64596 -145.08999 -138.13465 -144.77555 -156.74629 -165.73433 -168.60128 -160.67494 -154.51221 -173.26629 -170.21276 -170.41734 -170.10296 -165.32363 -169.85332 -165.96707 -167.37995 -160.90115 -163.91726 -158.41857 -160.52393 -158.90696 -167.47983 -168.19390 -170.78787 -170.50726 -174.84000 -172.85911 -176.67833 -172.24706 -176.89975 -174.15784 -173.64196 -170.11665 -179.84773 -176.78255 -170.40034 -178.63466 -176.77036 -172.63074 -174.65517 -177.34039 -180.85660 -191.81353 -197.79944 -348.06084 -531.06499 -599.70225 -757.28383 -986.13249 -1125.70823 -1218.43500 -1227.59628 -1205.68306 -1244.88843 -1246.62758 -1269.58355 -1275.11397 -1318.74983 -1328.30744 -1372.69100 -1447.47988 -1468.94804 -1576.03727 -1606.45330 -1683.12003 -1790.51421 -1794.88754 -1845.76987 -1827.59776 -1830.27307
415.92879 408.54883 470.34869 167.65269 217.98783 254.45575 306.16397 293.82582 246.17457 130.58730 66.95093 46.70502 22.04870 -21.85975 -47.02137 -55.95558 -46.76465 -39.59320 -51.34607 -71.76471 -79.48498 -104.90330 -104.65244 -95.45638 -59.10597 -52.72692 -48.24071 -26.65887 -54.93071 -60.75584 -78.74654 -77.00193 -130.13300 -159.47261 -156.37635 -171.22606 -159.50786 -161.46359 -137.17953 -125.18370 -103.73539 -93.10932 -100.54189 -102.53424 -97.46033 -90.31309 -77.41968 -78.21589 -81.24893 -106.59845 -119.61230 -133.25585 -130.32099 -142.11984 -133.69481 -127.82340 -131.07445 -147.43531 -158.78727 -147.60085 -140.75391 -147.87877 -156.07436 -159.92107 -166.10887 -160.67676 -159.41518 -154.35743 -157.24844 -164.49045 -164.39027 -167.42605 -174.38441 -169.34027 -166.66117 -171.92593 -172.82191 -177.94697 -167.33667 -175.24457 -168.96108 -170.23117 -165.40598 -165.83490 -167.42186 -161.33965 -174.23284 -170.53355 -169.70424 -169.30638 -175.25205 -171.11352 -176.82111 -172.87674 -168.52259 -172.12414 -168.08014 -175.88085 -174.08609 -173.69373 -170.63745 -173.87079 -171.57013 -177.11569 -176.35110 -175.64051 -169.02834 -177.10448 -184.82254 -189.99937 -224.60335 -432.01704 -547.61473 -793.93510 -992.34436 -1155.10284 -1177.13517 -1154.13085 -1155.08803 -1169.24094 -1178.83846 -1160.96670 -1164.40201 -1225.48927 -1204.33416 -1251.02920 -1319.37086 -1366.61581 -1488.56406 -1522.33840 -1570.95316 -1635.51102 -1703.13219 -1742.08287 -1762.99672 -1761.91219
664.45305 663.35253 457.93952 307.45054 262.94292 315.39802 347.80607 336.26086 281.52635 181.82009 85.79971 67.12877 -6.38198 -38.12814 -55.82263 -67.63928 -67.45770 -59.78284 -53.99021 -60.68609 -87.27455 -109.52757 -117.51971 -108.61789 -94.15162 -66.42309 -56.76753 -53.48562 -86.32722 -86.58399 -103.11766 -137.84793 -147.86718 -168.00816 -161.17755 -164.12378 -152.87513 -145.60197 -129.64577 -117.22983 -104.80716 -87.38548 -91.96364 -77.73860 -72.17293 -72.58458 -76.52343 -78.80968 -91.88199 -101.64285 -116.35328 -124.19720 -132.17728 -130.06197 -118.41270 -126.08585 -139.33465 -143.38931 -154.18914 -153.81577 -154.52618 -154.44948 -153.80917 -155.83648 -174.54292 -170.91210 -163.44733 -148.94604 -157.79875 -159.94003 -170.71507 -166.33606 -171.14337 -168.39721 -174.42325 -176.26125 -171.09931 -178.62402 -170.24846 -178.68924 -179.67862 -174.71156 -173.64872 -175.59009 -176.99076 -172.35531 -169.14886 -174.45962 -175.61489 -181.38477 -175.31541 -177.16938 -172.74127 -173.67899 -167.44490 -173.15917 -170.74154 -170.95530 -177.35455 -178.86292 -174.99176 -173.55245 -170.91587 -176.99593 -175.23131 -169.50255 -174.98089 -175.87785 -179.46480 -190.12122 -302.92706 -400.46758 -633.61015 -834.16688 -1024.38285 -1139.77553 -1132.77974 -1141.28724 -1110.11827 -1085.80032 -1086.31324 -1116.97947 -1073.49811 -1104.88425 -1168.42771 -1169.23245 -1181.30880 -1289.42123 -1341.35332 -1401.39685 -1493.00901 -1521.85107 -1604.67523 -1692.21133 -1682.47193 -1675.96188
717.39512 716.64634 616.43356 384.98059 340.84770 371.03185 394.28451 381.89126 316.16335 195.60235 126.25042 48.23291 -20.80665 -40.65314 -61.35102 -85.05527 -81.50024 -80.16016 -85.48868 -94.53863 -93.64488 -109.77082 -120.36191 -119.70890 -102.09478 -82.81795 -82.55356 -84.35318 -96.50763 -120.74325 -136.85592 -151.86095 -158.54708 -156.12326 -160.30454 -156.81779 -135.66755 -123.28050 -110.83618 -119.70886 -88.32657 -68.38664 -75.90868 -72.60650 -62.14439 -69.18066 -73.58404 -78.19295 -88.73999 -102.70620 -119.95315 -129.79647 -119.76856 -111.01578 -106.06727 -120.11754 -127.09472 -143.91721 -142.28536 -138.88057 -148.40049 -145.09795 -139.21619 -149.46758 -161.35256 -169.57916 -167.01686 -168.77116 -159.77907 -163.70549 -159.32327 -171.47290 -173.68354 -167.51366 -167.07754 -160.80708 -162.02300 -170.85704 -175.37442 -168.17722 -170.06869 -174.34869 -175.00969 -167.21601 -173.42022 -173.83393 -174.25457 -170.95398 -174.35461 -174.35656 -173.15293 -177.31125 -175.67996 -176.21823 -169.11512 -165.68310 -168.02975 -168.98699 -172.14641 -172.13663 -172.36291 -167.28556 -168.98552 -168.56801 -171.57516 -174.34104 -172.97879 -175.25285 -177.42863 -193.25838 -328.78606 -472.16078 -709.27448 -855.00487 -1017.07822 -1092.54400 -1104.14384 -1099.30814 -1056.34918 -1049.39297 -1034.33099 -1025.24712 -1039.50396 -1044.98663 -1040.28340 -1027.49575 -1028.00918 -1114.36618 -1199.45136 -1248.39395 -1341.99349 -1463.04140 -1466.46494 -1599.49449 -1598.45556 -1597.78847
892.03556 889.65257 690.06919 426.34005 424.57790 461.24002 428.05185 366.21422 269.78931 232.29708 113.91546 36.22167 -23.34690 -49.26031 -57.63499 -72.74614 -86.55522 -94.98613 -104.92532 -108.12491 -111.21139 -130.61648 -137.11418 -125.44735 -108.12299 -103.70304 -90.55132 -97.20994 -111.04343 -128.41412 -140.72995 -161.91223 -155.68203 -149.00654 -144.18340 -136.61381 -127.02365 -108.35799 -87.71734 -72.86409 -80.46032 -63.96776 -66.62312 -62.66945 -60.52053 -63.02272 -78.70449 -78.37562 -83.87002 -100.20229 -123.13664 -119.57856 -116.35782 -102.68984 -100.75568 -111.73098 -124.22169 -123.16277 -135.49154 -127.97617 -145.69425 -144.45246 -132.36136 -138.06024 -153.61002 -165.82283 -168.69637 -171.06238 -174.57794 -169.67200 -164.08998 -170.71500 -167.06352 -165.42362 -160.12442 -160.42176 -157.54185 -172.17744 -160.83065 -169.23458 -167.44414 -172.93555 -173.16271 -169.82954 -165.82946 -165.22962 -171.52211 -159.57469 -172.52530 -175.14972 -175.04697 -167.78348 -172.27788 -171.56431 -168.76081 -163.64199 -170.05749 -171.45877 -169.73045 -174.46472 -172.52344 -171.81624 -171.06146 -170.68320 -172.50866 -175.80545 -172.40323 -175.40024 -184.40345 -187.39788 -309.86943 -550.13697 -781.12943 -819.42744 -970.48787 -1008.79238 -1071.54712 -1055.64567 -1040.97284 -1029.10082 -1035.10790 -995.13314 -974.89316 -966.89833 -970.86217 -999.44393 -1008.16648 -1001.81256 -1044.58021 -1162.75186 -1278.26340 -1343.30539 -1406.22268 -1432.86985 -1513.71086 -1510.94463
876.48380 880.94705 664.77324 553.81839 500.05034 491.90740 441.33342 350.28617 296.82148 159.79075 94.75250 7.76812 8.28001 -36.42460 -62.11139 -63.78284 -82.72901 -86.41106 -110.51621 -117.45382 -124.86719 -121.16240 -128.76597 -138.31669 -135.93929 -126.56739 -111.23518 -119.03548 -122.24478 -144.59390 -148.29210 -150.88588 -142.42059 -134.77852 -142.00977 -99.89605 -101.76146 -75.67404 -61.04403 -57.16416 -57.37667 -47.64931 -61.41261 -63.15455 -60.51129 -65.04143 -80.41462 -89.79959 -96.25821 -101.06800 -109.84211 -126.46088 -107.55601 -107.63690 -101.42935 -111.17382 -118.42089 -114.21466 -107.27783 -121.44693 -131.30150 -135.67686 -129.65132 -131.99202 -147.26469 -162.18042 -153.40929 -160.21808 -166.68084 -168.92599 -179.89010 -171.07760 -163.23478 -158.11875 -152.68035 -157.05692 -151.02795 -149.96769 -157.86574 -158.22891 -159.42942 -168.87574 -163.74355 -164.65502 -171.02505 -171.56812 -168.28132 -168.41942 -168.00162 -169.50941 -174.10789 -169.27744 -170.21700 -167.83014 -173.67632 -159.84085 -167.82407 -163.39299 -170.19431 -173.61453 -164.38649 -179.00927 -171.09887 -176.43210 -170.66297 -179.36313 -173.48058 -177.57461 -182.43654 -197.19430 -198.11286 -513.03698 -740.97503 -796.29238 -906.13425 -1033.70886 -1046.71795 -1047.16769 -1021.59764 -994.44243 -985.87452 -980.16622 -930.66249 -937.00616 -894.70507 -912.60634 -917.77669 -940.86312 -1006.42311 -1032.98564 -1124.99421 -1326.56364 -1327.58844 -1425.80091 -1435.24562 -1433.08482
781.76899 781.27982 793.36230 454.14334 479.33774 421.39804 310.75446 288.11642 251.14497 220.80662 100.08770 92.58131 32.27108 27.22680 -11.12517 -38.57885 -52.51912 -80.31019 -93.99302 -107.59318 -105.27499 -123.50470 -131.57380 -132.03253 -139.08477 -131.49502 -131.19060 -134.16571 -139.93433 -148.75297 -155.00196 -152.29493 -128.69378 -106.68133 -91.20209 -71.49983 -88.28592 -60.02754 -35.11640 -23.98895 -41.43383 -59.44282 -60.83213 -66.82513 -71.38701 -79.45824 -102.25278 -102.17561 -101.90507 -100.33235 -105.21730 -114.51261 -109.27147 -94.13429 -97.46123 -95.44058 -105.87808 -110.68581 -102.70535 -111.98309 -119.72323 -128.92765 -126.41022 -122.02338 -127.72062 -137.40849 -147.84542 -154.98938 -158.27383 -169.24703 -175.99799 -168.97293 -164.67108 -153.10905 -155.37550 -148.64787 -137.97897 -146.20437 -148.50285 -151.36789 -160.00205 -159.34592 -162.07811 -168.76616 -160.43491 -169.49181 -168.74955 -169.65078 -165.50003 -171.28966 -171.34872 -171.64967 -165.70414 -172.60915 -165.06889 -168.06844 -169.78453 -169.13376 -179.94758 -168.30830 -172.83027 -170.01010 -166.27578 -173.45710 -178.25911 -174.06902 -172.67846 -180.62169 -187.15067 -194.82840 -215.49213 -577.84582 -806.14026 -824.88131 -888.59531 -1014.73768 -1028.04706 -1013.45380 -999.57666 -979.52546 -935.19165 -897.51208 -871.93624 -879.31512 -853.72576 -843.86581 -850.05190 -850.78622 -923.81160 -955.00814 -1024.01431 -1137.38255 -1236.06791 -1311.02712 -1363.75180 -1359.85531
723.72792 726.28790 589.71669 428.39694 364.51064 329.04043 212.22396 249.68857 304.72056 308.84537 242.53951 125.64070 109.98542 54.17231 32.66699 -0.06722 -12.45125 -53.45685 -71.02179 -86.22511 -107.19157 -104.95767 -105.96540 -135.85724 -140.18342 -140.34194 -148.45457 -142.93751 -153.32783 -151.46869 -149.47003 -138.89013 -122.24087 -94.02860 -89.84290 -51.94959 -54.41968 -41.15435 -29.93322 -26.83395 -51.19449 -62.03117 -67.90702 -68.61534 -78.37874 -96.73781 -101.05427 -101.54748 -105.44858 -98.90354 -97.81790 -100.88751 -101.59572 -93.87623 -80.27269 -89.68924 -95.14653 -99.05932 -90.60562 -102.12651 -114.74392 -119.49029 -130.19137 -124.12925 -126.69590 -136.20721 -134.33979 -144.92968 -153.44338 -166.01997 -171.74437 -169.15934 -157.32838 -159.62726 -142.14900 -144.05701 -142.37650 -147.80938 -145.90573 -147.11316 -151.66525 -157.52871 -166.12926 -163.43343 -167.57074 -177.21998 -170.41120 -174.15882 -168.24865 -167.83796 -171.26018 -169.45011 -176.79315 -167.79907 -166.46791 -173.49829 -174.62864 -172.36084 -175.09111 -172.27771 -173.75657 -172.20821 -173.65830 -171.02216 -172.97123 -182.99661 -177.65502 -184.44109 -194.12262 -202.54696 -229.69086 -464.95125 -713.60442 -824.08238 -937.44192 -992.27305 -1002.41382 -1001.90949 -999.30306 -934.69549 -907.03890 -887.17554 -862.20441 -815.85320 -804.02238 -808.08993 -809.84520 -834.83375 -871.45467 -886.09553 -917.50289 -1031.32048 -1150.82197 -1267.12593 -1296.26126 -1301.11459
712.36932 719.03925 537.24589 366.97015 245.87408 183.60617 206.01126 226.05348 307.22473 307.33864 243.46499 168.38592 130.26744 67.05832 26.84862 6.07405 8.24334 -9.13062 -26.75299 -66.02176 -80.47556 -80.32726 -88.45399 -107.97431 -130.47590 -140.14906 -140.01762 -148.48049 -142.59639 -152.32827 -148.17966 -137.71942 -114.64264 -103.10870 -64.13700 -44.62838 -19.72313 -15.37083 -17.35008 -33.34212 -58.84112 -65.46313 -66.33718 -82.97015 -90.22654 -96.50500 -98.45236 -99.27919 -98.05306 -87.07798 -86.53618 -92.50915 -106.88825 -92.80046 -85.13382 -84.58330 -88.95219 -94.13740 -100.68705 -104.73654 -108.73338 -121.97348 -127.31648 -128.86779 -133.20433 -138.44688 -137.40078 -150.43869 -162.29573 -170.30943 -173.51406 -155.92969 -140.87478 -144.60892 -138.12549 -136.95704 -139.73677 -144.25158 -142.71989 -146.73403 -143.88874 -160.62553 -162.93626 -176.09284 -172.26305 -171.74777 -173.49379 -170.90202 -173.25160 -173.77408 -168.68074 -170.92152 -175.11907 -169.41700 -167.59602 -168.55776 -174.56524 -164.80577 -173.43516 -170.68352 -171.31500 -173.89611 -170.41313 -177.41549 -173.72256 -184.36001 -185.83082 -190.41419 -189.27629 -223.34670 -252.67022 -382.55290 -624.52484 -865.93135 -946.30001 -959.54170 -993.11990 -975.12396 -956.65654 -910.43568 -886.51721 -868.24824 -819.73638 -779.11369 -754.45332 -747.60002 -763.35189 -767.83895 -812.89785 -835.93532 -902.70898 -989.08261 -1053.05787 -1253.53917 -1249.60252 -1248.12401
529.23288 533.79908 572.21880 250.69329 232.90985 173.44183 139.52173 190.75737 271.89883 275.97357 219.84900 207.77491 188.21239 117.76349 88.48532 38.78713 51.85364 33.73048 -4.35600 -28.76568 -42.85810 -45.39332 -81.24382 -104.98556 -119.46282 -112.96271 -131.92197 -142.15788 -136.43055 -135.51872 -133.56672 -123.94558 -99.79073 -97.81543 -64.30779 -29.69427 -8.05930 -15.74831 -19.79771 -38.76939 -60.61743 -73.24975 -75.86088 -82.63912 -91.43209 -93.99946 -85.99547 -85.22293 -73.93819 -74.42916 -82.04988 -88.91627 -94.83499 -93.63205 -81.45943 -78.96602 -93.75406 -98.59341 -96.48757 -111.78548 -122.04151 -124.31055 -144.76853 -146.60843 -145.44713 -152.43873 -155.23760 -151.85087 -160.20572 -158.72375 -159.35024 -156.69223 -143.46964 -138.16814 -140.33645 -131.89228 -137.29007 -141.66454 -136.18204 -151.85648 -152.49453 -161.55095 -158.63988 -167.39041 -171.66173 -175.02601 -172.41240 -173.76123 -168.77354 -175.45545 -172.34454 -165.23987 -174.08513 -173.79450 -176.04375 -170.48379 -178.65270 -173.55708 -176.79847 -173.07278 -169.71468 -164.70257 -173.57385 -178.56892 -167.71296 -174.94481 -181.04512 -193.92868 -188.66442 -222.92709 -252.09473 -419.11640 -530.51276 -755.01224 -901.24699 -930.82124 -954.17900 -962.12350 -941.12454 -898.24415 -863.03617 -848.35092 -814.50970 -763.63304 -740.95237 -735.14224 -731.00376 -719.45077 -751.65618 -795.58704 -866.75517 -961.91460 -1047.24968 -1144.69712 -1203.67112 -1203.54626
476.96146 480.10750 340.45722 255.69532 194.25396 140.55999 116.04075 175.35269 212.27558 199.33384 191.73112 201.05830 212.48710 149.81731 106.79867 55.55192 61.73101 55.34880 -5.16321 -30.89987 -42.42522 -77.19767 -89.61511 -119.53077 -106.47766 -101.20937 -114.89963 -110.56149 -116.52597 -121.19110 -117.47971 -114.37938 -95.22908 -88.72128 -55.69255 -23.14744 -15.48347 -13.05663 -28.58256 -53.38629 -68.82245 -75.75826 -82.44997 -91.59915 -92.71504 -84.11770 -70.87149 -62.70242 -60.70854 -63.38547 -68.40624 -83.94699 -90.83423 -78.67901 -82.58554 -84.21810 -96.40797 -105.28970 -112.57981 -122.76205 -126.53104 -140.77338 -141.31951 -142.35237 -147.05670 -146.21035 -153.66717 -155.54980 -146.42532 -151.07179 -151.31467 -141.32084 -147.64906 -139.06691 -130.82825 -136.10175 -145.41716 -146.51577 -150.75346 -155.47056 -160.69097 -159.67252 -170.81420 -172.13331 -170.54262 -169.00699 -170.39974 -169.47735 -167.47174 -172.61485 -172.20272 -172.13361 -171.10310 -174.47140 -170.19031 -173.28870 -167.20821 -170.88647 -169.57714 -170.55495 -171.90686 -167.70126 -179.70008 -178.82209 -177.95125 -176.50711 -169.10262 -186.20125 -187.05566 -213.10567 -309.46891 -354.75822 -536.19645 -717.50226 -889.21061 -913.09272 -943.73998 -955.47803 -910.40900 -875.68197 -831.65365 -814.19237 -757.10161 -710.34743 -712.48784 -688.20026 -691.83384 -716.71344 -753.37174 -788.57496 -809.50194 -933.91541 -986.02257 -1119.61612 -1164.40618 -1160.72097
467.13048 464.73610 345.26190 216.96091 148.57403 94.67408 113.89245 156.03902 183.16965 170.99828 144.91495 169.56352 186.78972 186.10445 151.38175 97.92883 69.08043 45.68873 -21.02821 -70.65064 -72.55078 -94.45986 -100.33232 -104.50880 -85.50128 -69.88495 -97.39812 -110.45053 -104.20499 -95.90032 -103.12701 -101.49659 -88.65838 -73.19707 -54.98058 -29.46698 -12.19852 -19.36648 -39.44582 -60.67951 -69.92686 -73.39313 -82.85865 -89.15711 -82.08067 -73.82393 -64.96710 -54.30444 -37.33016 -53.75189 -59.98658 -72.19523 -75.69482 -76.51805 -86.85973 -91.03542 -100.51538 -104.74635 -113.35744 -129.95563 -134.00992 -131.70446 -126.43016 -129.70251 -131.56355 -144.82311 -151.74694 -152.86024 -138.92706 -146.61745 -137.70344 -147.94240 -142.52192 -140.38285 -139.15352 -142.02869 -146.65933 -152.52737 -156.56139 -158.78868 -165.98119 -162.10913 -171.98815 -175.90554 -175.35701 -165.96295 -165.87231 -164.42552 -158.78729 -161.43032 -169.57787 -171.67489 -178.41576 -166.95359 -171.52289 -172.79239 -162.44481 -167.80027 -168.68275 -168.05139 -173.89597 -175.74543 -175.02309 -173.26188 -171.65027 -173.64543 -177.87758 -185.78407 -188.69824 -198.50359 -288.62357 -439.14920 -559.89613 -646.36697 -847.39601 -876.18078 -912.16291 -912.31500 -875.35148 -832.62426 -804.31867 -790.37465 -721.70278 -709.42426 -672.42807 -674.67216 -673.90864 -676.40309 -721.25149 -744.21052 -786.89268 -876.42395 -909.30025 -1122.00064 -1118.32012 -1121.08662
519.31437 524.12201 393.60383 232.83427 158.97787 89.64473 82.42643 97.83851 124.39160 117.61431 118.15502 131.01072 175.63125 172.32233 145.70473 88.04790 81.77647 51.75273 -16.83667 -86.37810 -82.45068 -87.38847 -81.36665 -89.12881 -77.31339 -81.63911 -83.47568 -96.96182 -82.79666 -70.95247 -66.49013 -72.02639 -84.40082 -62.35449 -39.86993 -17.59704 -9.62600 -19.17404 -33.26254 -54.67714 -67.95179 -79.63292 -78.90548 -74.97233 -64.80887 -65.01424 -51.48444 -31.17249 -35.01852 -42.13976 -59.17307 -61.84371 -67.06411 -73.64010 -81.69364 -95.04276 -100.60202 -122.53278 -123.64188 -121.28745 -127.38394 -119.25445 -119.90849 -111.70974 -126.62409 -137.52534 -135.72106 -135.97676 -125.17706 -138.28742 -142.40832 -143.64626 -147.28997 -138.08629 -145.70595 -136.25765 -149.25642 -158.48157 -163.65171 -163.33086 -161.35612 -173.35080 -174.54521 -170.93526 -172.24206 -169.77493 -159.91943 -153.46440 -150.40573 -165.13909 -170.81749 -173.94079 -172.77079 -171.71463 -162.87293 -156.99857 -159.31195 -167.32324 -168.60228 -165.08931 -172.48270 -169.67086 -173.96410 -176.56183 -170.73296 -171.74882 -178.02222 -175.08672 -190.14757 -200.18702 -262.64775 -413.73569 -483.14686 -616.76564 -743.69305 -772.43460 -836.01933 -882.60237 -858.58396 -795.25673 -773.60941 -727.09948 -681.47634 -628.25436 -637.52403 -644.00747 -637.08761 -641.15609 -678.76438 -699.19596 -756.63910 -796.69408 -886.50357 -972.35333 -1065.86033 -1067.28992
481.22428 484.18647 367.82632 234.43737 199.45369 108.21311 52.49272 54.94351 35.60977 59.05758 98.73513 138.11746 177.55441 176.65480 143.34926 86.50558 52.36755 -2.76965 -39.68111 -63.81293 -59.94260 -73.23011 -49.54704 -59.91197 -42.32348 -66.75551 -74.92275 -90.49642 -76.64683 -53.78436 -39.73242 -40.95730 -55.44290 -44.18905 -19.65125 -0.70359 -9.81108 -26.22161 -30.69693 -63.21388 -63.18798 -67.01632 -65.15463 -64.80418 -58.96199 -46.86344 -39.84002 -17.29745 -17.83525 -23.78805 -37.68145 -54.56916 -70.84623 -74.42029 -79.86095 -93.01327 -86.79137 -96.61861 -113.12997 -120.33421 -114.25673 -118.19778 -104.46217 -114.59588 -114.49411 -123.59718 -125.93531 -129.89842 -133.78180 -133.79174 -144.86300 -157.65309 -153.14680 -160.99332 -150.22676 -150.64616 -152.03302 -154.35191 -163.34580 -169.57437 -166.91862 -166.28834 -172.98775 -171.72301 -176.57333 -169.30679 -153.29938 -144.28409 -151.09358 -158.82942 -170.11085 -162.76189 -165.03252 -160.82711 -158.95694 -159.47178 -156.20280 -164.52003 -164.39074 -171.40597 -171.97935 -172.29898 -173.13469 -168.94299 -170.15061 -174.80502 -171.12418 -174.63354 -183.76273 -198.97523 -207.07993 -292.30760 -354.41419 -545.03854 -593.73837 -670.05373 -765.09534 -773.82994 -773.37332 -780.69428 -723.92398 -697.72571 -644.40098 -625.87910 -590.31874 -607.69148 -610.67631 -631.29408 -656.60040 -698.73072 -708.54137 -744.44764 -836.26847 -966.66825 -1000.63746 -1003.83238
439.79089 439.47426 353.14879 230.58058 207.87813 127.48262 59.19096 42.96936 31.55125 58.12380 93.57209 158.76402 175.71003 181.28176 173.99306 107.51482 44.46665 -8.71189 -4.09862 -34.15325 -33.84444 -46.23830 -31.88909 -28.59539 -35.11015 -41.65371 -58.61745 -72.70910 -63.33064 -59.51837 -31.41257 -30.59557 -32.17607 -15.77806 10.87719 13.65442 1.85456 -17.78463 -25.49942 -46.36916 -49.40548 -56.51715 -58.46456 -42.52848 -34.65018 -41.13590 -27.92874 -9.34575 3.75188 -21.70238 -35.23668 -60.90923 -67.33998 -78.85573 -74.82453 -92.39364 -84.43198 -94.75842 -110.64954 -115.33116 -113.32630 -106.69177 -106.40263 -109.83432 -110.10935 -124.19099 -122.75537 -128.91420 -138.00762 -134.96094 -152.96901 -158.77936 -163.39510 -156.30957 -156.87826 -157.52084 -153.95088 -158.09850 -157.59615 -170.45295 -168.53269 -172.18532 -161.62157 -160.95047 -166.78605 -160.41299 -156.09450 -147.32929 -149.95394 -151.47955 -160.16794 -162.74040 -158.48213 -158.37932 -160.21980 -160.30865 -160.29891 -162.57354 -167.60392 -159.92448 -175.44796 -174.79112 -166.67902 -170.94270 -169.75654 -168.35361 -172.91155 -174.89121 -183.46982 -187.66902 -196.73312 -200.78337 -209.11973 -298.21654 -355.41315 -399.94928 -559.09436 -706.06139 -734.30464 -718.93608 -686.52726 -630.44817 -604.09184 -585.36126 -579.72214 -557.50501 -571.89188 -589.66285 -587.55767 -626.81566 -655.98188 -711.73505 -729.85923 -933.77924 -930.49339 -926.27673
427.70311 423.24020 333.30122 197.78248 143.47343 131.36484 82.65081 38.92942 20.66955 56.72489 80.23845 151.30990 205.11097 202.45013 188.56227 151.61714 81.73995 30.97986 2.39840 -11.45112 -23.38760 -22.37356 -17.94474 9.19471 1.55207 -16.07266 -34.05553 -61.34638 -60.88501 -41.70670 -24.31768 -5.66268 -4.72079 22.08404 33.42054 29.66250 8.19951 1.84187 -19.55661 -23.88083 -36.15760 -49.89497 -50.51771 -30.73003 -13.35776 -11.69122 -4.04798 3.39899 6.23471 -12.08984 -53.54041 -71.58262 -71.48013 -81.11044 -93.58652 -84.91377 -88.13276 -93.76572 -110.28846 -125.05660 -129.92146 -113.57531 -107.34012 -108.58255 -116.13140 -126.33738 -127.86404 -132.73709 -129.84815 -142.83871 -155.30359 -160.90541 -164.84779 -165.69469 -162.74212 -160.45699 -168.88460 -173.27378 -170.32915 -175.49657 -160.78637 -161.41432 -162.74248 -161.68389 -156.87838 -157.28353 -145.79811 -148.12909 -149.64450 -147.62277 -152.79396 -151.98536 -153.96253 -158.30639 -160.53910 -157.60581 -161.81679 -164.36341 -170.64726 -175.13573 -175.13682 -170.66053 -174.12779 -176.84160 -172.34728 -173.98898 -174.18938 -178.04922 -180.96597 -171.89347 -188.35835 -187.53765 -196.50472 -204.47207 -215.34845 -311.38838 -378.63855 -578.85209 -667.36876 -673.71837 -617.97432 -589.27500 -550.99012 -519.02810 -517.42249 -512.21705 -514.79542 -539.48037 -523.90040 -563.59410 -582.27781 -648.35273 -712.27474 -792.44843 -848.88166 -850.91318
346.72614 347.63501 345.25572 187.21265 115.00948 94.81933 55.10658 36.86869 18.14039 47.62280 93.01147 151.70882 168.12758 201.91582 179.12674 157.15638 123.01555 82.13814 68.29617 25.97079 14.80514 17.80303 11.15529 25.25562 39.28914 20.33372 -13.55813 -49.25049 -51.91892 -35.89923 -10.47339 25.78845 33.56874 45.63635 57.23015 34.12961 9.87635 -5.59310 -0.07378 -14.11952 -23.42455 -38.44024 -33.06383 -8.08480 2.23252 -4.19906 6.26241 6.28008 -0.81518 -41.77391 -72.26083 -81.23343 -84.77009 -93.29912 -105.14538 -103.42009 -97.73565 -100.67300 -109.33928 -131.77367 -134.46051 -134.91729 -128.93474 -117.80655 -125.26399 -141.39107 -140.94309 -133.37742 -137.33444 -139.22515 -153.77042 -164.15692 -162.65334 -166.49761 -172.21061 -166.83258 -172.90069 -172.40132 -165.32907 -160.59582 -158.58149 -153.86122 -153.20975 -153.67000 -147.37462 -147.62868 -148.39397 -146.59344 -139.46966 -151.80475 -155.06735 -157.09820 -154.45393 -160.16835 -163.31288 -160.90247 -164.66606 -173.71609 -164.93204 -166.82911 -171.94641 -165.18160 -176.59707 -170.53507 -170.87637 -169.15547 -168.24485 -168.85848 -176.75330 -180.80374 -173.78001 -177.59079 -177.74224 -186.75309 -216.71756 -233.30426 -337.92956 -377.70562 -635.38682 -597.05926 -590.26539 -519.26683 -494.66641 -484.45993 -469.35021 -461.51961 -480.65157 -478.74575 -503.13323 -500.29136 -553.67769 -610.40841 -645.76232 -757.25270 -778.84685 -772.37591
254.04268 250.82276 269.51350 109.86965 80.27517 75.78740 45.35227 4.67226 11.91977 40.25194 85.74809 126.03609 164.02648 153.75256 163.88167 157.72554 143.87614 124.08832 95.52069 66.36767 78.23669 90.71084 70.19699 65.94672 38.08073 32.36794 7.05651 -14.39940 -40.16474 -21.61659 29.69011 66.89784 73.56756 68.66630 47.53041 11.31518 -5.55106 -12.66519 7.98150 7.21428 -10.68954 -8.42543 -9.88649 -6.22791 -6.06085 -14.61220 -9.65679 -16.78723 -26.20687 -50.33083 -81.46908 -83.81486 -103.08803 -103.36231 -113.55290 -106.98036 -97.23868 -97.95389 -116.74795 -132.22949 -141.28308 -138.94816 -127.96397 -131.24518 -142.15468 -159.28124 -156.07212 -152.44874 -141.98990 -147.24819 -156.41328 -164.31834 -162.77451 -157.81750 -164.10042 -165.07729 -166.93842 -163.13896 -170.34850 -164.92314 -146.68585 -148.78209 -144.36766 -142.87940 -139.44622 -142.47894 -136.71564 -142.31603 -139.82357 -145.78056 -148.59112 -152.31716 -156.75517 -156.26958 -163.71561 -163.39465 -170.05731 -169.64321 -169.16331 -168.59814 -175.87945 -170.23640 -167.18237 -177.10091 -174.66633 -173.03685 -176.24311 -172.94314 -174.87235 -178.13164 -176.45574 -173.63699 -177.68989 -176.94044 -198.76966 -215.82025 -234.00530 -316.18323 -421.40481 -508.64078 -514.31181 -500.27258 -481.23462 -445.67368 -454.99061 -441.63648 -433.36577 -438.74930 -460.71076 -473.29330 -492.87740 -521.73112 -577.56789 -630.03674 -701.44412 -703.47301
219.25843 224.61976 154.90797 71.75375 58.30664 56.08207 30.41753 11.81172 6.23172 22.18130 73.74018 106.59506 129.80465 139.81219 154.11699 165.09801 149.54351 135.73689 163.50373 166.93069 169.20929 125.78171 126.33883 94.41450 68.49155 65.80463 49.03007 21.07825 36.00433 51.20726 106.28030 101.64874 95.75402 65.65837 32.98663 -14.79461 -24.49791 -13.47377 -1.92879 -2.81268 -15.62958 -18.22061 -16.95341 -23.68459 -14.47616 -22.05028 -31.95972 -53.63849 -58.63322 -73.31884 -82.86104 -98.15344 -98.90399 -110.62228 -119.58007 -109.58315 -118.92677 -122.85822 -124.55822 -136.18216 -139.34786 -140.36080 -145.73856 -144.36881 -154.19250 -160.12217 -164.69286 -160.74011 -158.42066 -153.15602 -158.66250 -162.43393 -159.10277 -156.30842 -156.22639 -153.12218 -160.53660 -164.96199 -165.00514 -154.73736 -146.81386 -142.08777 -134.60086 -130.91612 -139.16343 -137.67334 -139.94765 -137.75154 -139.87786 -143.32475 -148.35806 -148.61912 -160.95596 -160.80345 -165.32719 -172.03759 -165.72700 -166.81948 -169.98324 -172.15801 -176.92788 -169.89246 -169.25731 -177.73415 -169.37367 -177.81621 -177.26994 -174.09750 -179.06645 -174.80279 -177.18582 -174.41358 -174.39568 -170.65425 -171.48150 -199.08229 -229.37929 -312.29247 -371.21244 -501.45190 -480.78203 -453.12138 -432.22330 -425.78951 -420.14966 -416.53619 -423.47403 -421.44704 -445.65247 -463.21655 -468.37395 -510.92022 -556.51298 -630.28794 -636.51897 -634.25034
218.57144 223.76427 155.69776 64.61767 43.69335 29.13346 17.56087 6.42938 -6.89424 15.27498 49.44462 107.74825 121.37380 120.97184 112.02969 120.77681 149.08301 175.23778 197.05705 216.10556 188.58973 130.19839 126.93195 108.74252 97.16138 99.05505 90.32324 72.63000 68.73746 129.89384 121.91581 118.40890 73.72872 59.27640 8.28969 -35.75625 -45.27785 -37.69043 -9.87988 -17.31822 -29.97565 -34.28916 -50.11467 -34.03446 -31.40397 -27.55195 -48.47986 -68.28846 -85.14074 -86.68239 -91.34793 -100.08233 -105.58502 -109.11359 -116.78338 -128.82893 -136.80844 -136.14849 -143.96566 -139.35765 -142.84122 -139.80832 -138.73902 -149.86720 -156.64804 -157.33220 -170.29883 -164.05136 -160.63793 -161.92280 -163.42599 -157.36803 -157.05001 -141.57196 -140.27854 -144.86924 -152.07836 -147.08694 -152.44329 -147.84921 -142.09910 -137.21046 -138.70029 -134.36191 -131.18978 -132.16045 -136.68736 -142.80932 -149.26425 -152.32552 -151.21331 -155.48627 -156.48705 -165.97656 -165.18311 -165.54040 -165.71533 -161.90067 -166.25119 -166.58219 -174.84781 -179.63514 -175.42689 -172.92660 -169.76087 -174.94520 -170.31398 -175.21372 -175.90761 -171.20165 -176.80314 -177.94492 -177.25050 -172.09324 -174.58860 -189.38071 -216.01512 -231.69956 -362.23508 -405.74228 -453.32115 -419.86031 -409.05154 -385.18733 -393.04733 -391.67871 -404.77097 -420.06071 -424.20926 -440.37595 -456.00720 -499.34759 -524.02558 -573.80540 -592.77347 -589.45653
209.25138 205.34770 133.47131 31.75452 32.64862 0.03574 -6.72445 -7.59595 0.32773 27.97502 39.08829 81.77328 92.88265 79.70980 86.82512 83.64916 153.02423 192.20905 202.32962 213.92961 178.29998 149.61146 130.48291 90.27139 81.70337 104.05162 95.85049 100.68385 121.32466 140.80346 156.45164 105.93709 35.35127 21.20758 -21.07082 -54.97277 -59.90158 -58.25819 -61.81044 -52.92193 -67.47570 -62.73808 -77.14985 -60.82651 -52.87712 -57.89792 -70.59344 -95.68940 -101.53710 -108.00180 -106.95188 -111.96651 -102.73673 -111.76287 -118.90960 -129.19924 -129.03615 -138.71228 -146.67776 -137.94935 -130.37772 -143.29582 -146.46054 -156.51746 -145.57805 -146.27368 -151.31604 -160.03530 -151.70957 -145.54291 -146.80022 -151.91683 -143.41205 -135.29608 -136.23840 -132.43408 -144.93846 -135.05759 -137.37023 -142.51919 -138.84076 -135.61594 -137.91843 -136.49085 -137.20897 -143.86751 -144.03302 -145.99113 -149.81970 -157.10020 -156.35507 -166.98423 -163.58868 -163.73819 -164.41529 -160.42462 -164.97249 -168.40578 -162.90488 -171.37178 -171.45142 -172.59822 -175.54681 -174.50057 -172.83383 -166.69269 -171.07391 -168.78828 -176.54654 -173.11875 -174.58572 -169.19520 -172.83206 -176.32490 -170.60402 -185.06281 -198.33148 -232.86869 -278.65764 -330.75668 -417.96652 -381.06603 -376.51318 -365.17982 -362.23162 -366.58935 -373.65504 -403.27309 -411.21038 -432.26048 -453.74753 -479.55713 -498.10011 -533.50012 -557.25958 -556.26165
209.98963 214.59092 146.36585 28.78550 -2.86677 -3.79396 -8.45070 -21.12262 -10.64433 16.18798 26.23451 40.26493 34.59538 47.81138 49.83449 83.57263 107.97855 174.56564 185.27286 168.04048 146.42227 126.10541 90.92848 72.66767 53.88962 69.47203 91.24348 95.31384 113.11272 145.52746 158.62841 140.86363 89.33186 2.82568 -20.37149 -55.86354 -65.32841 -75.26207 -62.76221 -65.44875 -66.96731 -78.22725 -76.49109 -77.87126 -65.72302 -83.20860 -93.88360 -96.00912 -110.04279 -116.57404 -117.89639 -114.87083 -105.84726 -118.17212 -128.92248 -121.03834 -124.53734 -128.15256 -135.21656 -127.04705 -128.11443 -134.48566 -138.52046 -143.57801 -141.34051 -133.84754 -148.78003 -152.66368 -138.37779 -133.49857 -136.45774 -130.84195 -125.09212 -127.55215 -128.54156 -127.53315 -127.19156 -135.05594 -131.97996 -133.85507 -140.75022 -134.87344 -139.59914 -135.38957 -139.01894 -143.88553 -147.48676 -147.95195 -155.53117 -159.53561 -167.95112 -163.63097 -165.82094 -168.12917 -160.40477 -161.45859 -168.66345 -162.42181 -166.70489 -172.23299 -170.68230 -172.40254 -178.30169 -170.92776 -172.47147 -166.44100 -174.08875 -174.58309 -173.95854 -177.24550 -175.35656 -176.21491 -180.61421 -167.57074 -177.49788 -178.66365 -196.35837 -221.06837 -276.57190 -319.75382 -362.28326 -353.37630 -329.20539 -331.70158 -343.75686 -352.47484 -374.99936 -384.00848 -406.71592 -426.57580 -457.09295 -480.37073 -508.47219 -564.74851 -546.02500 -545.81922
270.10611 265.93379 152.97081 29.32301 19.18940 5.83114 8.42458 7.47312 -4.79874 -22.78278 -10.08440 0.65178 9.62343 3.57900 33.39771 60.50755 94.32294 110.66144 96.52507 83.86873 72.57746 71.50337 43.92548 28.35184 16.96298 52.07799 62.63763 83.54936 101.96557 122.49984 162.47461 131.49095 62.93962 5.95778 -17.05921 -51.72512 -61.92408 -72.67998 -73.92871 -80.64099 -89.15808 -99.11531 -95.93496 -89.99468 -88.44336 -92.36873 -105.85513 -116.06531 -110.81218 -119.16288 -117.81739 -115.53844 -119.71479 -125.33180 -122.12997 -110.30961 -102.39397 -106.02687 -116.79149 -127.85062 -111.13473 -123.15282 -130.25767 -119.34462 -123.01124 -139.95880 -145.37041 -143.45743 -136.75576 -132.14629 -114.98853 -126.10722 -125.65233 -130.63023 -123.55476 -127.85329 -130.43781 -134.13946 -132.96703 -138.22229 -134.81350 -138.46719 -141.14336 -145.43296 -145.13834 -150.51128 -148.93547 -151.09756 -159.42320 -164.82835 -169.69814 -170.50282 -166.05254 -164.31666 -165.86466 -164.69951 -163.25839 -165.02838 -175.85568 -175.51055 -180.50398 -173.06230 -174.09110 -175.12616 -170.45232 -174.94366 -176.71035 -173.09858 -174.07452 -177.75618 -175.53310 -176.98525 -171.62736 -179.89669 -173.32570 -174.03993 -177.89313 -215.09261 -241.79105 -270.97181 -306.60899 -301.14087 -313.19522 -293.62610 -298.17667 -306.33639 -322.96138 -370.02945 -387.67359 -434.61611 -448.92158 -487.57645 -533.67746 -583.55480 -579.39207 -582.45193
230.78435 220.44283 151.59472 35.31879 29.56578 40.67409 56.06167 29.89961 3.74384 -8.46628 -22.99043 -14.90910 -16.79859 -10.34843 21.11713 37.41925 49.83120 45.71153 48.84363 52.69540 53.41690 41.78468 4.30020 -2.97872 0.07957 22.85435 54.12056 68.10415 56.14170 92.31169 128.87678 112.30625 68.28058 7.11600 -18.60295 -41.31994 -37.05619 -73.10602 -72.39479 -74.20473 -79.24278 -91.88708 -95.11451 -94.82410 -104.86739 -107.34759 -110.23176 -116.32144 -117.64291 -117.77310 -120.36299 -110.88037 -118.54693 -120.40850 -116.00489 -111.65159 -96.75836 -102.89718 -103.92461 -110.56742 -99.82310 -105.36509 -107.04573 -108.98004 -119.49973 -128.35552 -135.55627 -132.94768 -124.56581 -116.18795 -117.01737 -109.50886 -117.35121 -128.77884 -125.87497 -124.50316 -133.30328 -138.55098 -133.90332 -135.50247 -141.86187 -137.19223 -140.76041 -153.78478 -155.09777 -149.81679 -152.33515 -149.95715 -151.04169 -166.32583 -170.61697 -171.80727 -172.32494 -165.14234 -170.22450 -173.17742 -176.00761 -175.39897 -170.17527 -176.51154 -174.66903 -169.05034 -173.39587 -174.33053 -176.80734 -173.58095 -173.58040 -167.91188 -179.60399 -175.50970 -176.17805 -174.47010 -172.95907 -182.22664 -175.86428 -176.07410 -176.04558 -193.79464 -233.62575 -269.33043 -296.80676 -290.31399 -262.09030 -280.69890 -267.64607 -285.26272 -305.86903 -321.10734 -387.31546 -410.74559 -441.47255 -539.67155 -547.14385 -587.76728 -637.85457 -634.83444
259.87987 255.03679 277.66800 94.72555 73.09040 87.13670 73.21242 62.86044 12.02787 -11.75142 -13.82270 -24.54540 -18.89449 -19.21672 16.51826 21.59693 32.36195 32.04035 24.50455 35.92929 66.91350 53.21381 14.69625 -4.35301 -20.31975 -1.10411 21.43096 20.41266 18.51291 62.79494 112.23892 82.92718 83.11215 34.76940 -5.90468 1.33357 27.80945 -11.46735 -33.48489 -41.62722 -44.43796 -60.53490 -80.48526 -81.16136 -92.41486 -95.59941 -96.48009 -102.06594 -106.03520 -108.83560 -89.98254 -98.70405 -101.92751 -115.27331 -107.37275 -101.60223 -94.54693 -86.76975 -82.52861 -91.77931 -104.62857 -95.28328 -92.75342 -96.84643 -113.67496 -121.32372 -128.88521 -125.09367 -125.75409 -110.19251 -110.03248 -105.52840 -111.84349 -124.78623 -125.96410 -129.59798 -137.75895 -139.21692 -146.51397 -141.79585 -145.82034 -147.74149 -150.24450 -157.32951 -164.17102 -161.85858 -153.60821 -145.79641 -154.78631 -158.34065 -174.02455 -173.21263 -166.62421 -168.55088 -176.40538 -171.77227 -174.16423 -177.06044 -174.64808 -169.77893 -174.26063 -174.24552 -176.03008 -172.55412 -173.10206 -169.95866 -177.18884 -173.61935 -173.66269 -174.30430 -172.33414 -174.66959 -179.34811 -174.11263 -175.72634 -173.36251 -177.10648 -188.52314 -226.26979 -255.03233 -265.33354 -235.21635 -247.53529 -231.89813 -258.36930 -248.95250 -281.67709 -312.80683 -366.97091 -403.41861 -474.46749 -541.61955 -596.20205 -621.60801 -651.09412 -648.11383
327.75682 327.51899 319.24059 137.51840 91.79201 108.26550 100.48529 54.08505 9.42255 -2.79734 -27.46863 -39.05454 -33.67763 -28.13537 -10.12184 -14.08296 1.59714 6.00426 20.55644 50.38170 73.92096 78.66849 28.81524 -9.89305 -21.32885 -29.80411 -7.27825 -1.77143 1.66833 47.82537 84.84765 101.11207 76.85558 51.93974 29.40060 29.37040 36.26316 27.87165 12.47243 -9.13833 -12.80946 -40.17657 -62.85749 -76.48217 -85.66430 -90.13189 -85.44499 -90.03656 -94.05652 -96.30790 -85.53004 -70.96407 -73.41786 -77.62141 -77.97783 -83.47831 -79.82069 -68.34949 -69.30332 -84.15766 -92.87759 -93.92995 -77.68441 -81.52444 -112.63533 -112.92363 -104.66271 -101.74292 -111.69535 -102.23173 -111.16530 -107.11572 -117.54282 -121.30976 -130.85024 -140.89331 -143.16008 -145.00424 -148.53717 -152.42554 -141.82034 -153.10833 -158.41474 -167.15559 -163.95262 -157.99598 -161.01511 -156.66635 -154.93621 -163.09904 -168.86082 -174.20575 -168.98358 -169.99799 -172.42174 -170.30686 -171.71384 -169.56157 -173.77634 -167.90955 -165.18507 -167.18956 -171.20769 -172.99985 -171.54237 -171.25407 -171.59343 -166.94752 -171.18439 -172.37049 -174.60310 -180.40185 -170.98788 -173.36867 -172.71693 -175.47589 -174.86512 -183.12737 -201.13623 -213.16761 -203.63195 -205.71026 -216.29923 -225.85877 -224.12761 -226.83570 -249.79608 -278.53782 -336.64007 -386.12242 -476.49229 -523.86005 -585.24300 -625.07046 -636.93290 -629.04816
362.00157 364.22304 266.09305 151.57369 163.65201 106.09248 93.01432 41.65654 10.56070 -16.50160 -39.70366 -42.63948 -43.27934 -37.14967 -24.19543 -26.18974 -34.07806 -3.27738 13.82486 41.49979 68.10774 69.08068 57.61286 19.09889 -12.53906 -34.59238 -21.18148 -14.97668 -1.60194 41.03876 73.04339 95.95677 91.24930 79.97234 80.70976 78.50590 83.14564 59.11362 34.28772 10.96383 3.84050 -28.63117 -68.75024 -77.05357 -73.45046 -66.79395 -78.38467 -79.29813 -84.23193 -85.97096 -74.44360 -63.60741 -48.56988 -52.19142 -69.62033 -75.74072 -62.62040 -66.08769 -60.87815 -70.65359 -74.40974 -70.82507 -72.10463 -81.67111 -83.27595 -99.19328 -102.83137 -107.83281 -105.46406 -112.14582 -108.70369 -110.00267 -117.98314 -127.30323 -132.25726 -141.69097 -140.50207 -136.87016 -151.12776 -155.45751 -162.86296 -158.35450 -167.61072 -169.63282 -168.11209 -175.55967 -163.94710 -166.30330 -159.51440 -171.27461 -171.66698 -173.35158 -166.90616 -166.72706 -167.33739 -163.53542 -165.30129 -168.47365 -168.06139 -171.57313 -167.41938 -170.12042 -166.56103 -169.71619 -169.70218 -168.33440 -167.43053 -181.09054 -176.03102 -175.04088 -178.28131 -173.28604 -174.20058 -172.18180 -176.10319 -177.32690 -170.36940 -170.84056 -167.99015 -193.40994 -185.45164 -180.26242 -188.61277 -189.50539 -193.62755 -197.05465 -220.37125 -257.22577 -301.04730 -334.94753 -425.27458 -513.79466 -533.17464 -593.21855 -599.45174 -598.75872
365.93832 363.55307 260.22625 226.27277 217.91175 155.45651 95.16495 54.26674 14.59023 8.15860 -15.58373 -30.12150 -44.43687 -37.56475 -46.74038 -46.17669 -38.76762 -17.23186 8.73933 41.58187 44.47336 64.12470 32.21344 16.50371 -14.88937 -24.27278 -23.64321 -10.45080 28.03282 56.55890 66.67930 73.51341 64.77902 60.63822 73.12289 92.14467 89.01474 77.39693 68.63884 50.14403 15.07066 -18.76976 -39.36844 -51.65334 -52.22428 -42.63383 -52.89315 -63.00043 -78.91455 -80.15559 -71.28509 -60.56612 -55.37903 -53.47731 -59.82252 -56.06742 -61.88209 -59.94920 -54.78989 -59.43349 -58.16070 -64.86862 -64.87356 -76.42359 -76.66470 -93.26229 -90.98141 -100.13369 -103.65920 -102.87636 -113.76595 -106.62814 -120.05678 -126.66678 -129.93634 -141.06430 -138.97661 -132.40926 -145.99839 -149.76550 -147.14427 -161.81119 -163.43687 -174.65056 -171.62019 -173.09259 -163.80201 -167.57296 -165.87926 -171.08866 -169.57533 -167.03703 -163.00402 -159.70703 -168.81772 -165.44926 -169.36329 -172.03119 -174.72314 -174.63293 -171.50738 -174.16154 -172.85629 -177.75722 -170.88505 -163.02011 -172.55222 -170.87138 -173.49931 -173.66096 -173.73177 -170.78875 -175.73623 -171.59727 -168.78037 -171.03768 -170.81751 -177.21964 -176.20823 -176.16743 -173.17306 -174.39501 -173.26831 -174.53092 -174.89243 -181.56620 -201.57298 -235.47976 -248.01220 -283.01285 -384.38151 -481.01761 -512.90988 -540.74864 -546.31446 -554.59792
416.66040 420.82669 390.06296 263.92145 279.83108 212.61151 152.73053 90.72534 47.86986 22.74451 3.90094 -10.54308 -34.74176 -32.86297 -37.99463 -46.33857 -53.39686 -42.87876 -15.50248 15.88928 26.98939 28.29043 15.12830 -18.49206 -23.64131 -31.36550 -25.79770 15.56498 21.22118 47.46047 62.93471 49.80301 41.19866 36.52397 44.80637 79.79161 88.46910 83.42645 79.66619 67.77339 50.78774 6.06513 -18.99373 -37.44822 -18.70382 -8.89121 -21.09328 -39.79275 -51.25059 -51.48000 -68.30603 -53.70038 -55.79345 -45.46929 -57.96805 -66.09677 -57.05262 -63.37307 -64.15608 -67.42877 -62.48823 -57.31132 -54.62101 -52.10606 -69.07201 -75.57752 -76.87965 -95.50039 -94.57100 -108.53096 -105.09332 -108.24402 -110.02543 -116.93351 -126.31132 -134.84922 -136.88355 -134.91322 -140.61094 -142.26074 -152.82291 -146.05019 -160.26362 -162.55280 -173.58652 -174.67749 -173.23400 -174.09895 -175.00355 -162.71655 -166.43591 -159.12150 -160.47933 -169.48050 -176.49270 -172.79482 -171.85444 -174.74039 -170.38957 -182.26434 -176.35940 -175.90943 -170.87995 -174.74674 -175.39740 -175.87322 -178.36745 -170.72174 -178.51126 -173.86492 -179.32282 -179.40734 -173.05703 -167.43178 -175.05497 -179.20850 -174.12141 -171.72940 -174.61938 -177.80090 -175.49718 -174.58356 -175.76842 -178.77433 -172.26466 -178.98869 -180.93035 -207.38778 -240.23139 -272.00007 -366.07709 -434.28388 -434.90060 -486.88517 -494.70455 -494.15019
528.94935 518.62049 417.93556 315.64040 297.12737 226.05904 166.30847 113.46684 61.92580 41.34500 38.43828 14.14363 -1.92487 -20.79378 -40.73215 -55.54966 -50.69977 -41.26530 -14.01406 -8.95079 -5.52153 -14.52554 -3.10641 -24.75755 -31.88170 -44.44522 -19.17926 4.49832 19.47932 23.17105 22.92050 25.76011 18.76221 23.29188 38.60375 53.02181 56.36080 65.67192 74.61306 75.01943 65.09973 26.71867 -11.77752 -13.25114 -14.90320 -0.67187 -5.06683 -19.52435 -35.61236 -30.10408 -53.14625 -46.43496 -45.00353 -50.45941 -56.88851 -66.15871 -55.62532 -68.32990 -66.47074 -71.61045 -75.63280 -58.76511 -54.60147 -45.38808 -57.92993 -66.83827 -75.62109 -88.75134 -92.47682 -105.03718 -106.71373 -109.65770 -121.55763 -114.92919 -135.25890 -142.30451 -141.89120 -137.83133 -139.18231 -144.59115 -152.56982 -158.65522 -157.00620 -161.26845 -169.48535 -169.04408 -168.27047 -166.59387 -163.26285 -160.47037 -158.55037 -158.22465 -164.01431 -170.90183 -173.44485 -166.69963 -168.20955 -171.89654 -176.33489 -171.88724 -175.17131 -174.37265 -173.25461 -170.74106 -174.40192 -178.57144 -169.57317 -173.42819 -170.57147 -179.43131 -172.96003 -172.42717 -176.45644 -179.79786 -171.37770 -169.79575 -179.71734 -173.97108 -169.02043 -168.50151 -171.53677 -176.02744 -170.24551 -174.48112 -175.00992 -170.95506 -174.89750 -190.84342 -201.70424 -268.69390 -299.57209 -392.36318 -391.31736 -430.59271 -445.28184 -445.47385
495.40784 500.13937 499.56455 326.62491 311.72254 265.55032 184.14433 141.69514 102.06009 72.27568 52.48201 19.69693 0.43541 -24.63520 -41.25750 -53.97684 -56.30017 -35.09913 -26.29054 -12.06799 -16.79310 -28.77528 -34.55675 -40.50745 -44.41152 -39.95998 -24.84356 16.20162 12.53788 21.40959 12.13642 -11.83612 -12.91260 15.90039 10.62422 10.53342 13.35065 30.13280 60.07495 68.69221 79.85975 45.52950 21.75145 11.08161 0.91270 5.15237 -0.26195 -14.52653 -14.11523 -31.45146 -32.15804 -48.60021 -52.59881 -59.65350 -67.93787 -63.56277 -63.92773 -70.59911 -75.90353 -85.85327 -89.75818 -84.48376 -71.04442 -60.74208 -61.66380 -68.30296 -77.71383 -98.88956 -98.62899 -106.22608 -111.94992 -117.14078 -118.42900 -125.02987 -135.45171 -133.89324 -142.92650 -146.90390 -154.74468 -152.24968 -147.76572 -164.11647 -159.02891 -160.36663 -156.44540 -164.75587 -169.77954 -161.91995 -157.71905 -166.70796 -163.12860 -165.52087 -171.04891 -168.28021 -167.54637 -167.34184 -161.63367 -175.75645 -173.22645 -169.46983 -175.49319 -167.99467 -176.54078 -168.16513 -170.20555 -168.88374 -174.42401 -173.65175 -175.28601 -168.36339 -174.52872 -172.29324 -172.98496 -176.59631 -175.70422 -173.23273 -176.14043 -176.56078 -175.76496 -170.14732 -168.68248 -172.65676 -172.99969 -169.55281 -171.62618 -171.84191 -170.64731 -174.81039 -189.69864 -204.70290 -231.29827 -329.28622 -341.20710 -393.65138 -383.50002 -393.58599
474.92447 476.04876 394.83076 350.13831 306.84641 245.91630 156.53390 102.90541 88.23247 65.14187 38.28238 24.99287 3.50940 -15.63064 -34.00506 -40.21593 -42.12659 -50.06014 -38.36026 -33.95960 -46.17849 -40.04194 -39.31434 -51.90625 -45.04409 -32.38344 -12.24231 11.61267 26.34601 6.11054 -13.28843 -24.37906 -20.16210 -3.34578 -3.73630 -12.17132 -7.86993 2.29797 52.26294 68.38325 81.54896 51.57489 28.46213 13.22471 1.58231 -2.48832 -14.97957 -18.12971 -23.52222 -32.58207 -41.80391 -47.82702 -67.50423 -67.62048 -73.30463 -80.29868 -79.07402 -84.49432 -91.78407 -89.98768 -86.49185 -91.74264 -70.83437 -70.52319 -71.21891 -69.71201 -92.53825 -98.72186 -113.73358 -104.37337 -115.89101 -124.46963 -122.44146 -119.29114 -122.01758 -133.21678 -140.02986 -152.02837 -154.54468 -153.49179 -166.54458 -168.56488 -164.45691 -163.81795 -159.02053 -164.71326 -161.58491 -153.92974 -161.24252 -164.04063 -167.26405 -170.85624 -168.77285 -166.91367 -165.10008 -163.21000 -163.36476 -169.75342 -175.37942 -175.79409 -169.46445 -173.76005 -164.94258 -173.65654 -170.46363 -172.01521 -172.37404 -174.08801 -174.67051 -174.79318 -176.16749 -170.75425 -180.72374 -176.69453 -175.86747 -172.73737 -176.20037 -176.77038 -171.87695 -164.70607 -168.06382 -168.13999 -166.22036 -164.24864 -167.36862 -174.43177 -175.84295 -168.31358 -179.56552 -176.78259 -179.49316 -244.21196 -274.09753 -307.86389 -340.51885 -334.36176
470.35903 465.19696 388.22334 297.54676 281.30319 197.00529 96.18514 58.23599 30.92488 30.09906 28.48398 -4.60793 -5.27210 -35.60715 -14.36225 -40.81018 -49.13745 -57.43907 -58.18490 -60.75057 -54.72499 -53.70352 -51.90380 -56.95593 -38.57839 -39.96896 -7.44526 6.10404 10.83320 4.35072 -14.58014 -45.15752 -40.55912 -25.92340 -27.24131 -22.85061 0.39689 5.09312 43.53933 73.42855 65.84971 54.37244 17.66363 7.44858 -3.05271 -8.02495 -16.48823 -26.80719 -29.52901 -42.21716 -45.98448 -61.72017 -69.42242 -72.76216 -70.20466 -79.64860 -72.94640 -80.25998 -80.73474 -84.91869 -92.91737 -101.73442 -86.51514 -69.48505 -70.56343 -72.13238 -82.82858 -99.62508 -101.53097 -116.22495 -114.16189 -115.18549 -115.41146 -127.35748 -117.30062 -132.93115 -141.00305 -146.79926 -162.67769 -152.61326 -160.36868 -162.30713 -167.34128 -166.68534 -166.41287 -164.26426 -156.93914 -161.62411 -155.15653 -156.72397 -169.65654 -171.28090 -169.58657 -169.05276 -165.65906 -160.15601 -172.43977 -169.54803 -171.76230 -169.50328 -171.71585 -170.71905 -163.82575 -165.26715 -162.23713 -170.29235 -173.96150 -173.46094 -171.99932 -168.45034 -173.73236 -180.07494 -176.56316 -170.76954 -167.82296 -172.78308 -174.61190 -165.67650 -169.01375 -162.24721 -157.17850 -162.81892 -165.71606 -159.13730 -161.56608 -165.84825 -169.30402 -178.06632 -172.77504 -174.76296 -177.69766 -195.07471 -205.46340 -242.85269 -271.20668 -271.15187
389.37278 393.17127 339.78704 244.72861 178.90919 135.17369 76.62138 47.38169 29.98027 0.35953 -21.86901 -19.26762 -14.32332 -0.41450 -1.79134 -14.45557 -38.37006 -54.42877 -58.59618 -56.39512 -53.64037 -61.15768 -73.02406 -58.46248 -50.00604 -43.30756 -44.07600 -8.54413 -16.83530 -15.06803 -34.61039 -40.64930 -50.36905 -40.40072 -35.78351 -11.68834 4.71121 39.14587 43.44405 52.74452 50.28335 18.44903 6.93280 -6.25243 -18.29982 -25.24065 -37.77332 -35.52843 -35.37000 -41.74527 -58.94574 -67.56470 -66.57525 -62.54884 -65.98411 -62.62227 -65.55851 -58.96010 -70.41179 -76.02401 -94.38986 -101.02951 -97.11589 -82.05009 -72.59077 -74.50429 -73.44333 -86.13564 -100.03519 -101.77625 -105.59082 -104.04421 -107.49285 -105.08626 -114.66880 -130.06892 -144.85850 -145.58546 -151.84209 -161.88227 -161.75172 -157.47735 -169.17106 -167.54550 -162.01769 -160.76072 -157.78259 -160.05725 -161.46148 -168.45264 -168.67843 -161.18319 -154.97680 -163.31035 -163.13472 -171.25415 -169.65511 -164.88134 -168.66797 -168.46365 -160.41462 -164.01136 -164.57850 -170.95196 -165.56348 -167.78656 -179.49402 -167.77767 -176.88808 -179.50945 -170.72405 -172.27246 -177.67658 -176.45726 -172.96871 -173.97466 -171.60230 -172.95463 -171.95339 -161.47776 -157.84160 -149.94845 -154.33746 -155.33968 -159.90887 -164.00917 -161.60489 -170.56026 -178.41985 -169.48028 -177.33474 -190.59146 -183.49970 -216.68561 -221.49830 -221.05744
310.28300 310.31202 300.50127 240.63373 186.48142 137.75975 80.05346 86.27503 52.99684 14.95939 -29.26217 -28.35472 -8.05780 14.62052 30.41596 -9.82831 -22.91130 -36.08862 -30.93304 -35.19775 -41.73338 -50.58117 -57.86889 -63.95320 -57.05007 -46.53687 -54.08609 -60.07094 -32.40629 -41.32321 -42.18191 -52.80707 -54.11981 -53.03918 -52.04103 -30.26052 12.12617 19.14183 27.24950 38.23453 27.82033 4.94897 -10.78227 -13.32353 -34.88230 -25.27861 -40.99188 -41.09706 -46.56158 -53.45849 -50.60431 -54.25561 -48.36506 -43.81475 -47.76380 -47.14727 -58.46236 -63.36188 -61.47060 -71.48771 -87.87979 -98.63353 -103.12469 -95.96960 -74.55886 -83.50105 -78.73995 -88.19842 -86.61200 -92.17790 -96.34257 -99.49436 -108.93825 -110.67863 -116.52977 -123.97741 -139.84659 -145.47419 -146.16234 -147.01860 -151.58610 -160.28605 -161.81413 -153.97084 -151.87095 -157.31462 -146.91787 -157.04700 -165.60909 -167.02657 -163.42695 -155.57038 -155.92126 -156.79792 -163.98943 -164.06928 -157.53760 -153.32438 -161.39505 -156.87766 -159.25835 -159.56425 -162.07736 -166.63553 -164.65054 -173.48515 -172.79850 -172.86233 -177.09534 -172.97028 -179.63952 -172.84116 -173.61282 -175.14265 -176.05253 -168.61220 -173.44653 -173.23566 -168.09363 -160.70709 -167.14527 -152.94931 -152.33189 -147.15422 -147.80576 -162.39073 -168.77190 -168.37441 -165.99829 -174.05326 -174.41521 -176.40766 -177.61397 -193.90179 -223.35426 -219.82033
229.25265 231.07565 272.94487 214.97599 204.97311 170.74442 143.45630 136.26654 103.25746 30.03143 -24.26452 -4.61173 35.55346 59.68113 48.47649 27.10329 -15.71629 -19.30420 -8.35485 -3.08029 -22.93853 -33.31332 -62.61613 -63.35368 -71.15031 -63.47138 -75.35298 -69.71745 -54.92988 -47.99436 -51.80393 -53.00877 -61.03409 -56.18661 -58.05266 -48.89820 -16.36907 13.20338 21.86644 32.84424 18.37536 8.95934 -17.43153 -24.88481 -28.32322 -34.05595 -35.50712 -52.39299 -48.18438 -39.59298 -42.81108 -52.18223 -39.76925 -35.14915 -44.85207 -50.81618 -61.41019 -57.59509 -57.66116 -67.30070 -77.14722 -91.74769 -103.23862 -109.42292 -92.35782 -81.04126 -75.31121 -82.93368 -90.82851 -91.95686 -99.44216 -103.75626 -106.52835 -107.50814 -115.74196 -125.55292 -134.08870 -133.34612 -136.17184 -136.16609 -149.69796 -144.28843 -151.41121 -149.08432 -145.65428 -141.45293 -141.12253 -160.26728 -163.49710 -165.28001 -155.16842 -156.41866 -155.04343 -157.69335 -156.40733 -157.51536 -147.31378 -151.73057 -152.79246 -154.37093 -154.54268 -155.17959 -159.06215 -164.87465 -165.65253 -171.10304 -172.05544 -167.50948 -172.90365 -175.83182 -175.55523 -170.81511 -169.19215 -178.76496 -172.22337 -166.83497 -166.99280 -171.18612 -174.02606 -172.86312 -158.04878 -147.95205 -140.62734 -139.48914 -146.29711 -151.42810 -159.61750 -170.83137 -166.03094 -172.56708 -179.25300 -176.40389 -174.74704 -189.40677 -170.63887 -173.03195
299.56361 298.45965 242.10536 210.26114 206.04709 208.50942 191.59994 162.68241 154.03195 89.61415 40.02493 27.93269 54.01160 67.10455 57.62948 35.02964 4.76072 -16.38422 4.82970 19.56161 -5.17764 -25.35845 -48.56741 -61.71597 -69.64846 -68.12571 -75.48533 -79.74271 -74.54892 -60.76770 -53.75976 -50.71174 -64.95385 -61.95088 -59.89213 -54.95410 -19.88254 0.87920 13.28405 26.80613 18.60277 -5.89133 -11.32560 -23.12507 -26.51916 -34.76626 -34.16062 -30.34620 -26.65252 -34.41752 -26.09360 -30.37881 -30.57376 -38.58971 -34.37780 -47.44925 -58.55746 -61.64681 -72.89723 -67.87687 -76.54293 -73.92521 -92.65444 -101.99148 -111.81537 -91.18202 -83.67290 -80.01131 -83.65813 -94.22884 -100.66686 -109.46085 -110.52869 -113.28382 -123.04459 -134.26468 -130.53490 -126.54258 -123.73168 -123.14941 -129.57524 -134.45619 -133.08748 -141.91561 -140.08676 -143.62331 -149.33213 -157.89353 -162.78893 -153.83646 -151.82737 -148.69655 -146.90416 -145.30722 -155.01028 -151.47279 -155.42360 -147.60835 -157.06402 -149.39656 -155.67283 -163.43280 -165.05706 -164.70569 -169.43250 -171.75921 -168.03708 -170.33365 -168.53095 -162.81501 -170.13911 -170.99801 -172.29911 -170.61045 -172.38122 -166.25307 -169.12152 -175.71447 -170.65023 -165.78325 -157.04850 -152.29601 -152.75572 -143.92414 -143.42772 -158.42503 -164.37671 -165.27330 -170.23867 -171.06580 -175.66451 -175.04619 -178.56991 -166.82134 -168.20545 -172.78921
292.84741 294.48409 256.75196 200.10358 193.28916 213.29357 201.91344 184.32714 140.59755 145.23140 63.16961 54.77194 65.14222 65.70487 47.88560 14.85920 -5.86839 -10.35298 13.64258 37.63553 9.40653 -9.01802 -30.58346 -47.22577 -55.90982 -68.21554 -73.27867 -81.10027 -80.31639 -78.55369 -70.53601 -74.69948 -78.55254 -71.48653 -57.73066 -58.39939 -22.93298 -8.08343 20.29586 38.11135 29.86116 15.59586 2.84600 3.12353 -17.85143 -4.94866 -8.97241 -8.33212 -23.52495 -16.27846 -25.63378 -29.66047 -30.85801 -41.75132 -41.36939 -54.15512 -68.71027 -74.81951 -80.91931 -84.65853 -77.09042 -71.81921 -86.64470 -106.85842 -121.78973 -99.41277 -91.51042 -83.12136 -82.32707 -88.22380 -91.90108 -104.62211 -117.68233 -116.21382 -122.05329 -127.49654 -122.54128 -122.41326 -121.89733 -130.89411 -130.47681 -136.09495 -136.59417 -128.57430 -140.22017 -147.13257 -153.65089 -151.21917 -160.38420 -160.66418 -149.87006 -144.89273 -139.93917 -141.93866 -150.00453 -151.15652 -150.66523 -147.84036 -145.02233 -152.92477 -158.07908 -154.04372 -164.22900 -164.40871 -166.96118 -173.21638 -169.92049 -166.33434 -170.79276 -161.08229 -162.15396 -166.07444 -172.39173 -173.68899 -177.84487 -171.47891 -171.39510 -166.98686 -165.74180 -164.33643 -151.86541 -147.23001 -150.34535 -136.13220 -141.71049 -149.13645 -156.57174 -163.55587 -174.69157 -175.65168 -172.26331 -175.05893 -176.54087 -170.15850 -171.77003 -173.98724
272.13371 273.03456 238.53139 174.69117 173.41121 201.40379 219.25714 204.25106 203.61966 154.33035 111.55464 81.89440 110.89234 81.25617 53.30391 17.15860 8.97671 6.94874 53.66149 61.24754 31.78910 13.89343 -24.69183 -47.18283 -47.73422 -49.13292 -64.02455 -59.59039 -77.06422 -88.60637 -76.43983 -83.49449 -81.37016 -67.16251 -61.79012 -40.18058 -1.14833 9.41082 9.92770 39.44393 43.70702 28.28082 22.15804 4.87312 13.55505 17.45671 24.98400 1.96039 -12.47788 -19.29191 -17.28083 -25.65236 -39.50310 -47.83525 -61.55096 -68.39053 -64.84800 -79.77875 -95.60471 -97.65287 -94.68049 -85.55218 -95.62657 -111.86704 -122.35134 -111.54348 -95.45709 -79.07221 -84.11922 -80.44203 -91.35547 -95.80702 -109.82948 -110.59513 -107.72254 -112.95177 -109.06257 -108.28460 -116.58110 -125.19459 -128.29943 -128.51413 -134.38686 -140.01531 -148.50693 -145.20204 -153.03496 -157.50215 -152.10615 -146.95327 -146.54840 -139.60216 -145.30581 -138.92528 -144.06924 -143.03126 -141.05603 -140.34515 -144.70393 -145.74601 -151.17457 -156.08808 -161.13348 -166.44071 -166.33712 -169.69474 -169.07371 -174.85672 -162.72046 -177.75340 -164.77125 -164.64798 -166.74626 -165.77958 -172.90921 -168.70999 -164.99740 -164.28671 -164.97999 -149.31983 -150.10148 -144.60331 -141.54137 -140.33115 -149.50802 -152.35536 -158.37433 -167.60749 -167.55944 -172.42415 -173.28407 -178.01053 -173.18028 -169.17082 -164.82290 -165.90913
270.83915 271.17981 223.80301 188.14946 178.30894 189.06399 220.83032 216.77188 237.98164 188.61980 146.44542 154.28026 138.42886 129.29072 85.38427 54.66792 16.74251 52.90335 95.03091 87.20547 68.72235 25.55245 5.34509 -12.78889 -35.35503 -47.05456 -42.85996 -45.72791 -70.34906 -80.25969 -92.93129 -87.84037 -82.57959 -57.34905 -51.79908 -22.85799 5.12317 -0.37150 15.84502 19.50017 33.14627 28.89922 27.79511 9.07897 12.74824 25.56160 20.23104 15.11446 -11.19457 -24.98629 -21.37312 -21.96603 -37.62006 -58.64790 -71.08418 -70.97909 -81.85015 -86.86370 -106.30473 -103.26996 -105.76536 -96.57275 -102.80809 -122.04307 -119.89401 -108.77411 -88.86975 -84.56233 -80.80283 -78.75772 -84.47152 -79.91634 -99.41438 -100.90119 -98.01804 -102.50682 -106.15850 -107.99827 -117.44026 -123.72166 -130.68740 -132.64528 -133.26344 -142.74310 -152.24575 -147.96144 -154.36963 -153.09022 -151.60984 -151.07552 -148.59466 -142.65767 -138.04051 -134.96680 -137.24328 -137.56738 -140.57782 -137.41664 -141.02357 -145.05727 -154.32941 -158.69196 -165.55411 -162.40932 -157.25185 -169.98170 -166.91550 -171.23499 -172.83150 -162.73210 -162.13666 -158.34318 -163.90582 -164.45783 -165.35933 -162.45771 -164.10290 -168.26956 -151.72273 -153.98016 -147.53669 -146.06342 -134.80379 -137.15416 -140.13830 -145.21801 -156.92431 -161.95195 -166.83585 -175.25608 -173.31401 -166.18288 -166.18212 -168.16096 -164.68680 -169.36200
254.10383 248.82192 248.10668 164.28920 170.18349 185.73874 206.43307 216.95479 231.36143 206.98362 177.09714 182.72885 163.38834 129.37361 89.75021 64.38896 52.24479 104.53683 142.13875 142.53983 111.86829 68.78255 8.39712 11.41096 -11.09592 -22.19707 -42.43506 -47.74516 -68.13844 -94.62660 -92.16018 -100.83153 -88.31101 -75.21149 -48.32546 -28.51719 -2.93702 5.39952 14.44663 7.23460 12.59702 20.55824 1.08812 13.88748 5.46307 17.15183 27.04244 7.17475 -18.22094 -21.06678 -16.02356 -18.34570 -27.23172 -51.77967 -57.92488 -76.61585 -88.80405 -97.90489 -106.57154 -111.68845 -121.92844 -110.16796 -113.86810 -132.18006 -132.16531 -111.63854 -104.39666 -93.51598 -89.91364 -80.80018 -84.22709 -85.26583 -89.85589 -91.91361 -96.68634 -91.47881 -109.05582 -109.11385 -120.11405 -125.11085 -130.33110 -138.65003 -138.73756 -141.50869 -145.92226 -155.42008 -147.30582 -139.81392 -147.41628 -150.70189 -146.22186 -141.71500 -135.94345 -130.67530 -124.32153 -129.46685 -135.15144 -131.47576 -135.42509 -148.40117 -153.43130 -152.24593 -160.24698 -160.39536 -155.50504 -160.65544 -170.53984 -168.93998 -168.38689 -156.84283 -161.21872 -157.38292 -159.10577 -160.44771 -164.84725 -161.37178 -158.18217 -156.23306 -156.00186 -148.63290 -140.95253 -141.20155 -132.64051 -138.94361 -137.33632 -143.41927 -149.48396 -152.00095 -158.29614 -164.58590 -168.88757 -169.96249 -170.10408 -167.10057 -178.05853 -177.46264
231.12536 231.35324 207.99127 177.85464 167.96757 177.20544 188.63649 200.95648 213.89499 215.49048 194.51043 187.97394 174.26482 173.11740 175.81693 122.37584 124.36328 117.36630 184.81905 192.63725 147.67186 137.44465 70.36012 47.56403 4.77477 -12.78313 -30.70024 -41.01964 -70.16447 -86.31356 -90.95121 -97.04500 -100.54959 -77.67467 -58.14883 -37.11042 -11.77621 1.05118 10.20686 -6.76008 -27.35200 -4.68161 -14.66539 -4.28234 9.95929 9.44952 -0.13387 -4.48928 -25.96627 -20.57310 -24.28177 -17.80419 -29.20172 -34.46273 -49.90298 -63.08390 -72.94954 -83.14101 -91.41911 -109.36521 -120.49843 -121.07302 -128.41605 -133.67726 -125.70224 -114.30286 -118.08909 -105.56648 -89.71210 -83.56131 -71.75699 -77.82476 -83.98355 -84.95624 -90.56566 -101.35953 -103.53591 -108.18644 -113.83184 -125.38979 -133.66403 -134.00869 -139.21204 -140.62331 -136.82006 -138.83768 -136.63155 -138.73815 -142.08035 -147.54540 -135.59163 -134.27912 -134.01441 -132.86724 -132.57202 -138.21104 -131.43507 -136.91746 -138.43268 -143.16138 -147.56203 -151.57139 -147.09486 -153.94834 -153.17102 -160.90974 -157.13294 -162.30794 -161.36353 -165.82556 -158.68730 -157.25010 -151.78612 -156.53318 -154.33776 -156.49160 -155.09619 -154.25577 -156.25807 -155.26251 -145.12612 -144.63961 -137.29702 -137.04791 -141.68729 -137.89210 -148.35542 -152.54055 -152.92604 -154.83482 -156.96025 -166.90933 -166.36190 -168.15255 -156.74267 -159.04419
224.62053 223.12314 198.43577 172.95253 170.40991 180.39351 186.29580 187.41279 186.11029 188.74401 181.21479 177.25233 188.24167 191.90825 183.10269 171.63258 164.50720 190.18440 205.83473 206.66538 203.24002 155.15891 105.54395 51.15672 -7.44113 -9.80727 -32.83723 -55.51399 -68.64229 -79.13838 -85.09082 -90.86240 -103.76466 -87.78336 -80.37451 -44.78751 -29.13650 -9.28943 -23.60088 -35.51230 -38.91995 -30.13290 -34.06403 -13.89357 -21.13612 -19.43048 -10.82664 -16.57326 -38.31978 -30.45170 -30.31660 -26.55857 -26.13736 -34.97193 -45.38978 -51.94187 -68.35291 -78.13270 -78.76717 -87.87055 -99.64035 -130.21628 -129.81935 -123.29120 -130.57872 -128.06959 -126.36529 -122.43463 -101.05740 -92.88522 -75.84951 -81.81390 -76.62572 -83.29065 -93.06784 -99.43383 -108.34236 -112.15734 -121.04994 -126.86187 -130.81593 -130.49815 -133.35252 -135.66517 -136.36381 -133.83358 -139.89628 -135.44726 -131.92135 -133.39785 -132.36363 -141.44342 -128.24180 -119.61851 -130.07382 -128.38896 -134.81836 -130.39557 -142.18301 -132.91198 -138.83580 -145.80812 -145.62607 -153.53902 -153.00669 -154.65582 -152.48281 -155.19155 -160.49165 -150.17141 -159.79939 -150.88179 -152.30954 -150.55942 -149.59149 -155.14188 -157.15603 -153.34286 -158.18704 -156.87236 -140.39492 -144.98898 -146.47494 -142.27274 -149.33252 -138.59660 -145.02609 -145.75218 -154.57965 -154.67361 -160.77491 -160.09697 -166.93338 -166.65442 -153.84656 -156.56695
203.99819 202.03746 203.59885 165.36333 164.88717 178.62531 188.44497 184.04722 179.79809 178.08169 171.82013 176.81871 178.19264 196.66499 204.28910 197.13097 195.83439 209.25442 216.16445 198.53310 193.60902 150.91868 85.04329 54.64615 -0.31325 -24.14537 -37.72554 -53.56069 -58.51000 -53.23524 -58.15723 -77.63998 -102.73531 -97.30975 -81.76692 -53.56488 -43.31231 -45.13643 -46.64821 -54.79258 -59.39773 -53.49248 -56.93288 -55.93014 -43.10146 -43.28680 -27.62990 -32.83010 -36.19077 -49.29863 -45.47848 -45.69356 -39.16088 -36.28033 -43.28315 -50.67652 -67.38114 -63.56075 -71.24066 -86.07437 -96.69836 -102.13270 -108.94934 -119.88530 -126.75059 -148.16026 -126.61641 -121.24354 -110.82782 -90.80412 -79.38797 -78.55230 -78.62609 -87.82349 -97.32892 -96.66029 -113.76770 -122.89298 -119.91087 -125.20862 -131.25253 -133.27470 -136.17835 -130.86143 -129.11893 -129.69864 -130.27635 -130.93400 -130.26660 -128.15432 -123.77273 -131.12186 -124.17960 -131.62368 -129.57331 -124.03234 -126.08365 -132.23013 -137.48600 -132.07859 -145.02876 -145.01181 -141.25865 -150.16183 -152.09038 -160.05049 -153.12635 -151.31613 -152.84972 -150.79461 -155.54728 -155.35109 -153.68408 -149.21294 -152.99878 -153.73314 -148.56172 -159.81089 -158.06395 -164.69137 -160.11535 -150.72934 -150.63617 -155.34589 -148.90881 -144.70478 -142.67197 -147.96621 -144.50532 -147.25779 -147.26049 -153.59262 -158.33359 -148.37218 -143.02561 -153.16401
191.84635 191.54324 179.01092 161.91554 161.26914 169.06486 179.89695 180.60643 182.49235 175.02598 169.74695 170.16198 191.19320 199.91779 199.87625 201.64919 207.71616 202.35349 209.46296 195.34124 167.51951 116.09344 87.85799 32.07828 4.39240 -15.27774 -36.98213 -41.42104 -39.57084 -34.05064 -53.34327 -80.22935 -89.60916 -98.17145 -70.68691 -68.34459 -56.55050 -58.81258 -74.99303 -68.35026 -74.07019 -64.61613 -63.56867 -71.55569 -60.85657 -43.13757 -33.01330 -34.07670 -31.20033 -48.99676 -55.22155 -70.61320 -61.85650 -55.08534 -46.88484 -56.56789 -63.01474 -60.92319 -72.39414 -82.57071 -82.29325 -95.28549 -107.21895 -110.99686 -137.68597 -150.30024 -130.54378 -123.17481 -114.01606 -90.57069 -84.20001 -77.80017 -83.80455 -88.06603 -101.05682 -111.17896 -113.88929 -122.51358 -125.99559 -124.82592 -133.76768 -142.17357 -146.34836 -137.94085 -145.12105 -132.56818 -132.66098 -132.37597 -129.92199 -119.73302 -120.86648 -123.99324 -121.36387 -122.68079 -126.76945 -129.01399 -132.80597 -133.08623 -138.24617 -139.47774 -145.36091 -150.68248 -145.53344 -156.60175 -154.96260 -156.69693 -156.99732 -154.79474 -158.24388 -161.60175 -157.27651 -158.84836 -150.35928 -153.76975 -158.13459 -153.49772 -159.98281 -162.11726 -168.36528 -171.88355 -159.50401 -152.81903 -152.50601 -153.96676 -151.74309 -149.29930 -141.07650 -139.34336 -140.41470 -144.66188 -142.94739 -152.07943 -144.93911 -146.06227 -139.82008 -133.84041
191.14245 191.78056 173.58559 165.85116 161.30558 164.50832 177.91952 172.47251 175.77231 166.64032 165.28166 170.74370 186.41170 201.17340 208.44708 205.31836 207.11855 209.69448 198.01375 181.39020 141.13068 118.08914 96.91165 70.70296 17.98729 -18.39485 -19.15259 -23.79643 -30.10921 -27.69532 -64.56627 -70.94078 -94.88256 -100.72660 -95.44156 -88.25877 -84.93416 -85.86969 -98.95644 -81.81261 -85.28822 -79.34580 -74.84993 -82.73915 -71.17518 -43.66134 -36.31663 -29.10714 -33.39467 -43.05802 -57.54012 -57.18007 -68.45397 -63.96361 -49.67575 -56.26561 -68.37325 -80.04728 -76.61373 -77.74965 -82.27518 -101.00133 -120.24320 -129.99792 -142.55725 -155.82279 -133.02957 -118.95415 -109.10996 -91.31118 -74.39626 -77.65345 -94.78622 -95.45588 -107.54543 -111.45887 -124.41586 -132.37718 -136.04330 -131.05796 -144.14377 -150.85481 -150.08543 -151.15135 -145.85265 -139.46151 -133.76074 -123.98271 -127.95943 -120.86185 -120.56315 -125.88278 -129.55257 -130.18417 -133.57550 -124.76296 -133.26373 -135.32190 -151.71978 -152.18654 -145.27188 -159.66752 -155.85745 -167.90846 -159.96188 -163.29219 -163.50927 -159.94025 -161.94668 -162.89784 -159.79505 -161.33288 -157.67923 -156.38225 -154.11374 -161.40438 -164.30439 -169.02965 -170.68998 -165.51946 -159.70504 -156.78257 -163.94293 -169.55403 -158.21806 -155.94091 -144.55510 -145.35268 -138.46847 -137.35600 -138.69653 -145.49192 -150.37525 -147.11109 -138.34389 -144.74849
200.07803 198.94506 191.54289 155.88427 159.33317 172.04669 170.75822 162.91564 161.36935 164.86530 165.64081 176.85178 190.35593 189.13170 190.66950 191.67598 189.49162 197.30611 198.65863 174.28848 149.26871 129.90817 118.18665 78.50433 51.26578 5.13860 -7.65342 -32.04418 -32.61210 -54.87111 -74.08380 -93.21099 -105.74352 -107.24087 -113.02938 -109.13928 -117.24083 -110.73745 -103.09819 -99.52829 -88.13349 -91.14771 -101.05573 -107.55023 -82.07206 -65.70253 -50.18080 -39.44572 -25.87157 -33.21645 -53.07472 -64.08829 -65.45183 -73.78086 -71.45601 -71.14755 -71.15816 -88.66487 -77.72374 -88.59225 -96.58954 -107.07993 -121.94408 -140.09897 -154.28002 -151.23918 -132.55598 -122.44584 -109.32379 -90.89242 -101.66391 -108.65943 -110.82018 -109.79507 -114.80179 -124.26290 -132.05747 -143.37512 -146.76465 -149.87267 -149.34411 -161.16298 -167.90392 -160.26742 -156.50546 -157.34701 -145.35869 -139.08436 -133.59671 -124.79915 -125.58509 -127.65379 -138.59731 -140.69223 -139.59634 -132.38596 -133.43973 -137.77115 -149.71756 -143.49392 -161.60463 -162.87362 -170.24139 -169.55560 -163.75854 -168.22944 -163.94217 -169.37183 -166.11475 -167.43818 -163.61164 -167.01138 -165.57927 -164.51615 -162.98498 -165.25730 -167.71799 -172.69237 -173.23247 -171.30168 -161.22625 -165.51395 -159.60297 -171.04824 -170.33121 -163.22017 -151.62716 -145.53938 -144.80904 -140.19092 -141.57091 -149.88280 -152.78500 -145.43782 -145.80093 -150.46004
193.16145 197.63075 184.59740 167.56648 163.79209 167.50832 166.61910 173.60229 172.54565 164.59119 165.80753 177.37784 197.45405 198.26744 186.54667 180.66043 187.87422 190.46886 175.15953 154.63326 138.93632 141.53675 146.51767 89.93458 69.66326 24.28168 -28.08320 -57.74310 -63.85134 -72.96475 -93.12936 -105.64384 -104.73124 -90.81653 -96.66409 -112.94926 -122.10440 -120.28788 -124.05925 -97.08298 -95.06792 -103.47713 -110.87937 -102.61378 -96.50381 -67.13463 -54.98645 -36.73565 -34.00089 -37.70917 -59.43433 -56.94208 -68.95354 -73.33358 -78.34923 -84.12125 -83.44553 -91.36209 -98.03897 -91.75822 -98.36437 -120.29884 -130.55363 -130.26434 -139.82489 -143.37897 -132.43077 -116.07728 -111.09189 -110.89072 -124.24520 -125.57026 -113.28470 -108.51735 -123.12363 -142.53913 -144.46023 -153.54267 -154.77068 -154.53040 -152.94019 -160.41894 -169.14926 -163.42651 -162.47696 -159.39457 -152.99930 -147.84062 -141.67442 -130.88425 -129.88442 -137.32042 -136.93609 -148.12606 -141.90249 -141.81644 -139.73205 -138.49137 -149.63047 -150.33422 -155.59345 -155.60092 -163.11644 -169.77198 -165.61028 -166.05544 -166.15552 -172.44421 -170.78875 -178.80223 -171.03511 -166.68608 -160.53507 -170.07974 -166.52230 -170.98667 -172.11222 -172.70479 -174.00331 -174.47714 -170.25296 -169.86408 -173.73397 -165.45462 -159.97804 -166.96779 -160.49229 -153.68701 -139.42178 -148.96399 -143.88109 -147.25990 -157.36202 -151.93277 -154.41758 -159.02101
198.10985 193.95801 183.88330 168.22524 162.04978 165.81025 165.36501 166.46212 173.23211 167.89560 163.05295 180.91177 187.90633 190.19018 176.76904 169.28959 173.95350 182.09186 167.24269 151.02206 123.70870 112.20438 111.21778 92.48956 55.21592 18.21596 -37.85803 -75.05284 -65.59818 -59.67429 -70.72735 -74.58457 -80.68312 -76.01236 -91.42361 -99.87670 -114.55401 -112.29206 -123.61019 -105.97308 -86.48017 -96.52851 -112.07946 -128.24846 -124.28102 -104.06590 -50.31291 -50.03496 -34.89952 -50.13599 -58.92846 -63.22234 -59.76556 -66.58179 -82.08914 -91.27834 -91.06246 -96.36305 -106.16730 -92.65087 -102.09865 -117.55104 -119.63505 -124.87650 -128.49768 -132.44792 -139.00347 -136.44663 -128.51152 -122.67737 -140.47722 -121.75685 -115.00753 -125.55476 -126.99235 -143.40365 -145.71440 -162.23643 -163.44579 -163.85734 -161.86175 -166.95129 -173.54316 -164.27950 -163.73713 -161.99631 -156.90994 -149.39862 -146.36663 -140.76224 -142.53785 -145.47985 -146.21385 -151.81849 -145.45274 -142.34807 -136.32661 -144.12775 -139.74550 -143.84076 -151.23620 -152.89818 -153.18762 -161.85637 -160.61443 -159.74133 -169.08094 -169.37962 -173.34482 -175.10944 -169.65476 -169.93840 -169.75178 -174.56818 -166.10507 -169.51419 -170.48220 -160.92839 -168.97412 -172.82702 -173.25801 -172.41970 -174.60713 -172.74698 -167.19806 -155.51967 -160.28422 -147.38435 -150.58262 -152.44024 -148.66942 -155.95566 -154.10543 -158.67444 -164.39142 -167.39994
204.39727 207.45116 202.06082 158.65627 161.13507 161.06092 169.22280 170.33510 162.53996 163.66195 169.62715 174.95573 189.04860 188.23094 171.07120 166.68170 167.74591 154.79216 141.58934 129.48352 104.56686 82.08927 96.01058 90.80717 40.81409 -30.93405 -42.09926 -50.91934 -34.31843 -47.04299 -50.54004 -64.18260 -63.99248 -76.18904 -83.12568 -95.50063 -85.40326 -96.26968 -120.78915 -110.34896 -92.21095 -84.37981 -117.15262 -123.99351 -135.49928 -114.06572 -66.96911 -58.24505 -57.22538 -64.57767 -79.45552 -68.47713 -65.07841 -66.38457 -82.19249 -82.40980 -93.39517 -102.17425 -102.11624 -108.01820 -107.07987 -113.08613 -119.84669 -124.00797 -123.39703 -133.06571 -156.16467 -149.30449 -136.57035 -130.76902 -142.29266 -134.34099 -125.69347 -125.43589 -139.10500 -139.99373 -158.24324 -163.04839 -172.49398 -172.97555 -172.31752 -166.06881 -165.95905 -167.36835 -172.64135 -168.02289 -154.74214 -151.61399 -145.48404 -143.27841 -149.03923 -155.50326 -149.42822 -158.72420 -146.33138 -144.41748 -135.62896 -141.63322 -146.24494 -154.35768 -151.24283 -154.36489 -152.27917 -161.26060 -165.38776 -165.35553 -167.83936 -169.10475 -175.09156 -168.53963 -172.57478 -174.30752 -175.69557 -172.98312 -176.07994 -171.95855 -172.10594 -178.46929 -170.80900 -174.54908 -171.83514 -177.06734 -175.02300 -173.51357 -170.06118 -166.07343 -155.67107 -152.01870 -158.15524 -152.70690 -167.12202 -156.55399 -167.10845 -166.85045 -167.98455 -169.36551
207.79140 214.18220 187.48048 168.21553 160.53281 158.01153 161.79631 158.24770 160.75181 162.34434 167.72716 173.66317 181.53960 186.08240 174.66848 164.42526 165.49632 139.42539 135.58973 107.24646 84.73875 63.10052 35.51098 52.28129 -2.71028 -22.40640 -32.90828 -21.96978 -18.60220 -31.19266 -42.04441 -49.26369 -61.51371 -76.08412 -96.84899 -87.36986 -77.60477 -87.68155 -116.70126 -127.89381 -115.75825 -108.01401 -108.37985 -126.16827 -151.80844 -118.70647 -104.92488 -65.32064 -78.01972 -91.41069 -98.04210 -74.89073 -66.85749 -64.47323 -89.35668 -88.76737 -106.89781 -96.70021 -100.15589 -112.27579 -112.25276 -111.96926 -112.42014 -111.25886 -111.23222 -132.63330 -146.07290 -154.71950 -153.68663 -151.06011 -154.67001 -154.51627 -138.32543 -135.37784 -148.07341 -148.39051 -161.86395 -166.13668 -169.06556 -171.74315 -174.81355 -162.43374 -151.17568 -156.78294 -160.35171 -170.53809 -167.77625 -158.30892 -157.65790 -157.42302 -154.36534 -163.31871 -160.95177 -157.88109 -153.25542 -140.38326 -135.80207 -147.65431 -150.82865 -162.25651 -162.05703 -157.29184 -162.98004 -159.05798 -165.44847 -162.45300 -164.34404 -167.57293 -173.96312 -177.15904 -172.41417 -173.73871 -171.74814 -175.15160 -170.13787 -174.20068 -172.56150 -172.62388 -174.60841 -169.53158 -179.47969 -176.40269 -175.53105 -165.75053 -173.14485 -164.87668 -153.51857 -158.04247 -157.18862 -162.70053 -164.62667 -166.04588 -168.08285 -168.44609 -165.59761 -169.44505
208.03777 197.36572 187.92364 163.11152 171.59451 157.20236 160.72977 153.56132 160.03343 159.34153 173.24407 177.77176 183.25186 182.99393 169.33366 165.44365 151.84974 134.69534 125.31005 109.77511 77.19452 28.00972 17.63897 9.41092 -6.71995 1.86361 6.40475 18.03379 -9.76552 -26.87564 -52.55779 -63.69856 -75.79286 -70.02824 -80.26365 -63.62832 -60.10988 -78.52382 -117.38027 -123.12778 -120.88464 -113.34216 -106.47151 -140.52979 -142.71609 -129.32401 -115.41295 -108.07261 -95.53310 -104.49708 -103.74271 -85.77542 -76.62167 -88.45144 -99.29938 -108.57134 -96.27164 -95.11148 -101.18587 -107.49782 -116.38671 -104.13914 -98.72182 -98.53286 -92.88801 -118.87855 -140.37940 -158.19785 -153.39460 -157.74126 -160.73485 -160.08847 -152.16496 -145.48888 -146.65828 -151.35627 -161.47769 -164.58111 -167.32209 -164.34116 -160.44862 -145.44905 -146.23244 -154.78875 -161.58079 -168.32646 -173.90526 -167.51854 -168.18045 -163.24470 -167.13852 -165.48268 -162.56531 -165.82475 -158.99945 -146.48518 -144.68799 -152.69362 -160.09810 -161.84788 -161.17203 -166.28350 -161.93520 -165.73524 -171.79740 -169.00225 -170.49179 -177.16896 -173.87561 -173.77545 -175.86931 -166.86580 -176.73364 -171.58181 -176.63560 -175.98034 -174.95127 -171.61570 -174.60317 -170.35754 -172.16985 -174.32875 -165.68111 -171.65520 -168.88252 -167.52138 -164.46102 -154.77519 -163.29000 -175.56230 -169.44669 -172.24849 -167.48705 -170.55907 -176.71072 -176.92274
218.31329 209.40063 193.09075 172.38028 173.53100 167.63845 152.25312 158.98277 162.12650 164.53821 164.32188 171.44977 180.77709 179.85642 169.37749 153.47680 144.92570 135.58381 121.89389 117.18317 78.11864 42.96113 20.94379 8.55473 16.99674 43.99707 47.96182 27.43164 -9.57008 -24.64297 -53.86495 -63.49949 -75.44536 -64.08451 -43.60676 -41.43539 -45.56503 -71.45837 -97.57144 -112.72956 -115.10851 -110.88228 -116.76148 -131.38824 -159.36728 -139.71494 -144.78640 -146.34675 -149.02558 -131.18464 -125.65012 -100.49315 -83.53700 -102.89162 -115.44344 -134.09988 -111.34318 -100.85576 -82.92393 -89.55336 -92.20550 -101.03041 -91.22682 -102.39089 -102.51771 -115.53155 -138.05072 -148.46458 -160.79359 -163.94390 -166.12485 -165.18420 -157.88397 -160.19911 -164.25055 -165.09300 -170.59916 -170.65636 -167.55248 -156.01037 -133.99399 -138.67044 -138.36856 -148.23288 -157.10711 -164.86644 -171.61404 -169.78078 -170.39346 -172.31318 -165.82920 -165.80710 -171.47388 -173.44015 -157.83380 -154.01769 -148.33614 -163.51501 -166.22562 -168.34765 -170.59933 -176.51116 -174.72391 -170.77268 -175.12943 -172.56899 -171.56952 -170.33873 -174.83707 -170.09974 -170.94095 -170.80754 -174.56004 -167.81755 -169.78555 -170.84498 -171.36222 -175.37879 -170.33873 -169.07944 -172.05479 -163.50095 -170.34143 -173.13304 -164.54372 -164.31237 -164.88046 -162.76500 -167.03325 -162.52336 -169.59247 -170.41305 -171.34261 -173.96830 -165.38426 -164.90418
192.99116 196.61268 190.66086 174.68825 169.93044 159.02541 161.60000 159.44494 153.99572 159.98309 161.38522 168.27638 181.71990 175.07917 163.59086 167.83826 150.24891 127.41621 120.88717 111.59020 86.18659 96.43215 82.22638 62.44792 38.56883 42.74609 46.42409 12.89605 -2.02687 -29.60735 -57.62673 -72.90542 -74.61091 -65.47410 -34.36826 -27.62774 -43.72630 -49.52076 -80.21312 -91.29532 -89.01814 -100.57662 -101.84132 -119.08138 -149.60922 -143.28847 -154.79764 -153.52219 -155.88086 -154.35077 -147.59520 -99.63351 -111.48953 -110.76508 -138.10379 -139.34783 -113.61952 -93.87345 -87.67346 -76.26902 -82.66172 -82.01346 -91.54880 -104.60421 -105.62341 -126.14444 -133.68242 -147.54033 -152.37160 -165.72282 -163.22922 -154.33668 -153.36208 -149.88400 -147.96173 -159.72909 -165.15475 -159.67421 -164.77520 -131.37827 -130.95438 -127.07885 -133.40604 -139.09295 -156.24980 -163.44243 -167.27284 -167.46414 -172.24557 -174.91632 -166.91409 -171.55146 -175.51536 -168.53664 -161.38415 -156.80598 -157.22892 -169.21752 -166.44672 -170.88347 -173.29904 -177.21319 -175.51387 -172.26695 -176.12633 -176.99678 -175.26461 -172.80532 -183.65470 -174.76834 -170.50407 -163.34563 -166.15774 -166.96909 -173.40346 -175.10097 -169.52179 -174.22905 -178.69293 -173.99240 -165.30562 -164.51842 -168.21833 -166.28292 -165.92131 -166.54650 -162.82070 -167.43162 -163.33415 -171.98245 -173.59542 -172.16227 -173.30219 -171.75283 -169.42871 -172.30750
185.03884 183.50866 178.28769 168.32864 165.69242 169.81838 158.13867 155.35227 157.84872 155.68185 161.59156 164.69106 171.62892 171.00576 174.24579 165.33793 164.36479 147.39835 109.31470 105.07015 121.24173 125.96824 131.29224 101.17758 98.35894 65.44304 47.82608 16.30759 -11.46483 -43.73823 -50.88296 -67.74732 -48.11404 -31.69884 -11.11539 -7.95804 -20.94792 -41.13637 -66.69016 -83.72513 -83.24765 -94.08355 -98.56800 -125.56867 -139.00653 -138.33609 -137.40677 -144.57082 -148.14263 -153.25892 -158.95785 -146.99689 -129.66821 -139.35484 -152.09594 -146.35119 -130.89923 -100.94939 -88.25884 -78.36628 -83.78800 -78.38314 -86.61526 -104.88696 -109.06906 -128.03059 -139.23299 -135.73433 -141.79911 -144.04016 -147.18837 -146.51589 -138.04915 -130.91977 -144.35002 -134.76356 -144.13162 -141.30338 -131.49086 -128.21434 -122.40124 -137.49441 -137.20725 -141.53716 -140.02779 -155.24318 -160.55492 -155.70929 -163.15727 -164.38331 -165.25111 -168.28549 -174.76677 -176.98572 -169.79525 -170.30808 -164.96849 -169.62980 -173.01863 -176.74273 -167.68595 -170.51158 -173.72683 -170.44568 -170.40145 -175.61882 -176.56755 -172.18952 -168.64994 -168.50365 -172.19575 -160.39276 -161.85426 -166.79449 -171.16279 -168.34694 -170.17000 -174.29341 -178.72573 -169.49181 -172.06458 -166.95910 -165.89710 -170.47745 -171.56370 -164.55522 -161.14832 -166.99884 -168.74402 -171.74496 -166.37802 -176.37766 -177.53094 -175.24003 -172.55496 -175.84320
182.97998 181.01269 174.85453 166.54738 167.73665 162.22030 161.42551 156.44508 154.26326 158.24440 164.49435 163.37210 166.15729 166.00997 170.90010 164.34942 159.14159 152.77562 133.44676 118.78903 129.73846 136.19101 137.41297 117.31913 100.43500 52.05492 37.29035 -0.47152 -7.31809 -35.30702 -60.60144 -56.25398 -47.24474 -34.49106 -3.29687 -3.59957 -10.29636 -37.45242 -61.52869 -61.52337 -61.38368 -90.54098 -93.64617 -124.52878 -132.12335 -123.48699 -107.22009 -111.47512 -127.98204 -150.94007 -154.51495 -154.16166 -143.46561 -135.39328 -141.83998 -155.36397 -146.80306 -130.84018 -104.06484 -90.21515 -84.63908 -76.34207 -85.51088 -98.25493 -107.84073 -119.28437 -125.53424 -126.52092 -128.26805 -122.99488 -127.68896 -121.92363 -129.00778 -126.94369 -132.48451 -128.97966 -134.87036 -124.96268 -119.09433 -119.10744 -123.15187 -131.76639 -135.16999 -140.41490 -145.70981 -147.17474 -143.03213 -142.69211 -153.72698 -161.26018 -160.84971 -172.54334 -169.64461 -174.28207 -169.09336 -173.65862 -170.72889 -170.19292 -172.36317 -172.40353 -176.73023 -171.35781 -166.77951 -169.00845 -170.43362 -176.29664 -171.13734 -167.36874 -165.00231 -161.65332 -159.55338 -159.14380 -161.52634 -162.62209 -169.32076 -175.59443 -173.23392 -173.26995 -175.87436 -167.88631 -174.26792 -173.52471 -167.73410 -169.25575 -170.50644 -168.81694 -165.52619 -170.69155 -167.49743 -170.96758 -175.97550 -173.93267 -176.55796 -184.18715 -180.47939 -177.41958
178.62242 190.24601 177.93743 154.20466 158.33541 160.47226 154.91397 159.06609 157.87828 154.62978 158.56212 160.40452 162.78862 167.82476 169.37883 164.96774 154.26250 152.92464 141.92219 135.44437 141.22303 151.61578 157.85085 121.57737 107.25307 69.65173 28.43695 1.36986 -32.35463 -40.59998 -48.34062 -36.03428 -35.54636 -23.11516 -11.64582 12.90195 9.12898 -20.30225 -37.21227 -50.12694 -68.08967 -80.31829 -98.42819 -113.62156 -119.97765 -97.24128 -86.13883 -103.22721 -108.16907 -128.27050 -149.81812 -127.19060 -122.78378 -126.50563 -137.41111 -159.24321 -154.61389 -139.24883 -137.42697 -97.47560 -96.10100 -74.14137 -85.46989 -95.10797 -103.67127 -106.81479 -120.68141 -112.17145 -112.58842 -116.83275 -118.80652 -116.48558 -108.96698 -108.78189 -118.30818 -118.47096 -116.71933 -122.52423 -117.73352 -128.00129 -129.25686 -133.08535 -133.63150 -139.81742 -135.18282 -132.79816 -131.02459 -133.86504 -144.30555 -163.46737 -164.92225 -167.24713 -177.85113 -176.80004 -169.56331 -168.51460 -174.24565 -170.86381 -165.56326 -167.87656 -171.57273 -162.68878 -163.40877 -165.81902 -169.72049 -173.07499 -161.55157 -161.54788 -157.36584 -159.83780 -155.27094 -163.61636 -157.34941 -159.92602 -166.20870 -172.38645 -162.88904 -172.50203 -168.66991 -175.92771 -183.72727 -173.79666 -165.99690 -167.21630 -164.91268 -172.80523 -169.52622 -168.62995 -177.46343 -167.45918 -173.89376 -174.60308 -176.44636 -177.22488 -180.22419 -174.66281
182.61326 181.76487 168.29968 166.62614 158.03192 156.65194 155.17566 151.90555 156.49998 159.72404 160.90588 164.95175 162.16081 169.16413 167.86740 166.15760 158.74438 155.79384 145.82966 147.30079 144.05715 152.01620 142.86840 122.08121 109.10245 82.88350 41.46505 3.70782 -0.41218 -33.69807 -34.65880 -27.66369 5.57152 -3.04037 10.94609 25.51810 15.91653 -2.54469 -24.12980 -34.36000 -60.91376 -83.88142 -106.53805 -113.79964 -104.18371 -88.85698 -74.22673 -97.54394 -123.99074 -125.53408 -120.50224 -105.62029 -101.85636 -99.42829 -110.21951 -141.58997 -160.41252 -155.13900 -145.44398 -129.27500 -98.71041 -86.73052 -93.11356 -95.42728 -101.29042 -103.45941 -106.27761 -111.28473 -126.35027 -115.66374 -117.30370 -111.94087 -110.32653 -124.92140 -125.54038 -128.02773 -118.21798 -122.76672 -130.14789 -137.31734 -143.81205 -142.57784 -136.82729 -143.55879 -142.86979 -135.01178 -145.54268 -147.53938 -151.93968 -153.59755 -161.47157 -168.11731 -176.52095 -171.38165 -173.24716 -167.63823 -168.97103 -170.45712 -165.73251 -165.34954 -163.72929 -159.56122 -159.00248 -161.35141 -167.18695 -160.48054 -161.74870 -158.36986 -156.08256 -160.12291 -156.78973 -161.67395 -165.44635 -161.99024 -167.24624 -165.17627 -172.05645 -172.20194 -171.76627 -169.72179 -172.74668 -175.29108 -173.40563 -169.90853 -171.88882 -167.66136 -176.92431 -166.64616 -175.23758 -172.64895 -165.51316 -176.10220 -173.36296 -175.76210 -188.97199 -187.75705
181.50711 181.38207 169.67423 167.79312 166.82017 157.48659 157.30868 158.96665 155.17793 150.80323 153.22513 162.99362 161.05015 155.59776 158.54577 155.32515 161.24109 153.03542 149.10957 156.14932 158.64443 153.66407 148.30123 130.51281 107.84438 96.59401 59.12543 15.71001 -15.13095 -16.44240 8.42077 3.92306 19.90430 51.05926 49.82886 38.56736 36.09129 20.59871 1.75509 -31.90738 -57.85941 -81.69924 -101.31865 -105.33942 -88.16824 -70.02957 -81.91539 -96.60606 -100.56544 -116.30045 -110.45162 -93.64956 -89.46690 -103.00428 -116.41318 -136.97122 -156.90946 -167.23818 -162.35526 -132.06574 -107.82763 -109.43559 -109.57996 -110.66617 -112.92979 -107.15821 -121.45187 -132.46225 -130.87600 -130.90711 -129.28381 -119.76873 -111.69879 -126.55513 -140.50313 -141.51793 -138.21010 -136.37438 -132.01991 -142.70810 -138.32934 -153.82280 -152.78378 -151.47078 -145.04319 -147.50773 -143.22623 -156.22680 -156.36719 -157.47760 -157.60414 -166.82758 -173.83947 -170.38775 -165.90610 -164.32924 -160.89713 -162.67409 -161.75093 -160.14727 -158.81561 -159.14297 -157.86106 -158.30690 -153.74813 -154.98308 -157.68346 -154.91945 -155.17567 -156.49526 -155.45331 -155.71227 -168.24207 -156.92127 -166.31824 -172.76189 -166.38009 -172.61149 -177.17290 -176.87061 -177.60896 -175.76596 -168.80365 -174.37479 -172.73489 -176.32444 -175.57171 -171.58271 -174.40227 -170.27910 -172.23538 -181.86409 -182.53546 -185.48317 -190.67880 -186.45297
199.87804 204.12160 193.97788 170.55684 161.68497 163.47655 158.74973 155.70910 158.65407 157.86972 156.50471 159.52615 157.31116 156.97855 156.08123 161.36266 158.13421 151.38013 164.73381 152.01818 154.32835 158.56764 145.40012 119.41754 104.73859 96.51056 75.27800 37.96766 18.95197 0.56080 14.49988 38.18265 56.76869 81.08960 71.52098 54.80569 31.80039 13.16623 -1.95999 -35.94367 -59.91571 -74.62894 -73.94648 -82.08247 -67.50682 -55.57890 -72.02341 -87.63529 -98.47774 -95.62869 -72.44063 -75.17242 -87.95312 -94.35175 -122.88440 -137.17544 -150.79399 -162.66579 -160.57332 -154.55146 -134.01862 -136.98243 -123.04523 -133.28470 -133.48483 -137.23237 -132.19214 -140.29395 -148.36940 -143.92917 -144.64029 -131.37808 -128.70877 -132.13437 -157.24525 -155.03944 -152.13906 -153.20177 -153.99405 -154.65141 -158.81511 -157.93757 -162.37239 -150.28875 -148.99523 -149.95666 -155.52824 -161.55680 -167.08870 -164.03733 -164.62952 -168.83703 -166.21876 -161.31371 -159.71567 -153.75221 -152.96071 -150.54650 -155.62729 -155.54898 -150.47729 -147.53579 -149.94649 -149.02687 -151.85242 -159.83616 -152.92312 -154.05033 -155.27449 -153.53146 -155.84099 -160.51419 -160.92121 -159.98085 -166.98331 -173.56568 -175.12531 -172.24384 -173.04443 -173.64348 -173.09936 -173.06032 -172.08696 -173.75903 -175.54409 -173.29951 -176.85512 -192.51423 -194.45582 -200.66900 -202.58878 -202.62436 -189.85037 -218.39442 -221.33303 -217.73768
220.54769 219.22997 196.62760 169.68950 164.73571 161.75534 157.92778 158.70930 154.47215 154.53733 151.46987 156.79214 157.88376 157.24515 156.12346 157.37517 157.35736 163.66685 160.03175 157.01510 156.14746 155.63650 153.62011 145.12036 130.77648 93.30846 74.89966 78.56004 88.11507 64.19390 81.18539 65.12277 94.75162 82.52164 65.15674 34.62920 11.99045 7.89539 -21.50213 -47.91361 -63.58249 -55.17088 -52.76075 -57.18668 -46.96340 -55.21348 -68.47048 -65.97861 -60.09685 -53.62075 -56.48393 -65.94628 -91.92487 -109.08630 -118.61754 -129.98938 -127.46531 -137.99856 -165.25623 -161.65420 -147.43599 -139.87661 -148.30766 -152.87368 -156.42629 -148.76745 -156.98922 -147.34143 -160.55728 -160.26795 -152.50416 -145.54296 -147.12670 -144.87771 -154.71039 -161.08997 -164.57193 -155.03580 -162.84009 -158.65778 -168.17657 -173.35385 -166.76801 -166.57756 -158.93074 -151.74214 -161.43675 -163.06381 -173.67883 -172.80316 -167.81491 -174.33891 -169.67914 -161.47095 -154.82336 -153.24667 -141.36144 -142.51079 -148.40555 -151.78011 -145.09026 -143.61506 -147.91617 -142.61733 -152.44583 -156.95471 -151.05007 -154.26488 -155.71487 -166.98906 -164.68703 -165.74431 -166.42322 -161.69908 -168.78031 -173.12861 -172.49586 -173.77672 -174.65087 -179.34194 -171.53897 -173.35315 -170.25688 -171.47388 -175.75993 -180.34869 -193.55173 -201.25809 -233.00248 -253.16279 -243.82277 -240.15879 -215.55639 -237.51062 -249.52727 -248.29533
208.82143 209.94986 185.66849 164.75274 160.01530 167.74947 154.59165 162.71784 158.35721 160.50173 151.50320 157.61788 158.50183 157.97056 161.15399 159.53586 161.10317 157.45770 161.46525 157.62607 162.18919 157.87037 157.14181 144.77223 155.65313 107.38966 86.62098 84.16869 101.23172 120.90230 96.93095 113.91834 95.65325 79.87257 70.60722 35.37513 9.81244 -4.38189 -23.81750 -46.67165 -51.22575 -52.42244 -41.69373 -20.43524 -38.84747 -31.63165 -35.04287 -50.15331 -50.00375 -52.27661 -39.64637 -72.88198 -88.63086 -98.41589 -111.28988 -103.24206 -104.43273 -138.13409 -151.44461 -162.92387 -160.84866 -162.11900 -147.69853 -161.38586 -157.73041 -163.75889 -160.21576 -164.60962 -169.73803 -161.64062 -161.63063 -163.48212 -159.65944 -154.74320 -154.23404 -157.58188 -159.27924 -155.11557 -168.01841 -161.95398 -157.70898 -166.53106 -169.22324 -175.37411 -169.79402 -157.88046 -163.67826 -170.05813 -164.90687 -166.54403 -166.98474 -167.07436 -165.71053 -166.06520 -152.86008 -150.39842 -145.64569 -137.79585 -139.16716 -140.84259 -145.58771 -144.56591 -140.06685 -150.14357 -146.05287 -149.75218 -159.72613 -152.33524 -154.77149 -155.23163 -169.21787 -172.34561 -165.34625 -164.91370 -169.94184 -167.41698 -170.87988 -173.10300 -179.40888 -172.08799 -177.24168 -168.64189 -176.78618 -171.03741 -174.05246 -183.85672 -190.16354 -226.79159 -264.03540 -265.23753 -280.71627 -263.97053 -258.78369 -302.17191 -298.72428 -296.30875
