470.46 475.08 477.12 437.38 420.33 412.18 403.42 401.65 406.83 401.96 401.11 404.28 399.95 99.61 96.31 96.74 98.91 97.10 89.95 75.33 79.46 90.39 104.85 99.09 90.07 84.10 -147.80 -150.53 -154.25 -158.26 -164.23 -167.02 -171.21 -182.85 -184.91 -185.71 -181.59 -182.82 -181.09 -561.51 -567.17 -574.61 -573.13 -575.61 -580.79 -574.22 -578.17 -576.43 -580.58 -572.36 -578.80 -576.95 -1335.11 -1327.11 -1333.90 -1330.98 -1336.39 -1332.37 -1355.78 -1365.52 -1523.47 -2017.98 -2228.62 -2375.75 -2398.19 -2445.09 -2453.07 -2462.73 -2468.84 -2477.53 -2491.34 -2487.72 -2521.82 -2547.95 -2545.94 -2581.69 -2625.71 -2644.55 -3154.02 -3155.97 -3209.50 -3260.02 -3269.49 -3292.54 -3349.47 -3369.96 -3394.33 -3412.43 -3399.09 -3389.30 -3358.37 -3244.89 -3252.04 -3221.42 -3225.94 -3239.81 -3262.92 -3293.83 -3374.14 -3403.20 -3440.33 -3489.96 -3530.94 -3568.92 -3685.23 -3701.98 -3737.50 -3764.59 -3787.59 -3786.79 -3821.84 -3847.15 -3878.80 -3937.79 -3942.20 -3981.99 -4029.09 -2465.34 -2472.48 -2474.33 -4306.21 -4329.64 -4348.46 -4354.47 -4354.41 -4360.22 -4363.52 -4365.74 -4370.55 -4379.16 -4373.99 -4370.62 -4369.83 -4368.75 -4367.81 -4370.57
476.04 478.63 480.23 429.30 423.93 411.50 403.78 406.14 406.76 415.74 411.70 408.77 406.51 102.50 93.65 91.29 89.13 88.71 87.41 77.07 85.42 96.51 96.65 103.12 94.53 79.09 -142.93 -152.40 -158.90 -166.10 -166.38 -168.56 -172.35 -190.15 -192.19 -189.99 -186.16 -185.05 -179.04 -569.85 -573.54 -568.40 -571.02 -577.98 -573.65 -575.46 -573.05 -583.49 -581.80 -572.58 -573.57 -570.00 -1330.25 -1330.46 -1330.14 -1332.02 -1330.99 -1329.54 -1343.53 -1355.63 -1372.47 -1686.94 -2020.52 -2117.42 -2361.88 -2380.14 -2424.79 -2412.49 -2418.38 -2431.33 -2441.05 -2458.68 -2489.19 -2506.56 -2511.92 -2536.60 -2588.43 -2617.34 -3108.39 -3116.59 -3174.03 -3201.64 -3199.21 -3250.48 -3249.10 -3294.50 -3306.38 -3343.30 -3354.82 -3358.75 -3349.92 -3232.23 -3236.29 -3215.10 -3201.55 -3208.89 -3218.83 -3263.31 -3321.64 -3384.61 -3431.47 -3475.67 -3502.56 -3519.17 -3643.45 -3670.98 -3680.69 -3713.41 -3717.12 -3727.53 -3743.36 -3797.45 -3833.13 -3853.73 -3910.13 -3947.51 -3994.26 -2415.34 -2439.85 -2455.26 -4287.00 -4328.62 -4330.74 -4336.52 -4331.21 -4352.03 -4359.98 -4351.04 -4358.55 -4372.83 -4354.48 -4364.99 -4365.09 -4375.54 -4368.51 -4373.89
481.30 486.64 458.03 436.99 415.19 419.32 410.35 413.07 419.77 422.35 412.68 406.72 401.67 105.45 96.11 91.01 88.16 86.44 88.07 76.62 87.59 95.26 94.45 94.44 93.55 86.00 -148.45 -139.89 -155.88 -174.32 -173.83 -177.46 -187.88 -193.34 -196.99 -191.46 -191.01 -190.77 -185.24 -570.44 -570.90 -572.73 -577.00 -573.75 -575.87 -578.86 -576.67 -573.95 -573.23 -576.66 -580.22 -580.97 -1331.13 -1328.49 -1333.55 -1328.58 -1326.42 -1330.27 -1335.42 -1356.73 -1363.49 -1515.47 -1626.30 -1833.75 -2215.16 -2303.35 -2332.31 -2396.75 -2371.93 -2369.09 -2378.20 -2393.19 -2441.45 -2442.27 -2472.37 -2503.69 -2553.45 -2566.58 -3086.64 -3103.86 -3080.59 -3165.64 -3146.66 -3185.44 -3213.88 -3218.72 -3283.45 -3290.39 -3343.28 -3332.08 -3331.04 -3182.84 -3180.79 -3156.01 -3169.88 -3166.05 -3184.85 -3222.66 -3312.09 -3364.58 -3399.56 -3416.60 -3475.46 -3482.54 -3591.03 -3618.66 -3607.67 -3606.13 -3635.04 -3655.59 -3678.87 -3725.22 -3764.23 -3811.10 -3863.66 -3878.83 -3944.28 -2364.66 -2417.65 -2445.92 -4271.09 -4296.12 -4326.09 -4320.27 -4331.01 -4337.03 -4337.97 -4347.87 -4346.82 -4353.16 -4357.53 -4367.81 -4368.77 -4365.64 -4375.25 -4372.14
447.61 449.07 447.12 433.48 419.44 416.50 410.69 408.23 420.30 418.66 410.76 401.21 393.56 91.55 96.81 86.81 92.49 90.16 87.90 93.47 96.31 102.18 101.84 87.68 90.69 71.52 -149.79 -156.09 -171.42 -175.44 -186.57 -187.09 -188.69 -197.34 -192.81 -186.63 -187.59 -193.04 -185.43 -568.18 -571.30 -570.99 -580.53 -577.55 -578.07 -574.62 -574.42 -578.73 -573.49 -578.44 -576.28 -576.50 -1324.49 -1332.63 -1336.06 -1326.71 -1328.58 -1328.92 -1332.67 -1334.53 -1353.47 -1405.35 -1599.82 -1667.13 -1940.36 -2281.47 -2276.99 -2275.34 -2334.92 -2328.65 -2348.35 -2351.65 -2373.16 -2411.72 -2429.79 -2482.50 -2524.92 -2527.45 -3044.94 -3042.38 -3067.70 -3063.06 -3116.11 -3134.87 -3156.03 -3171.00 -3191.14 -3235.43 -3259.52 -3270.57 -3295.66 -3170.38 -3154.80 -3149.96 -3143.41 -3147.26 -3163.58 -3170.26 -3233.81 -3319.74 -3381.50 -3400.94 -3406.69 -3459.94 -3568.79 -3560.39 -3561.43 -3581.64 -3588.50 -3600.13 -3643.78 -3678.95 -3742.36 -3763.33 -3788.19 -3842.99 -3892.02 -2357.61 -2386.48 -2402.65 -4256.46 -4259.30 -4288.45 -4316.44 -4312.31 -4319.41 -4326.19 -4327.22 -4340.31 -4338.58 -4347.06 -4353.78 -4355.47 -4366.70 -4371.36 -4368.41
459.27 464.16 457.42 447.34 433.82 420.16 427.09 427.43 432.10 429.48 414.55 396.78 394.15 93.44 97.48 91.32 97.02 108.48 101.20 102.32 100.03 101.81 96.29 87.11 76.52 73.26 -161.59 -160.36 -163.76 -174.87 -189.58 -194.85 -192.08 -194.45 -190.16 -183.59 -187.88 -190.47 -194.68 -575.03 -575.48 -584.14 -571.48 -573.36 -576.32 -569.06 -577.23 -578.72 -575.85 -567.96 -569.37 -576.52 -1327.75 -1331.72 -1328.99 -1333.92 -1332.37 -1326.34 -1336.61 -1329.42 -1355.79 -1390.02 -1426.95 -1508.25 -1674.73 -1830.84 -2144.61 -2233.21 -2136.28 -2204.98 -2237.04 -2251.78 -2290.00 -2365.26 -2412.64 -2385.12 -2389.97 -2504.01 -2975.67 -2995.26 -2995.87 -3041.92 -3010.91 -3071.58 -3094.79 -3101.87 -3106.17 -3129.09 -3197.86 -3226.94 -3263.32 -3159.46 -3138.23 -3130.07 -3110.53 -3118.27 -3155.63 -3151.17 -3172.12 -3225.24 -3303.83 -3332.16 -3390.30 -3409.87 -3535.66 -3535.24 -3542.36 -3544.96 -3581.98 -3573.23 -3576.84 -3602.44 -3630.41 -3680.06 -3731.43 -3788.38 -3794.04 -2297.07 -2329.65 -2385.10 -4223.37 -4252.04 -4258.22 -4289.03 -4274.40 -4296.37 -4304.26 -4307.97 -4322.94 -4329.33 -4330.12 -4339.64 -4356.46 -4369.29 -4363.97 -4365.05
474.48 475.74 465.05 459.12 455.92 439.94 446.23 442.07 439.63 428.64 419.50 413.90 391.41 98.20 100.36 106.62 109.30 109.88 106.27 99.02 97.07 103.62 98.33 95.79 77.36 52.06 -179.02 -177.44 -174.62 -191.16 -191.55 -192.93 -188.13 -186.04 -188.77 -183.21 -184.92 -190.46 -194.20 -577.04 -578.77 -579.40 -574.47 -568.38 -574.91 -574.01 -575.88 -567.20 -582.05 -574.66 -576.51 -579.25 -1335.63 -1331.18 -1327.56 -1332.24 -1333.16 -1328.22 -1333.81 -1335.39 -1333.40 -1352.15 -1439.03 -1490.23 -1652.09 -1836.19 -1949.78 -2080.99 -2052.00 -2051.39 -2056.98 -2143.50 -2155.10 -2183.02 -2166.74 -2203.96 -2317.84 -2282.97 -2882.51 -2891.22 -2955.42 -2968.52 -2981.91 -3021.25 -3029.95 -3049.03 -3096.80 -3122.17 -3182.30 -3221.86 -3221.90 -3120.26 -3125.35 -3098.38 -3097.03 -3103.05 -3118.05 -3140.86 -3148.80 -3215.50 -3250.81 -3325.69 -3380.46 -3389.32 -3506.23 -3512.62 -3515.89 -3513.57 -3539.11 -3563.33 -3561.88 -3582.43 -3601.83 -3642.33 -3709.35 -3703.81 -3749.92 -2186.81 -2255.25 -2321.56 -4183.02 -4241.78 -4250.91 -4258.17 -4276.73 -4280.95 -4293.74 -4292.50 -4293.37 -4309.28 -4310.62 -4329.83 -4333.74 -4362.63 -4363.13 -4363.09
489.76 496.79 488.78 489.17 469.26 452.19 450.33 443.26 433.64 433.04 417.96 407.92 399.33 99.78 101.96 104.58 110.36 103.35 102.14 100.41 91.98 90.45 90.39 80.39 68.38 57.38 -175.12 -182.41 -193.09 -190.20 -186.65 -191.56 -181.55 -177.58 -174.68 -179.47 -186.18 -191.44 -192.43 -572.67 -576.22 -578.39 -575.38 -568.51 -563.68 -571.66 -569.68 -568.17 -568.32 -575.52 -576.19 -577.32 -1199.51 -1199.57 -1194.98 -1194.88 -1196.11 -1198.88 -1196.42 -1198.49 -1200.09 -1207.39 -1276.29 -1369.37 -1437.16 -1817.43 -2100.31 -2096.41 -2017.86 -2063.53 -2122.30 -2182.24 -2309.48 -2303.65 -2238.83 -2296.30 -2270.52 -2426.90 -2984.36 -2992.81 -3106.56 -3165.20 -3244.69 -3244.41 -3283.57 -3287.92 -3318.37 -3326.19 -3447.00 -3452.15 -3482.94 -3425.86 -3454.64 -3455.12 -3439.30 -3445.82 -3450.45 -3500.90 -3507.49 -3530.26 -3593.14 -3628.05 -3689.16 -3724.97 -3978.78 -3989.77 -3992.39 -3996.60 -4015.39 -4033.67 -4028.45 -4048.11 -4063.70 -4096.23 -4118.50 -4163.12 -4164.08 -2145.52 -2221.15 -2241.63 -4229.44 -4266.71 -4296.24 -4326.39 -4346.92 -4337.15 -4352.40 -4355.77 -4369.26 -4371.85 -4377.75 -4394.75 -4399.97 -4423.79 -4438.56 -4433.61
518.33 518.52 536.17 516.20 497.89 456.59 450.70 448.59 441.45 418.17 403.26 404.55 398.06 99.98 99.27 108.67 109.27 102.91 99.73 92.03 85.10 90.23 84.68 74.12 67.84 52.97 -178.98 -191.03 -181.38 -187.88 -169.38 -178.24 -171.55 -169.65 -164.40 -184.10 -192.94 -196.02 -195.78 -580.23 -579.77 -576.75 -575.88 -566.71 -568.57 -565.06 -572.68 -570.89 -579.64 -573.58 -572.81 -579.93 -1193.71 -1203.37 -1194.41 -1195.86 -1192.89 -1191.95 -1199.58 -1200.04 -1199.35 -1214.46 -1282.22 -1372.15 -1470.35 -1839.83 -1933.02 -1906.82 -1990.64 -2035.32 -2025.09 -2119.40 -2166.19 -2154.57 -2193.26 -2169.00 -2213.91 -2284.26 -2830.39 -2826.04 -2935.54 -2996.40 -3000.81 -3077.48 -3138.99 -3178.49 -3162.65 -3177.88 -3235.86 -3397.69 -3419.14 -3409.37 -3431.54 -3428.63 -3422.58 -3400.60 -3407.46 -3416.95 -3452.86 -3500.68 -3552.19 -3610.87 -3640.50 -3685.72 -3945.32 -3955.16 -3952.14 -3974.79 -3967.89 -3998.90 -4012.92 -4032.75 -4047.39 -4048.03 -4083.89 -4100.15 -4158.20 -2071.26 -2143.22 -2196.94 -4182.46 -4207.29 -4283.81 -4287.73 -4301.89 -4320.78 -4325.31 -4328.34 -4346.98 -4366.22 -4367.60 -4377.63 -4384.87 -4414.25 -4419.38 -4419.11
596.30 598.19 613.37 526.72 505.07 467.54 446.08 436.96 428.53 404.70 404.32 402.97 396.34 94.78 100.04 104.59 106.73 98.66 89.61 81.11 75.08 65.61 66.61 55.82 49.29 48.79 -189.33 -190.11 -175.95 -173.66 -166.35 -175.09 -166.39 -166.69 -171.11 -181.84 -191.30 -192.74 -191.44 -572.94 -575.98 -576.88 -563.58 -571.22 -563.97 -561.25 -570.05 -566.88 -571.52 -572.36 -570.14 -576.02 -1197.85 -1193.72 -1196.83 -1196.41 -1198.97 -1193.88 -1196.89 -1199.42 -1209.32 -1222.85 -1250.48 -1342.79 -1384.50 -1800.43 -1810.78 -1851.59 -1848.93 -1891.24 -1938.60 -1867.72 -2030.56 -2049.20 -2045.11 -2001.18 -2079.54 -2133.49 -2784.26 -2773.03 -2796.35 -2927.94 -2935.92 -2935.75 -2920.84 -3054.12 -3111.18 -3124.56 -3220.65 -3360.62 -3396.45 -3375.86 -3396.75 -3390.44 -3370.79 -3367.69 -3378.23 -3411.63 -3443.99 -3467.68 -3527.67 -3593.14 -3606.24 -3635.14 -3927.13 -3936.10 -3947.86 -3944.02 -3972.88 -3984.42 -3987.84 -4004.08 -4014.39 -4042.87 -4055.47 -4085.71 -4093.61 -2038.79 -2124.04 -2180.20 -4100.42 -4188.45 -4225.37 -4270.38 -4264.45 -4297.79 -4291.85 -4313.57 -4321.39 -4339.23 -4353.33 -4372.73 -4380.82 -4399.36 -4402.08 -4400.50
744.25 739.86 654.41 565.09 511.95 471.06 435.82 420.54 413.78 409.90 410.23 412.11 403.51 96.54 100.14 109.70 100.69 94.80 76.22 61.91 53.33 45.66 45.56 38.16 37.47 32.14 -193.53 -175.71 -179.97 -161.72 -155.32 -162.08 -162.02 -170.99 -177.65 -183.01 -187.69 -191.01 -191.24 -559.28 -571.14 -565.71 -570.36 -562.38 -562.38 -564.98 -565.11 -558.72 -568.16 -566.63 -572.06 -571.61 -1197.45 -1198.04 -1198.15 -1194.99 -1188.14 -1203.96 -1192.40 -1200.22 -1233.96 -1246.35 -1296.07 -1331.51 -1339.15 -1723.21 -1732.20 -1686.56 -1711.71 -1760.38 -1764.38 -1828.99 -1854.38 -1931.78 -1931.54 -1985.05 -1955.23 -2060.90 -2624.57 -2628.18 -2748.08 -2792.63 -2792.83 -2810.70 -2855.96 -2837.63 -2915.42 -3153.64 -3197.96 -3289.48 -3311.60 -3287.53 -3324.60 -3340.26 -3365.76 -3363.73 -3364.83 -3384.10 -3409.66 -3461.07 -3491.99 -3556.35 -3566.35 -3628.83 -3873.22 -3916.20 -3930.69 -3937.14 -3940.13 -3958.74 -3973.41 -3993.89 -4007.26 -4012.45 -4043.72 -4056.35 -4074.36 -1997.87 -2054.00 -2106.76 -4047.21 -4122.55 -4170.87 -4199.81 -4225.09 -4257.86 -4270.05 -4287.87 -4306.77 -4311.07 -4348.50 -4358.12 -4356.37 -4371.34 -4388.97 -4375.93
729.63 736.87 745.90 514.96 519.79 465.69 441.80 421.84 418.68 418.38 422.21 412.43 399.62 97.40 103.60 110.43 106.06 101.42 81.24 67.46 36.64 39.21 43.14 40.29 37.11 37.83 -178.65 -171.64 -158.36 -153.46 -144.48 -156.83 -167.06 -175.37 -181.70 -187.79 -187.60 -190.81 -185.07 -564.21 -561.93 -566.25 -569.19 -562.87 -557.46 -556.44 -566.96 -566.13 -571.55 -562.55 -568.20 -572.34 -1193.94 -1199.98 -1194.49 -1188.32 -1192.00 -1192.47 -1195.02 -1200.04 -1231.79 -1260.01 -1264.68 -1273.81 -1263.59 -1598.50 -1591.96 -1613.74 -1593.67 -1642.91 -1692.32 -1770.46 -1810.71 -1838.55 -1842.30 -1916.06 -1938.74 -1966.71 -2507.32 -2527.47 -2651.35 -2672.72 -2705.83 -2677.87 -2617.69 -2601.22 -2635.22 -2737.68 -3039.22 -3132.54 -3101.67 -3253.22 -3281.26 -3315.00 -3332.01 -3348.11 -3355.18 -3365.69 -3385.55 -3432.36 -3491.03 -3520.89 -3559.67 -3606.21 -3863.11 -3867.97 -3902.73 -3904.67 -3925.18 -3946.38 -3963.03 -3967.86 -3979.17 -3999.12 -4017.69 -4027.40 -4060.73 -1980.62 -2046.24 -2102.51 -4028.24 -4085.57 -4121.80 -4175.24 -4203.42 -4212.82 -4238.09 -4234.84 -4256.05 -4260.89 -4275.79 -4281.64 -4314.86 -4337.58 -4356.09 -4350.41
755.93 756.14 667.31 541.80 486.07 470.93 425.34 427.95 419.31 413.57 411.85 405.98 399.00 106.27 117.36 111.59 105.14 93.60 79.63 57.37 49.66 43.57 41.09 52.23 45.49 39.39 -175.69 -163.94 -156.19 -149.21 -150.34 -169.81 -171.80 -176.01 -185.45 -191.62 -189.00 -182.26 -184.20 -562.73 -558.88 -563.76 -561.45 -557.00 -554.82 -551.25 -560.66 -566.70 -561.23 -571.98 -568.43 -578.28 -1200.59 -1202.89 -1193.83 -1188.81 -1193.25 -1195.84 -1197.37 -1193.06 -1220.26 -1255.84 -1250.04 -1256.98 -1227.59 -1570.61 -1547.11 -1560.05 -1558.86 -1587.48 -1610.64 -1694.51 -1759.08 -1786.05 -1823.51 -1819.78 -1830.40 -1877.07 -2469.79 -2456.45 -2504.35 -2564.88 -2509.73 -2495.52 -2483.94 -2496.53 -2512.88 -2669.79 -2736.71 -2875.11 -2982.16 -2953.88 -3047.77 -3182.78 -3305.37 -3309.99 -3336.75 -3362.19 -3387.99 -3436.66 -3452.58 -3492.42 -3549.99 -3566.25 -3837.34 -3851.70 -3875.60 -3885.26 -3916.84 -3924.76 -3956.79 -3963.67 -3984.00 -3983.67 -4002.04 -4021.57 -4022.93 -1954.99 -2013.79 -2052.35 -4010.44 -4009.15 -4112.36 -4127.34 -4127.04 -4199.91 -4210.08 -4210.11 -4209.99 -4252.11 -4238.22 -4265.94 -4284.03 -4321.09 -4324.21 -4321.17
762.37 772.16 669.24 544.30 479.89 436.01 424.13 421.10 416.60 405.31 401.03 402.28 405.87 107.43 120.04 120.23 103.55 84.45 67.45 49.62 49.03 46.22 46.17 53.75 43.80 40.93 -166.24 -150.47 -146.31 -138.51 -144.68 -169.53 -179.20 -186.53 -178.63 -173.53 -161.49 -174.53 -168.45 -551.51 -549.71 -560.44 -556.45 -556.20 -551.76 -558.59 -573.98 -570.85 -570.25 -571.03 -573.12 -580.44 -1195.69 -1200.67 -1196.02 -1180.89 -1189.13 -1189.14 -1191.98 -1193.93 -1215.06 -1225.35 -1227.29 -1215.49 -1198.20 -1532.61 -1532.69 -1535.16 -1527.18 -1563.88 -1600.34 -1639.32 -1684.52 -1706.01 -1723.25 -1765.26 -1768.94 -1798.15 -2393.22 -2376.38 -2436.02 -2439.54 -2459.85 -2444.76 -2446.77 -2403.04 -2451.14 -2499.84 -2555.60 -2579.03 -2664.76 -2851.03 -2960.37 -3153.34 -3226.94 -3302.44 -3326.38 -3349.93 -3372.43 -3422.43 -3443.80 -3472.70 -3521.23 -3545.86 -3809.24 -3844.12 -3860.20 -3879.41 -3900.17 -3918.39 -3953.98 -3964.79 -3973.81 -3976.10 -3985.46 -3996.22 -4008.66 -1921.52 -1977.74 -2031.93 -3989.18 -4006.94 -4075.09 -4088.55 -4088.21 -4091.04 -4146.80 -4154.50 -4188.25 -4192.67 -4221.59 -4242.70 -4257.09 -4294.14 -4293.45 -4293.96
768.25 769.08 680.68 540.41 461.45 439.08 430.37 412.93 409.90 410.66 400.91 411.72 427.24 120.25 116.20 119.21 96.92 74.28 53.48 45.63 54.54 55.49 68.43 54.42 51.46 57.40 -163.21 -152.08 -147.29 -147.50 -154.06 -170.22 -173.35 -178.99 -168.87 -160.30 -162.03 -166.23 -168.97 -548.21 -543.87 -544.40 -547.82 -555.18 -554.55 -559.42 -565.81 -578.68 -570.80 -579.94 -578.02 -575.34 -1193.45 -1195.34 -1196.68 -1184.62 -1188.28 -1192.95 -1190.47 -1190.68 -1194.86 -1190.86 -1198.27 -1192.28 -1198.07 -1536.84 -1534.93 -1540.00 -1530.72 -1550.19 -1565.86 -1600.53 -1637.25 -1689.02 -1701.85 -1721.73 -1741.43 -1772.03 -2351.51 -2361.87 -2357.66 -2405.32 -2369.29 -2371.78 -2349.03 -2369.80 -2363.68 -2364.01 -2415.87 -2483.21 -2553.42 -2719.70 -2829.15 -2941.79 -3007.42 -3130.55 -3307.89 -3349.63 -3362.20 -3397.15 -3430.98 -3466.70 -3502.57 -3527.63 -3780.32 -3823.17 -3863.34 -3867.77 -3893.09 -3922.14 -3952.50 -3957.99 -3969.63 -3978.55 -3978.62 -3986.28 -4008.42 -1908.94 -1952.36 -2004.10 -3927.60 -3979.59 -4036.83 -4079.35 -4059.76 -4053.01 -4080.38 -4133.42 -4147.77 -4184.71 -4186.50 -4189.32 -4200.25 -4218.37 -4256.61 -4257.49
771.67 774.21 682.60 507.09 455.54 432.68 418.15 412.73 416.03 416.89 413.87 430.68 429.00 130.70 113.41 102.53 92.15 60.79 51.90 46.79 55.78 87.95 72.40 69.94 65.83 75.79 -144.01 -144.45 -142.85 -140.78 -156.65 -158.98 -168.11 -167.58 -158.01 -152.98 -148.21 -155.90 -155.56 -536.23 -545.18 -533.97 -547.36 -546.72 -551.29 -558.43 -567.19 -568.52 -569.87 -575.69 -571.40 -574.43 -1187.96 -1194.75 -1185.84 -1186.38 -1179.90 -1194.60 -1196.02 -1195.17 -1198.57 -1196.69 -1198.14 -1202.13 -1198.00 -1526.36 -1535.50 -1529.97 -1527.85 -1548.56 -1574.59 -1595.38 -1616.27 -1653.58 -1659.25 -1712.70 -1716.82 -1730.46 -2298.41 -2315.47 -2333.52 -2324.87 -2327.99 -2322.07 -2330.45 -2312.48 -2313.28 -2305.17 -2364.05 -2400.33 -2522.85 -2627.64 -2604.26 -2692.32 -2767.62 -3031.50 -3284.08 -3307.32 -3350.49 -3400.00 -3419.36 -3443.93 -3499.85 -3542.70 -3780.40 -3816.98 -3856.76 -3873.72 -3892.69 -3927.84 -3948.43 -3952.72 -3966.02 -3971.01 -3975.59 -3980.72 -3987.27 -1899.70 -1938.15 -1952.63 -3899.59 -3923.71 -3956.86 -4023.52 -4047.89 -4050.70 -4069.73 -4078.56 -4125.27 -4122.91 -4132.46 -4157.27 -4159.38 -4217.22 -4218.53 -4213.17
786.60 786.36 679.84 526.60 482.34 443.04 420.30 416.94 424.05 433.11 426.47 433.09 446.19 136.40 114.90 93.18 71.23 55.23 66.74 57.66 78.79 97.04 95.18 77.21 74.29 93.30 -124.48 -127.66 -131.89 -134.14 -135.01 -148.40 -153.62 -155.12 -146.46 -146.91 -151.22 -150.07 -164.91 -540.42 -543.67 -540.69 -548.62 -547.31 -552.37 -563.97 -567.13 -571.63 -579.98 -575.46 -575.03 -564.80 -1193.37 -1189.21 -1187.72 -1184.32 -1192.56 -1193.77 -1190.97 -1190.96 -1197.29 -1192.73 -1195.71 -1193.96 -1201.09 -1533.26 -1531.15 -1535.21 -1536.86 -1537.29 -1555.67 -1561.18 -1571.68 -1613.18 -1609.06 -1614.65 -1658.68 -1667.05 -2261.70 -2258.84 -2281.42 -2292.67 -2277.24 -2288.91 -2302.68 -2284.48 -2277.94 -2262.36 -2267.11 -2364.14 -2441.18 -2442.86 -2495.96 -2522.92 -2678.02 -2863.28 -3124.52 -3252.62 -3282.68 -3402.59 -3420.17 -3433.44 -3470.69 -3529.32 -3803.82 -3821.14 -3859.69 -3879.15 -3904.64 -3933.22 -3946.17 -3958.22 -3966.40 -3975.32 -3968.96 -3982.67 -3989.38 -1900.49 -1929.89 -1956.11 -3889.81 -3896.50 -3908.77 -3955.26 -3979.08 -3989.08 -3999.65 -4027.17 -4057.06 -4069.98 -4077.96 -4105.58 -4145.68 -4167.52 -4179.66 -4177.50
791.10 793.05 675.60 564.18 492.65 452.22 423.38 420.23 438.85 456.91 461.92 456.41 450.25 144.33 118.57 97.10 80.83 65.05 68.23 89.94 114.28 112.90 109.01 86.07 87.88 96.32 -119.50 -115.44 -128.22 -128.95 -138.02 -139.45 -147.29 -152.29 -141.82 -153.21 -164.10 -162.88 -173.60 -552.45 -552.24 -546.79 -547.90 -557.81 -557.18 -575.28 -557.23 -577.78 -578.87 -570.25 -573.38 -574.36 -1185.56 -1183.98 -1187.04 -1184.89 -1187.29 -1188.72 -1190.97 -1199.10 -1193.72 -1198.74 -1192.47 -1195.52 -1197.97 -1538.50 -1531.16 -1533.17 -1527.36 -1536.54 -1530.88 -1539.75 -1551.26 -1563.19 -1568.07 -1590.84 -1625.59 -1657.17 -2215.27 -2232.20 -2255.42 -2242.72 -2257.19 -2250.21 -2252.99 -2261.56 -2250.50 -2246.32 -2241.17 -2235.74 -2299.19 -2310.07 -2394.49 -2428.80 -2561.95 -2818.11 -3062.27 -3110.09 -3263.58 -3347.45 -3413.88 -3422.79 -3465.20 -3522.75 -3815.44 -3828.42 -3858.24 -3913.97 -3932.74 -3955.25 -3955.90 -3966.37 -3969.59 -3972.73 -3979.35 -3989.32 -4000.18 -1904.71 -1930.19 -1953.85 -3875.04 -3890.79 -3904.94 -3921.08 -3933.51 -3949.92 -3957.28 -3997.08 -4012.65 -4030.22 -4057.72 -4077.58 -4088.05 -4141.43 -4145.12 -4144.41
770.63 770.52 795.28 507.59 482.03 447.72 443.05 447.94 488.37 474.59 468.66 476.32 456.27 134.55 123.57 109.22 91.64 67.97 64.84 86.86 117.97 126.28 104.71 82.52 91.79 93.73 -107.93 -116.21 -111.09 -124.64 -140.07 -142.76 -145.35 -151.74 -154.28 -161.06 -177.43 -178.95 -182.49 -569.40 -565.70 -557.51 -556.36 -559.67 -569.78 -574.01 -575.31 -567.60 -574.88 -565.92 -566.24 -560.60 -1190.49 -1174.90 -1188.10 -1192.36 -1188.75 -1196.07 -1193.06 -1196.09 -1195.42 -1191.19 -1200.38 -1202.97 -1196.67 -1531.35 -1534.22 -1528.74 -1531.54 -1533.45 -1531.89 -1529.70 -1545.61 -1542.26 -1566.44 -1574.42 -1595.94 -1616.99 -2194.82 -2205.03 -2194.77 -2193.23 -2206.93 -2231.25 -2214.84 -2233.87 -2230.26 -2212.28 -2200.51 -2213.02 -2196.13 -2155.66 -2203.12 -2319.25 -2462.39 -2742.72 -3026.72 -3205.55 -3290.47 -3358.38 -3377.23 -3427.16 -3463.78 -3516.55 -3802.35 -3841.77 -3865.14 -3926.95 -3953.44 -3963.95 -3966.23 -3971.23 -3971.78 -3980.29 -3995.31 -3990.99 -4007.08 -1909.22 -1930.55 -1951.78 -3860.60 -3871.84 -3892.80 -3911.72 -3912.71 -3930.34 -3943.50 -3945.16 -3988.94 -4011.11 -4036.66 -4027.85 -4066.64 -4074.31 -4112.04 -4116.06
3368.70 3369.43 3252.95 3099.68 3021.57 2998.46 2994.58 3028.67 3037.15 3048.43 3021.34 3007.06 2981.29 2986.25 2969.88 2973.24 2951.02 2939.24 2935.02 2962.28 2989.32 2995.30 2992.05 2968.96 2975.17 2990.53 -92.55 -92.12 -104.89 -114.23 -121.11 -140.68 -149.28 -151.40 -155.89 -156.55 -164.74 -169.09 -168.14 -460.75 -474.58 -459.18 -469.90 -471.89 -474.68 -474.81 -470.54 -477.95 -463.48 -459.57 -457.39 -465.87 -709.56 -704.15 -717.80 -712.72 -723.19 -719.54 -717.98 -721.93 -721.67 -732.66 -723.57 -723.09 -724.73 -1077.43 -1085.56 -1080.88 -1078.67 -1084.46 -1081.96 -1081.62 -1082.33 -1082.26 -1097.01 -1114.70 -1122.67 -1138.77 -1244.75 -1260.71 -1263.53 -1274.39 -1267.47 -1256.96 -1279.95 -1254.33 -1236.53 -1257.66 -1256.18 -1266.57 -1252.70 -1265.97 -1307.79 -1325.63 -1499.57 -1677.57 -1991.80 -2201.63 -2430.61 -2464.13 -2511.52 -2561.83 -2569.31 -2686.88 -3651.74 -3704.08 -3761.80 -3800.80 -3808.17 -3821.92 -3815.82 -3828.49 -3819.51 -3832.65 -3840.36 -3848.18 -3870.22 -1924.74 -1937.61 -1948.69 -3591.24 -3604.77 -3627.98 -3641.49 -3649.23 -3645.37 -3660.80 -3671.51 -3679.87 -3711.40 -3741.72 -3761.86 -3768.86 -3816.34 -3825.68 -3822.34
3346.49 3343.41 3248.04 3133.93 3078.11 2998.54 3010.79 3024.85 3048.41 3033.70 3014.03 2989.81 2978.84 2981.84 2974.92 2963.30 2941.74 2941.38 2946.89 2960.39 2982.61 2993.10 2986.22 2976.23 2984.52 2995.03 -87.98 -86.10 -111.99 -117.47 -134.24 -135.71 -140.40 -147.57 -143.42 -144.01 -151.21 -154.89 -151.91 -450.64 -454.39 -455.80 -475.03 -471.24 -468.28 -472.65 -462.69 -469.86 -455.83 -459.74 -461.44 -461.22 -708.67 -711.04 -718.72 -716.88 -723.23 -725.59 -723.27 -725.56 -725.76 -726.34 -725.67 -724.24 -721.58 -1087.70 -1084.82 -1076.89 -1074.35 -1078.47 -1079.42 -1080.29 -1080.89 -1083.38 -1084.02 -1097.25 -1096.19 -1119.61 -1219.70 -1240.53 -1250.36 -1252.58 -1252.22 -1255.94 -1229.05 -1227.92 -1230.22 -1220.07 -1231.54 -1239.36 -1237.42 -1251.94 -1296.58 -1336.37 -1481.86 -1655.57 -1819.27 -1856.32 -2086.77 -2336.88 -2437.15 -2441.37 -2584.06 -2662.44 -3666.28 -3710.58 -3781.56 -3823.90 -3827.32 -3833.40 -3842.18 -3848.32 -3847.25 -3840.63 -3854.11 -3859.03 -3868.63 -1940.75 -1942.23 -1953.32 -3605.46 -3613.22 -3622.69 -3630.61 -3630.02 -3639.21 -3644.00 -3663.05 -3673.03 -3675.06 -3700.61 -3726.24 -3749.26 -3803.63 -3791.79 -3793.80
3565.93 3568.65 3453.80 3195.12 3185.23 3063.14 3013.92 3020.89 3062.88 3046.17 3035.21 2993.46 2999.28 3017.37 3014.27 2982.39 2972.03 2949.52 2947.31 2973.18 2980.02 3013.35 3000.34 2986.78 2992.88 2999.80 -81.20 -83.05 -110.20 -107.85 -117.51 -115.74 -120.38 -129.43 -130.34 -124.71 -134.37 -142.54 -142.17 -445.44 -440.27 -456.05 -461.73 -468.60 -472.30 -466.01 -465.37 -461.56 -453.66 -450.67 -449.19 -456.66 -710.49 -713.57 -720.13 -721.01 -720.85 -715.25 -720.27 -719.26 -719.23 -717.57 -725.49 -721.22 -722.02 -1080.25 -1077.76 -1076.85 -1081.44 -1076.58 -1079.76 -1083.20 -1084.28 -1077.11 -1082.83 -1081.73 -1084.77 -1099.55 -1199.27 -1225.73 -1232.86 -1234.22 -1240.26 -1220.75 -1219.77 -1220.62 -1219.17 -1209.43 -1218.61 -1217.08 -1213.29 -1229.74 -1271.82 -1285.95 -1318.21 -1526.49 -1583.35 -1690.25 -2053.88 -2045.54 -2270.04 -2424.10 -2646.62 -2689.99 -3694.08 -3748.41 -3782.00 -3826.08 -3854.47 -3862.91 -3874.69 -3860.37 -3873.52 -3869.00 -3881.71 -3880.13 -3876.69 -1944.91 -1953.66 -1975.30 -3617.23 -3618.13 -3625.00 -3626.94 -3629.82 -3635.87 -3640.71 -3656.09 -3663.75 -3675.01 -3693.07 -3707.80 -3725.10 -3761.52 -3768.33 -3775.74
3695.68 3698.79 3511.48 3319.52 3201.60 3117.52 3066.42 3118.89 3081.48 3115.86 3098.52 3068.38 3056.68 3035.61 3019.45 3000.19 2975.61 2947.70 2949.09 2970.66 3004.22 3016.49 3013.66 3003.00 2996.58 3005.97 -74.80 -91.87 -111.25 -110.03 -99.94 -106.04 -114.84 -120.31 -123.10 -119.76 -122.94 -131.79 -137.92 -438.73 -446.80 -456.05 -465.59 -471.77 -464.10 -457.87 -457.47 -468.09 -456.36 -447.95 -443.00 -451.28 -706.25 -713.43 -713.93 -717.29 -716.28 -714.90 -717.89 -716.82 -712.76 -720.45 -717.44 -718.27 -718.60 -1080.10 -1075.95 -1074.53 -1076.95 -1080.46 -1082.17 -1083.37 -1084.48 -1081.24 -1077.44 -1081.11 -1087.16 -1083.46 -1185.41 -1206.80 -1197.81 -1214.63 -1214.82 -1214.96 -1205.67 -1203.63 -1195.57 -1201.93 -1205.05 -1202.54 -1212.64 -1214.60 -1231.45 -1253.66 -1267.55 -1307.17 -1399.98 -1470.20 -1697.59 -1976.91 -2055.90 -2385.51 -2609.64 -2691.21 -3709.90 -3743.92 -3820.47 -3841.69 -3865.71 -3885.09 -3881.97 -3893.88 -3883.87 -3890.84 -3884.64 -3896.70 -3902.09 -1960.31 -1978.76 -1980.98 -3634.72 -3638.62 -3638.05 -3641.33 -3640.21 -3649.83 -3649.31 -3654.42 -3666.01 -3670.26 -3684.29 -3703.33 -3719.53 -3749.65 -3760.99 -3757.74
3767.65 3773.03 3732.42 3272.02 3235.34 3133.59 3141.71 3197.20 3149.53 3156.48 3127.66 3126.67 3078.50 3032.25 3012.68 2996.95 2981.02 2975.11 2958.45 2965.64 3001.52 3027.51 3020.91 3015.32 3017.00 3016.52 -67.09 -97.45 -96.62 -107.58 -101.58 -98.22 -116.85 -122.73 -129.54 -128.65 -116.74 -130.22 -153.50 -443.43 -460.55 -466.04 -464.78 -468.34 -461.14 -453.80 -454.06 -456.41 -447.21 -444.13 -444.51 -450.75 -702.54 -709.57 -710.95 -711.13 -705.80 -707.62 -706.77 -709.95 -711.89 -711.64 -724.59 -720.57 -724.57 -1074.67 -1074.42 -1077.24 -1079.01 -1071.45 -1076.54 -1076.67 -1080.96 -1083.07 -1081.87 -1087.00 -1082.06 -1083.36 -1177.63 -1190.15 -1199.41 -1204.19 -1206.47 -1196.24 -1196.98 -1196.02 -1196.38 -1189.03 -1201.26 -1200.31 -1206.99 -1214.52 -1217.69 -1226.78 -1259.55 -1294.93 -1327.45 -1427.86 -1645.47 -1896.06 -2119.79 -2524.98 -2606.35 -2710.24 -3718.04 -3778.28 -3834.18 -3851.33 -3882.46 -3895.82 -3909.97 -3906.81 -3906.07 -3909.52 -3903.19 -3910.37 -3917.69 -1974.30 -1983.09 -1989.34 -3650.08 -3647.01 -3666.11 -3663.11 -3653.26 -3647.67 -3649.49 -3662.35 -3660.79 -3667.55 -3683.89 -3701.54 -3716.29 -3733.57 -3743.85 -3747.72
3723.84 3722.52 3617.92 3397.10 3261.72 3199.79 3223.25 3268.86 3261.03 3187.94 3153.53 3142.19 3095.52 3041.84 3030.38 3028.61 3006.25 2997.92 2978.09 2975.04 3010.13 3035.32 3039.32 3030.92 3028.16 3033.20 -69.29 -81.84 -98.61 -99.31 -97.68 -104.29 -115.28 -136.79 -134.49 -135.83 -130.00 -149.31 -160.44 -456.47 -463.91 -466.49 -466.20 -467.70 -454.98 -448.09 -442.87 -444.30 -445.66 -438.31 -440.81 -444.31 -703.71 -705.81 -712.94 -712.40 -698.46 -701.86 -709.10 -702.46 -714.69 -715.82 -719.43 -713.10 -723.03 -1073.17 -1069.99 -1076.25 -1068.70 -1079.72 -1074.13 -1078.88 -1079.75 -1088.12 -1082.75 -1081.47 -1091.39 -1084.21 -1179.95 -1194.70 -1194.95 -1200.14 -1186.83 -1185.34 -1184.18 -1189.09 -1186.59 -1181.42 -1186.27 -1192.15 -1204.13 -1206.52 -1207.27 -1214.43 -1226.51 -1253.92 -1319.94 -1380.63 -1559.17 -1792.31 -1918.80 -2316.62 -2604.60 -2702.42 -3734.06 -3797.08 -3848.80 -3846.73 -3883.28 -3905.41 -3916.97 -3909.68 -3913.94 -3917.18 -3908.63 -3921.61 -3927.69 -1994.31 -2001.88 -2011.36 -3657.18 -3670.75 -3670.47 -3666.55 -3664.39 -3662.23 -3656.55 -3663.82 -3665.57 -3672.34 -3687.62 -3695.93 -3701.50 -3726.61 -3729.42 -3732.70
3645.42 3646.96 3531.57 3411.28 3365.14 3285.99 3277.81 3331.28 3298.11 3290.17 3248.59 3155.07 3076.68 3060.95 3068.83 3047.26 3022.22 2989.55 2975.30 2985.98 3030.18 3036.69 3049.84 3049.79 3050.55 3039.90 -57.24 -62.14 -79.77 -93.60 -102.76 -101.78 -126.19 -136.09 -159.12 -136.82 -153.54 -164.68 -164.91 -458.60 -470.16 -472.52 -464.74 -461.44 -457.01 -448.60 -431.69 -435.57 -442.52 -442.90 -441.68 -451.58 -697.68 -708.53 -713.60 -708.01 -703.79 -696.33 -698.28 -703.86 -712.23 -708.95 -719.92 -713.30 -721.27 -1077.25 -1074.46 -1073.13 -1074.03 -1082.78 -1078.40 -1075.04 -1078.92 -1077.48 -1084.79 -1081.89 -1081.52 -1080.43 -1175.46 -1191.11 -1199.85 -1191.01 -1183.96 -1184.19 -1186.46 -1182.53 -1182.44 -1186.09 -1178.46 -1188.77 -1188.33 -1197.15 -1189.58 -1203.24 -1215.09 -1257.88 -1272.73 -1374.74 -1541.70 -1630.09 -1729.96 -2253.67 -2610.77 -2685.42 -3732.23 -3787.94 -3817.78 -3863.19 -3890.32 -3914.77 -3926.93 -3926.18 -3924.64 -3924.53 -3934.02 -3940.44 -3943.15 -2002.73 -2017.39 -2029.77 -3673.61 -3675.39 -3681.64 -3678.14 -3678.20 -3668.91 -3659.23 -3671.36 -3669.88 -3678.95 -3680.96 -3690.40 -3698.25 -3726.59 -3723.30 -3732.16
3585.65 3582.13 3511.19 3413.91 3370.43 3368.17 3364.72 3340.28 3357.88 3330.71 3298.13 3171.31 3115.93 3101.85 3101.73 3072.17 3047.28 2988.20 2978.21 3019.44 3037.26 3067.73 3073.49 3071.32 3058.45 3040.57 -48.38 -57.24 -71.87 -90.70 -95.98 -116.51 -137.63 -160.19 -159.90 -166.55 -170.40 -172.92 -169.18 -462.00 -477.24 -470.53 -471.86 -462.86 -455.04 -438.69 -424.39 -426.84 -425.22 -429.63 -449.90 -447.08 -700.06 -704.84 -707.91 -692.29 -689.67 -693.93 -695.20 -694.31 -700.58 -705.28 -708.10 -706.33 -718.51 -1070.80 -1069.23 -1073.11 -1072.36 -1078.03 -1078.54 -1076.45 -1084.58 -1081.44 -1081.15 -1084.32 -1076.46 -1081.59 -1182.22 -1185.82 -1187.33 -1183.35 -1175.05 -1178.85 -1186.22 -1177.19 -1179.08 -1174.64 -1174.58 -1179.02 -1179.46 -1182.23 -1187.54 -1198.82 -1206.93 -1214.41 -1233.53 -1262.69 -1351.88 -1532.85 -1800.49 -1950.75 -2645.12 -2669.04 -3687.22 -3769.65 -3810.66 -3862.05 -3892.30 -3921.14 -3922.40 -3933.05 -3939.20 -3939.45 -3944.36 -3945.16 -3952.66 -2009.47 -2035.16 -2041.93 -3682.55 -3680.94 -3684.05 -3677.14 -3672.08 -3669.94 -3663.58 -3670.12 -3670.20 -3675.27 -3688.48 -3690.52 -3702.65 -3712.45 -3724.50 -3716.64
3567.40 3570.50 3512.97 3408.04 3375.02 3375.13 3380.12 3375.09 3371.99 3338.95 3281.63 3237.06 3138.42 3126.93 3100.71 3052.78 3029.69 2994.06 3001.96 3045.09 3069.92 3075.29 3083.36 3067.28 3054.82 3032.55 -45.96 -55.25 -74.00 -83.62 -99.64 -98.07 -137.40 -162.48 -163.72 -178.52 -177.61 -181.22 -186.16 -472.28 -470.58 -479.61 -468.06 -460.54 -455.47 -439.83 -423.62 -419.32 -417.38 -430.93 -440.94 -441.88 -692.06 -692.19 -691.45 -689.63 -685.79 -687.40 -686.81 -691.41 -688.00 -700.55 -700.99 -710.67 -705.71 -1068.21 -1067.95 -1071.57 -1070.87 -1078.80 -1078.10 -1072.14 -1077.04 -1079.08 -1077.60 -1079.68 -1081.30 -1078.79 -1178.52 -1183.67 -1183.37 -1175.63 -1177.04 -1177.52 -1178.62 -1179.83 -1180.65 -1174.25 -1176.32 -1171.97 -1179.77 -1177.46 -1180.67 -1187.49 -1196.51 -1209.54 -1221.87 -1235.71 -1339.87 -1491.87 -1585.18 -1936.09 -2273.75 -2674.41 -3674.86 -3753.29 -3800.76 -3828.12 -3885.85 -3913.29 -3924.51 -3935.10 -3937.24 -3938.71 -3941.68 -3958.38 -3958.32 -2034.73 -2042.41 -2042.02 -3682.63 -3687.07 -3681.79 -3676.83 -3671.25 -3674.15 -3674.64 -3667.86 -3670.67 -3675.38 -3680.63 -3688.11 -3702.84 -3714.65 -3719.49 -3723.57
3542.83 3543.52 3544.37 3349.61 3349.95 3373.15 3371.83 3379.09 3382.17 3358.14 3336.16 3272.81 3203.40 3140.37 3087.47 3037.83 3017.29 3006.21 3027.88 3061.14 3079.11 3063.85 3071.89 3056.08 3036.90 3026.15 -48.72 -53.36 -61.83 -73.50 -96.00 -106.92 -138.33 -139.65 -152.83 -167.18 -181.21 -173.95 -168.50 -462.44 -464.01 -469.13 -464.65 -467.08 -446.33 -435.02 -420.74 -415.38 -413.51 -422.94 -434.38 -441.96 -688.58 -697.47 -690.47 -694.21 -685.04 -689.89 -682.97 -691.42 -696.37 -697.97 -700.33 -703.52 -703.24 -1058.83 -1067.76 -1065.27 -1074.10 -1073.89 -1075.60 -1078.42 -1073.67 -1085.83 -1078.33 -1078.77 -1078.50 -1084.70 -1178.20 -1179.11 -1177.86 -1179.34 -1175.90 -1176.23 -1174.86 -1174.74 -1174.74 -1173.09 -1173.83 -1179.34 -1179.86 -1178.85 -1181.77 -1186.33 -1185.89 -1188.05 -1213.28 -1235.94 -1269.89 -1375.81 -1568.00 -1882.76 -2022.67 -2425.82 -3681.26 -3737.39 -3774.41 -3837.90 -3857.00 -3894.13 -3921.75 -3929.02 -3939.10 -3942.54 -3940.10 -3957.52 -3964.37 -2027.52 -2044.60 -2040.03 -3688.27 -3689.24 -3688.61 -3681.19 -3679.67 -3678.37 -3679.48 -3672.80 -3669.59 -3679.37 -3683.58 -3689.83 -3702.40 -3720.39 -3724.74 -3721.04
3522.02 3520.28 3446.81 3365.16 3340.00 3358.69 3369.21 3373.07 3373.24 3385.92 3382.83 3333.57 3209.22 3138.80 3098.69 3045.17 3017.83 3030.37 3075.85 3086.40 3082.07 3070.80 3052.31 3027.26 3017.06 3003.69 -60.35 -62.36 -58.64 -74.62 -108.38 -105.95 -120.62 -128.64 -142.07 -164.70 -177.36 -166.23 -167.56 -453.78 -448.94 -449.57 -462.40 -455.76 -457.02 -435.53 -416.88 -428.98 -423.71 -433.82 -431.95 -438.10 -691.91 -695.11 -703.70 -702.24 -705.17 -687.89 -688.01 -692.26 -693.65 -698.81 -704.02 -695.89 -705.30 -1054.47 -1062.26 -1062.75 -1066.24 -1071.86 -1070.70 -1072.53 -1078.66 -1080.89 -1081.05 -1074.59 -1081.46 -1084.71 -1168.37 -1173.36 -1170.90 -1174.69 -1174.71 -1176.37 -1171.02 -1180.66 -1176.64 -1180.24 -1173.92 -1176.45 -1177.56 -1177.59 -1177.51 -1177.52 -1184.05 -1183.99 -1196.55 -1206.63 -1230.37 -1341.78 -1518.62 -1640.73 -1973.51 -2194.16 -3509.99 -3724.56 -3744.94 -3800.13 -3851.10 -3885.86 -3905.62 -3923.18 -3926.65 -3939.65 -3940.07 -3950.93 -3963.92 -2024.88 -2029.85 -2039.98 -3689.27 -3690.37 -3686.47 -3686.02 -3682.33 -3681.36 -3675.21 -3673.74 -3672.03 -3676.87 -3677.22 -3695.54 -3702.27 -3711.66 -3721.69 -3720.54
3518.76 3523.70 3430.62 3379.92 3286.62 3262.21 3310.26 3327.22 3364.57 3371.89 3389.26 3319.00 3245.05 3148.21 3118.68 3071.09 3072.78 3082.20 3102.76 3077.10 3074.06 3059.72 3044.34 3014.20 2992.32 2992.71 -81.14 -77.59 -78.24 -91.87 -114.44 -109.33 -114.30 -130.30 -140.52 -149.94 -176.45 -174.63 -149.46 -441.77 -427.55 -437.94 -451.92 -452.93 -441.56 -443.10 -442.58 -441.99 -439.61 -444.56 -435.65 -442.14 -692.67 -698.50 -705.60 -713.87 -705.21 -695.04 -690.08 -690.17 -700.01 -700.65 -703.09 -702.98 -696.72 -1058.89 -1064.11 -1066.89 -1065.18 -1072.24 -1069.16 -1072.69 -1076.48 -1078.25 -1073.20 -1075.78 -1076.97 -1082.24 -1178.55 -1176.57 -1175.38 -1176.86 -1171.32 -1172.05 -1178.63 -1179.39 -1179.75 -1172.09 -1179.99 -1175.92 -1172.54 -1178.01 -1175.46 -1178.55 -1178.43 -1177.35 -1185.04 -1196.44 -1224.49 -1249.57 -1391.78 -1485.52 -1795.53 -2102.39 -3384.52 -3587.55 -3719.43 -3745.42 -3821.11 -3849.76 -3900.07 -3926.39 -3930.70 -3937.64 -3947.37 -3951.29 -3954.83 -2026.67 -2027.26 -2037.87 -3681.69 -3686.43 -3680.11 -3685.57 -3680.47 -3676.29 -3680.43 -3678.06 -3672.73 -3680.61 -3687.34 -3700.33 -3701.60 -3711.74 -3727.04 -3721.91
1387.73 1390.03 1407.75 1205.06 1185.67 1175.24 1232.50 1278.19 1302.91 1317.96 1334.67 1276.16 1208.92 2195.40 2101.26 2138.80 2096.37 2078.43 2063.58 2024.38 2014.70 1996.15 1988.47 1943.05 1946.62 1940.90 -96.61 -76.57 -77.37 -106.98 -117.74 -117.43 -124.61 -128.86 -151.14 -156.53 -172.61 -165.62 -150.43 -441.41 -440.51 -439.35 -440.62 -450.01 -452.86 -454.56 -462.05 -455.99 -467.13 -465.33 -464.35 -460.35 -653.55 -663.71 -681.53 -673.45 -666.20 -665.58 -659.29 -660.24 -655.63 -659.88 -665.64 -666.16 -661.90 -976.47 -978.93 -977.86 -977.25 -987.02 -989.28 -988.09 -988.01 -986.73 -989.70 -992.45 -994.18 -992.19 -1166.76 -1161.91 -1167.91 -1165.67 -1161.56 -1165.71 -1170.76 -1165.31 -1164.02 -1167.96 -1171.25 -1162.41 -1165.75 -1261.96 -1258.73 -1259.09 -1262.41 -1265.82 -1265.81 -1278.45 -1295.57 -1308.40 -1365.30 -1502.64 -1762.52 -1980.98 -3285.51 -3464.81 -3504.19 -3612.04 -3644.54 -3699.59 -3716.18 -3762.91 -3789.85 -3794.39 -3796.90 -3800.45 -3809.19 -2012.36 -2016.53 -2022.10 -3642.64 -3643.26 -3646.25 -3653.36 -3652.74 -3654.21 -3646.99 -3649.33 -3651.73 -3656.51 -3656.27 -3663.20 -3678.30 -3699.07 -3702.28 -3697.33
1356.67 1355.25 1269.41 1183.10 1128.94 1168.96 1223.38 1267.77 1292.69 1300.74 1308.59 1320.08 1282.58 2282.46 2213.40 2168.14 2152.81 2125.93 2048.17 2003.35 2009.86 1985.16 1955.67 1945.86 1939.65 1933.94 -108.99 -95.80 -100.80 -105.39 -137.04 -133.17 -144.44 -169.07 -160.85 -162.82 -161.26 -153.45 -147.94 -444.80 -430.80 -433.87 -449.79 -443.71 -440.87 -452.52 -467.14 -473.26 -477.07 -474.19 -467.00 -469.64 -658.84 -666.63 -679.17 -677.36 -676.00 -669.06 -659.82 -665.40 -663.73 -670.63 -675.47 -671.06 -666.35 -983.49 -987.78 -984.33 -987.24 -987.94 -994.87 -985.55 -981.54 -993.48 -991.27 -985.36 -990.31 -992.94 -1160.27 -1163.96 -1165.05 -1165.41 -1171.68 -1170.01 -1164.80 -1169.42 -1168.91 -1163.38 -1166.30 -1168.63 -1170.31 -1258.01 -1257.46 -1260.89 -1261.05 -1260.87 -1260.84 -1271.10 -1273.87 -1332.86 -1386.88 -1430.59 -1646.30 -2023.23 -3135.48 -3348.97 -3414.90 -3522.07 -3639.91 -3658.61 -3702.76 -3723.43 -3763.38 -3773.95 -3797.61 -3791.31 -3799.81 -2002.88 -2004.81 -2012.13 -3638.58 -3634.76 -3645.55 -3646.35 -3647.65 -3649.16 -3650.66 -3653.00 -3654.78 -3648.64 -3662.07 -3670.15 -3683.07 -3708.84 -3702.59 -3702.02
1344.73 1341.46 1252.83 1162.13 1127.91 1177.65 1217.76 1266.11 1267.36 1283.53 1296.79 1287.31 1311.53 2361.61 2260.84 2238.48 2169.67 2112.01 2033.43 2028.61 2028.05 1996.39 1991.16 1968.45 1955.52 1927.33 -116.20 -121.63 -124.78 -137.22 -147.94 -153.66 -164.65 -164.83 -175.70 -162.01 -159.53 -147.60 -138.35 -433.94 -422.33 -423.30 -432.57 -436.15 -446.96 -465.82 -465.94 -482.32 -479.79 -482.59 -472.62 -480.75 -668.22 -669.77 -675.52 -682.02 -678.66 -677.03 -672.98 -667.80 -671.25 -669.19 -681.15 -685.15 -682.34 -985.13 -989.53 -989.33 -988.41 -982.10 -993.81 -992.79 -991.80 -989.54 -993.05 -991.02 -991.37 -993.13 -1157.57 -1168.76 -1164.38 -1164.58 -1166.18 -1168.29 -1169.56 -1167.93 -1168.29 -1165.06 -1165.45 -1165.68 -1167.65 -1259.92 -1252.34 -1257.15 -1255.12 -1261.40 -1262.89 -1265.64 -1271.94 -1307.86 -1380.03 -1449.76 -1668.97 -1990.05 -3059.55 -3139.53 -3305.52 -3391.01 -3567.66 -3626.51 -3670.78 -3720.90 -3740.49 -3752.67 -3761.80 -3780.95 -3778.80 -1994.20 -2005.81 -2009.81 -3629.19 -3631.34 -3643.86 -3642.22 -3646.97 -3649.80 -3649.74 -3652.83 -3654.22 -3655.68 -3666.82 -3680.51 -3683.67 -3697.05 -3709.77 -3706.44
1270.54 1272.38 1281.15 1086.13 1062.84 1119.41 1178.16 1199.96 1225.61 1230.14 1256.37 1283.09 1291.98 2337.17 2292.92 2263.83 2190.95 2130.70 2066.11 2066.54 2033.61 2006.70 1990.68 1973.94 1957.58 1931.52 -141.09 -136.21 -130.15 -136.97 -157.00 -159.17 -171.12 -172.00 -162.58 -150.78 -139.31 -131.05 -132.33 -413.29 -417.06 -416.26 -427.21 -433.98 -447.89 -449.73 -483.84 -487.27 -489.65 -481.80 -484.59 -486.31 -682.05 -674.98 -674.51 -678.44 -675.75 -678.07 -681.11 -675.05 -675.00 -680.89 -676.59 -686.19 -684.71 -992.53 -989.55 -984.38 -987.74 -986.58 -996.61 -993.31 -994.07 -995.10 -993.57 -986.92 -987.13 -997.19 -1164.67 -1165.45 -1171.55 -1162.80 -1161.50 -1164.92 -1170.31 -1163.80 -1166.61 -1166.24 -1166.99 -1162.64 -1170.00 -1259.48 -1257.94 -1264.33 -1258.63 -1255.26 -1266.34 -1253.58 -1264.82 -1319.57 -1353.09 -1430.85 -1585.08 -1609.28 -2737.12 -3149.45 -3216.74 -3291.70 -3455.60 -3582.70 -3598.64 -3667.72 -3712.93 -3724.07 -3755.79 -3758.67 -3773.29 -1990.59 -1990.81 -2001.70 -3631.32 -3631.20 -3642.47 -3646.35 -3652.86 -3660.13 -3650.45 -3653.75 -3660.56 -3672.28 -3672.03 -3693.24 -3691.38 -3710.08 -3712.16 -3713.86
1239.53 1244.88 1178.84 1073.94 1055.07 1058.70 1101.08 1133.10 1183.82 1210.28 1229.28 1232.77 1254.45 2282.46 2215.10 2204.42 2223.33 2158.19 2141.53 2087.73 2038.81 1981.74 1970.71 1959.07 1956.21 1928.26 -139.85 -142.98 -145.06 -146.54 -138.93 -149.45 -168.37 -173.42 -154.10 -135.39 -130.59 -119.12 -116.93 -414.65 -412.70 -407.92 -423.73 -437.20 -458.66 -465.40 -485.73 -484.32 -486.02 -476.05 -484.15 -483.56 -680.44 -676.90 -677.26 -670.89 -677.49 -675.87 -682.48 -680.29 -679.62 -673.29 -679.23 -677.66 -681.59 -990.90 -990.41 -987.83 -996.67 -992.68 -992.18 -994.88 -995.12 -997.11 -999.34 -997.29 -995.81 -991.17 -1169.83 -1167.05 -1166.31 -1165.79 -1161.76 -1164.29 -1164.96 -1163.67 -1165.99 -1161.96 -1170.48 -1166.46 -1168.17 -1262.15 -1259.13 -1257.62 -1263.44 -1259.73 -1261.52 -1261.64 -1256.30 -1270.96 -1322.70 -1388.59 -1426.37 -1693.40 -2774.57 -3067.24 -3124.25 -3301.31 -3414.16 -3456.47 -3550.65 -3630.86 -3655.68 -3704.60 -3719.34 -3727.42 -3757.15 -1984.68 -1987.13 -2001.26 -3618.48 -3631.12 -3642.32 -3644.84 -3654.47 -3662.51 -3661.69 -3667.28 -3669.70 -3677.01 -3687.89 -3686.61 -3696.41 -3718.62 -3723.78 -3733.67
1243.45 1249.22 1192.72 1089.35 1063.74 1031.05 1048.38 1071.47 1111.88 1134.45 1138.73 1134.35 1121.96 2161.62 2118.44 2178.57 2207.12 2197.67 2151.98 2098.75 2027.40 2007.31 1970.10 1946.23 1936.74 1929.08 -139.65 -131.50 -130.14 -121.59 -125.05 -147.09 -170.82 -155.30 -135.75 -118.54 -118.94 -108.43 -107.08 -420.07 -418.94 -417.71 -423.23 -458.76 -462.31 -475.70 -489.26 -490.02 -484.33 -472.38 -472.89 -487.46 -683.79 -675.59 -672.80 -661.05 -664.69 -670.39 -684.17 -677.65 -680.87 -677.15 -675.57 -673.82 -677.28 -988.08 -987.92 -993.15 -992.24 -998.53 -996.17 -988.11 -994.18 -996.36 -992.68 -995.82 -994.79 -993.75 -1161.84 -1165.05 -1164.74 -1166.05 -1164.22 -1167.78 -1163.74 -1169.76 -1163.55 -1165.73 -1158.64 -1163.15 -1164.52 -1263.79 -1260.89 -1266.00 -1261.77 -1257.47 -1264.86 -1260.85 -1265.06 -1274.53 -1295.84 -1342.31 -1422.22 -1761.80 -2737.79 -3010.51 -3157.16 -3309.14 -3357.18 -3427.76 -3490.32 -3553.03 -3586.05 -3670.85 -3704.29 -3712.08 -3757.20 -1965.69 -1982.33 -1998.91 -3629.93 -3637.44 -3639.08 -3649.97 -3654.94 -3663.43 -3661.25 -3666.35 -3671.55 -3685.19 -3691.97 -3704.47 -3702.86 -3724.51 -3736.78 -3739.41
1315.51 1315.87 1228.63 1121.09 1111.10 1044.78 1019.81 1051.64 1065.48 1073.89 1057.09 1053.21 1051.92 2081.46 2065.60 2118.30 2195.63 2183.02 2142.25 2098.53 2037.52 1997.65 1970.54 1955.33 1937.01 1928.38 -114.21 -118.05 -107.05 -119.55 -126.85 -148.24 -151.34 -144.47 -136.77 -115.67 -117.72 -104.30 -118.06 -429.82 -438.79 -437.95 -458.58 -454.40 -464.67 -479.22 -485.63 -483.22 -479.23 -466.49 -469.25 -461.60 -662.57 -659.60 -660.43 -656.21 -663.80 -673.17 -674.85 -677.60 -677.92 -675.95 -674.29 -675.31 -677.45 -992.19 -995.45 -989.55 -998.74 -992.55 -995.03 -988.76 -983.14 -995.36 -995.71 -991.15 -995.59 -996.27 -1166.76 -1166.26 -1165.55 -1167.88 -1166.33 -1168.42 -1169.57 -1168.90 -1159.83 -1170.12 -1162.78 -1169.62 -1163.60 -1257.34 -1253.63 -1260.96 -1262.28 -1259.06 -1267.11 -1266.36 -1271.72 -1283.79 -1326.39 -1386.86 -1416.65 -1591.57 -2643.97 -2995.82 -3102.25 -3233.64 -3272.98 -3351.69 -3413.68 -3463.79 -3576.16 -3628.91 -3663.20 -3722.60 -3757.61 -1966.38 -1985.22 -1996.91 -3637.39 -3647.84 -3651.73 -3657.32 -3657.91 -3663.13 -3674.98 -3680.04 -3688.35 -3690.24 -3705.54 -3714.49 -3721.00 -3734.02 -3748.70 -3741.57
1320.52 1318.75 1248.36 1172.48 1108.58 1047.42 1016.88 1037.30 1040.06 1055.70 1053.25 1024.94 1011.61 2039.90 2055.59 2106.90 2160.60 2174.12 2143.78 2092.76 2070.42 2011.32 1972.65 1969.62 1956.92 1946.69 -109.78 -102.19 -101.06 -112.07 -143.56 -143.04 -136.05 -130.62 -110.27 -115.68 -107.34 -123.97 -128.67 -460.60 -459.08 -450.80 -459.86 -463.62 -468.87 -482.40 -488.67 -480.62 -472.44 -465.49 -464.48 -462.85 -650.96 -657.83 -651.89 -648.80 -645.50 -661.29 -670.83 -670.41 -674.25 -672.68 -678.76 -680.44 -685.12 -991.31 -995.39 -995.39 -989.55 -995.82 -991.91 -984.81 -987.35 -991.77 -995.58 -990.75 -994.60 -991.00 -1168.42 -1170.08 -1163.00 -1160.89 -1162.51 -1163.02 -1171.09 -1164.08 -1165.88 -1171.93 -1166.34 -1164.82 -1165.83 -1258.95 -1259.95 -1257.58 -1264.05 -1255.08 -1262.55 -1261.21 -1284.57 -1312.04 -1352.53 -1406.65 -1421.17 -1557.12 -2569.38 -2768.79 -2974.84 -3078.38 -3226.69 -3270.74 -3353.22 -3437.82 -3519.55 -3594.41 -3646.87 -3727.64 -3762.02 -1970.17 -1991.07 -2004.67 -3645.42 -3640.45 -3650.33 -3660.13 -3669.47 -3671.30 -3685.69 -3683.32 -3694.87 -3709.71 -3704.12 -3717.37 -3719.36 -3740.80 -3759.12 -3756.16
1312.65 1312.45 1315.06 1129.39 1114.80 1062.03 1018.09 1016.39 1013.96 1049.89 1050.02 1028.64 1014.41 2016.72 2024.56 2071.21 2141.53 2162.12 2131.42 2108.67 2084.50 1995.17 1979.93 1963.19 1967.35 1963.00 -90.20 -105.23 -114.11 -131.11 -139.75 -130.15 -123.40 -106.35 -108.40 -105.19 -116.51 -119.97 -137.79 -461.86 -465.47 -469.82 -474.64 -475.02 -485.28 -492.81 -477.59 -464.46 -467.10 -462.74 -458.89 -448.15 -644.36 -645.64 -649.38 -647.55 -641.98 -649.52 -660.23 -666.67 -671.79 -683.46 -678.70 -674.65 -674.25 -991.77 -993.87 -995.65 -994.12 -987.63 -991.45 -988.06 -987.34 -995.93 -997.97 -992.76 -992.19 -996.63 -1166.69 -1158.32 -1162.50 -1169.95 -1164.01 -1159.30 -1167.63 -1168.02 -1167.81 -1165.11 -1172.31 -1170.87 -1165.22 -1257.34 -1260.76 -1258.75 -1262.33 -1256.48 -1261.06 -1267.48 -1280.15 -1302.36 -1335.23 -1343.49 -1382.47 -1571.74 -2615.48 -2823.57 -2998.99 -3035.79 -3079.65 -3192.42 -3262.08 -3356.90 -3407.55 -3571.99 -3596.35 -3700.66 -3746.28 -1967.35 -2004.56 -2007.16 -3637.54 -3646.89 -3648.14 -3658.68 -3665.40 -3675.67 -3685.62 -3689.94 -3698.03 -3707.13 -3708.21 -3719.15 -3734.40 -3760.77 -3768.23 -3768.18
1308.92 1316.27 1240.38 1136.31 1094.08 1055.12 1016.11 984.37 1001.48 1007.53 1039.61 1025.92 994.55 2003.10 2013.67 2072.56 2087.05 2122.40 2131.57 2077.70 2044.60 1989.56 1984.08 1957.20 1958.13 1952.71 -96.95 -118.20 -135.36 -132.17 -121.04 -110.40 -102.67 -109.67 -91.41 -99.33 -123.89 -127.13 -152.55 -470.81 -486.38 -480.49 -482.43 -485.80 -484.05 -482.85 -469.68 -460.10 -456.83 -459.44 -450.61 -440.53 -636.01 -635.74 -641.80 -644.27 -646.70 -656.33 -655.27 -663.06 -673.36 -678.87 -683.34 -678.91 -679.52 -990.63 -990.24 -986.01 -989.03 -990.86 -990.74 -990.91 -985.58 -990.53 -987.54 -996.07 -990.10 -992.46 -1162.50 -1158.52 -1165.10 -1167.81 -1169.12 -1167.46 -1169.32 -1160.81 -1164.63 -1164.04 -1168.79 -1169.03 -1164.49 -1260.98 -1262.44 -1258.12 -1262.04 -1254.49 -1264.98 -1274.82 -1272.42 -1287.71 -1324.28 -1337.19 -1340.99 -1564.96 -2611.77 -2761.99 -2898.02 -3021.18 -3041.72 -3114.50 -3212.37 -3241.93 -3406.32 -3500.95 -3604.56 -3649.82 -3706.59 -1969.92 -2006.43 -2014.20 -3643.95 -3647.27 -3647.61 -3658.04 -3664.76 -3671.44 -3669.71 -3686.88 -3696.78 -3710.50 -3714.92 -3729.49 -3739.20 -3761.17 -3770.97 -3767.00
1322.33 1319.71 1242.64 1127.86 1063.23 1020.91 987.38 978.91 979.25 998.30 1016.00 997.14 981.00 1984.34 2009.93 2043.86 2084.56 2107.89 2109.20 2075.05 2018.82 2005.96 1976.50 1968.10 1952.23 1938.99 -104.59 -124.80 -123.43 -117.02 -111.76 -96.68 -92.94 -96.03 -94.94 -100.66 -121.13 -150.09 -154.49 -464.72 -473.85 -473.01 -477.47 -481.93 -480.59 -471.27 -462.10 -447.58 -441.60 -445.16 -440.36 -450.24 -639.18 -638.77 -644.12 -644.85 -656.91 -660.69 -666.37 -672.46 -682.62 -681.90 -678.41 -675.38 -671.99 -979.58 -980.46 -986.02 -990.58 -988.16 -989.12 -987.16 -990.19 -990.95 -992.49 -984.76 -991.99 -992.67 -1159.14 -1167.76 -1169.75 -1162.57 -1163.73 -1165.68 -1168.51 -1168.60 -1169.72 -1165.08 -1164.81 -1162.91 -1163.89 -1255.93 -1259.16 -1255.78 -1265.20 -1254.38 -1259.08 -1258.71 -1260.62 -1267.66 -1272.69 -1321.29 -1345.95 -1522.03 -2529.84 -2797.26 -2835.79 -2951.45 -3020.59 -3079.70 -3116.82 -3269.05 -3313.52 -3498.00 -3583.22 -3617.01 -3679.80 -1995.32 -2007.57 -2020.26 -3635.41 -3637.55 -3645.11 -3650.27 -3654.08 -3665.42 -3675.53 -3686.07 -3695.68 -3699.96 -3713.42 -3719.85 -3733.42 -3750.50 -3767.35 -3764.99
1310.18 1304.45 1221.16 1128.32 1060.04 976.56 972.91 968.55 994.50 998.85 985.09 989.84 957.52 1984.07 1992.78 2065.25 2082.67 2109.03 2104.55 2081.04 2060.01 2014.70 2003.63 1982.26 1972.83 1948.53 -109.74 -107.12 -111.81 -105.97 -90.55 -82.41 -79.62 -76.01 -86.26 -97.77 -119.48 -121.44 -138.80 -453.14 -459.38 -461.74 -464.90 -473.95 -472.46 -469.32 -453.88 -443.16 -435.39 -430.20 -436.40 -442.75 -653.66 -651.98 -656.82 -645.30 -657.89 -664.45 -670.20 -676.31 -670.51 -678.18 -670.90 -673.26 -665.35 -976.64 -979.63 -987.61 -994.58 -1001.26 -991.18 -987.91 -982.70 -984.33 -978.50 -984.23 -986.65 -994.67 -1167.15 -1163.06 -1166.17 -1167.83 -1167.04 -1164.56 -1163.03 -1165.46 -1168.16 -1161.61 -1167.32 -1169.67 -1171.77 -1261.73 -1260.62 -1255.22 -1261.43 -1261.29 -1262.35 -1259.69 -1257.67 -1263.18 -1289.15 -1311.41 -1375.36 -1410.40 -2333.32 -2593.08 -2873.36 -2895.64 -2986.73 -3002.26 -3060.79 -3228.03 -3300.92 -3490.94 -3562.60 -3604.28 -3635.84 -1948.02 -1981.79 -1993.10 -3610.02 -3630.68 -3629.36 -3646.71 -3644.38 -3651.21 -3668.60 -3685.86 -3698.08 -3696.99 -3712.63 -3727.28 -3734.15 -3752.54 -3763.24 -3763.52
3303.55 3302.09 3230.80 3112.80 3078.62 3032.53 3008.67 2983.80 3016.33 3005.84 3014.71 2999.64 2984.47 3296.89 3324.72 3387.79 3415.08 3445.03 3434.61 3408.76 3406.59 3374.82 3352.53 3341.89 3315.15 3297.75 1217.62 1205.07 1202.12 1194.14 1212.39 1237.15 1230.09 1227.55 1221.14 1205.62 1187.01 1197.59 1179.16 -142.22 -154.35 -163.06 -166.04 -174.14 -181.71 -173.74 -159.21 -149.72 -127.49 -125.64 -133.46 -140.76 -348.24 -347.46 -361.00 -354.18 -364.53 -361.41 -373.15 -372.08 -362.88 -359.51 -361.01 -353.14 -370.75 -565.83 -572.97 -575.52 -582.03 -572.77 -580.46 -566.67 -562.21 -561.19 -557.49 -566.46 -571.99 -575.79 -671.24 -677.42 -681.20 -677.93 -686.43 -680.40 -681.33 -679.01 -680.36 -679.37 -680.40 -679.40 -679.40 -1196.15 -1187.35 -1191.73 -1187.94 -1190.56 -1193.16 -1185.22 -1192.56 -1197.12 -1191.22 -1236.13 -1315.68 -1331.79 -2262.93 -2473.54 -2612.78 -2715.45 -2899.94 -2940.27 -2967.85 -3060.45 -3301.89 -3414.85 -3466.93 -3542.72 -3588.98 -1899.44 -1944.26 -1959.08 -3577.50 -3599.34 -3620.04 -3632.43 -3635.52 -3646.44 -3654.52 -3676.56 -3687.71 -3697.82 -3704.26 -3716.52 -3729.11 -3738.33 -3757.40 -3758.56
3267.69 3266.12 3176.39 3068.89 3046.34 3045.08 3007.64 2999.24 2974.45 2986.58 2972.62 2986.32 2986.13 3303.62 3319.10 3348.43 3388.60 3393.52 3424.41 3407.55 3403.89 3401.38 3389.80 3361.03 3337.92 3306.87 1221.12 1220.93 1218.01 1215.98 1217.72 1228.48 1224.96 1227.83 1218.81 1195.87 1189.00 1185.96 1164.92 -143.78 -163.23 -167.58 -174.27 -173.35 -175.71 -170.62 -171.39 -155.47 -138.68 -138.59 -136.12 -137.84 -332.31 -346.19 -343.09 -346.87 -353.92 -357.01 -370.20 -357.23 -351.06 -349.43 -351.48 -362.36 -362.88 -574.07 -579.95 -571.70 -573.31 -566.00 -562.00 -570.65 -563.23 -562.28 -560.00 -564.77 -577.00 -575.92 -678.78 -677.41 -680.65 -682.71 -681.43 -684.21 -683.09 -682.02 -678.40 -673.48 -683.38 -674.49 -676.04 -1189.82 -1191.10 -1195.59 -1193.19 -1185.95 -1188.18 -1192.02 -1186.18 -1194.66 -1195.43 -1196.44 -1262.30 -1321.40 -2152.23 -2410.40 -2469.92 -2614.47 -2672.81 -2800.12 -2944.01 -3050.29 -3205.72 -3347.27 -3437.59 -3499.30 -3540.95 -1851.20 -1900.69 -1907.74 -3564.74 -3547.47 -3572.30 -3578.17 -3609.95 -3614.68 -3627.92 -3663.13 -3678.76 -3684.51 -3706.97 -3709.70 -3720.42 -3741.62 -3749.07 -3742.45
3269.78 3266.46 3175.29 3044.57 3032.41 3017.51 3015.24 2994.63 2984.24 2975.55 2967.93 2960.44 2959.18 3278.60 3293.38 3304.19 3322.60 3380.39 3377.91 3392.51 3402.56 3404.06 3395.96 3377.95 3353.48 3315.86 1220.65 1221.60 1223.69 1235.33 1236.89 1231.44 1219.57 1216.97 1200.11 1180.41 1163.67 1165.68 1165.12 -162.32 -176.75 -177.73 -177.94 -168.89 -156.76 -156.39 -164.29 -158.82 -140.18 -126.22 -133.47 -132.28 -328.84 -326.96 -336.03 -340.97 -341.19 -346.98 -360.64 -342.12 -340.98 -342.28 -347.32 -357.57 -363.23 -569.85 -569.14 -568.36 -562.17 -562.49 -558.11 -561.53 -562.56 -551.88 -555.77 -571.82 -570.71 -573.63 -676.83 -672.83 -674.70 -686.76 -676.79 -679.91 -675.75 -679.53 -686.67 -688.83 -684.46 -679.99 -680.57 -1189.75 -1187.96 -1184.89 -1196.17 -1188.84 -1195.60 -1191.41 -1188.45 -1192.01 -1192.57 -1195.66 -1195.24 -1243.27 -2034.00 -2179.50 -2317.46 -2333.48 -2550.97 -2710.35 -2848.08 -2933.80 -3120.85 -3264.78 -3397.98 -3439.83 -3518.85 -1777.31 -1824.21 -1853.43 -3467.14 -3458.27 -3470.87 -3498.46 -3504.90 -3558.46 -3603.41 -3623.84 -3659.46 -3662.68 -3679.13 -3695.49 -3700.50 -3720.53 -3728.94 -3732.15
3351.37 3347.10 3215.98 3055.28 3031.99 3018.32 3015.45 3006.70 2988.52 2979.21 2975.60 2962.77 2968.79 3295.68 3284.84 3295.93 3284.71 3318.32 3332.40 3377.78 3384.37 3391.34 3386.63 3376.22 3382.97 3345.22 1257.81 1245.73 1244.75 1247.49 1241.35 1227.99 1209.46 1207.30 1185.33 1167.26 1151.12 1157.87 1147.40 -161.70 -172.67 -181.64 -174.21 -167.11 -154.51 -149.32 -147.23 -137.15 -134.80 -130.21 -125.07 -130.55 -323.95 -328.36 -322.73 -330.93 -334.71 -334.87 -339.30 -333.88 -327.73 -329.43 -343.59 -350.06 -352.88 -568.88 -569.57 -553.07 -547.95 -558.58 -561.31 -548.90 -555.37 -557.25 -565.46 -564.98 -569.85 -564.56 -668.24 -669.53 -673.60 -677.54 -680.24 -676.00 -678.76 -676.44 -675.53 -681.13 -680.96 -680.97 -683.37 -1193.06 -1188.93 -1190.34 -1184.37 -1187.68 -1188.86 -1192.42 -1189.87 -1191.76 -1189.76 -1197.36 -1188.86 -1206.22 -1992.06 -1996.15 -2183.71 -2259.12 -2369.90 -2543.37 -2635.84 -2781.35 -3073.69 -3168.20 -3266.58 -3330.59 -3445.06 -1726.67 -1763.00 -1764.93 -3384.79 -3436.03 -3449.38 -3484.09 -3489.71 -3511.16 -3546.00 -3569.98 -3627.30 -3654.76 -3666.50 -3679.64 -3700.12 -3714.53 -3712.13 -3716.94
3301.53 3297.30 3222.40 3062.59 3047.88 3039.87 3056.06 3015.99 3025.06 2997.04 2998.05 2982.67 2973.10 3311.05 3301.99 3282.05 3272.04 3298.27 3325.94 3304.91 3352.66 3365.99 3392.59 3386.60 3392.08 3369.20 1263.73 1250.44 1249.55 1238.55 1219.68 1213.08 1206.03 1188.53 1177.43 1163.09 1146.26 1149.71 1133.06 -170.54 -168.52 -166.07 -176.68 -173.97 -162.28 -144.96 -134.11 -122.09 -120.11 -120.59 -107.91 -124.46 -316.84 -318.75 -314.87 -315.16 -324.41 -323.86 -332.55 -330.54 -325.41 -326.24 -328.22 -343.47 -355.11 -558.95 -560.56 -556.95 -547.28 -544.90 -548.66 -547.41 -549.66 -547.95 -557.35 -564.32 -558.91 -567.50 -666.29 -668.86 -668.89 -672.41 -673.85 -680.80 -672.91 -677.13 -681.65 -681.63 -682.34 -679.99 -682.64 -1188.68 -1190.17 -1194.79 -1197.91 -1191.48 -1193.79 -1190.67 -1188.11 -1192.86 -1183.23 -1190.60 -1197.75 -1208.87 -1994.33 -1995.68 -1997.04 -2106.55 -2287.71 -2349.39 -2547.65 -2789.00 -2884.81 -3095.67 -3226.76 -3270.85 -3321.43 -1543.99 -1652.48 -1739.54 -3334.96 -3365.11 -3342.29 -3402.33 -3430.50 -3481.60 -3479.44 -3525.22 -3611.91 -3628.80 -3626.54 -3657.79 -3666.90 -3686.57 -3690.80 -3687.05
3389.15 3388.86 3348.09 3068.74 3071.63 3085.95 3097.63 3078.70 3030.81 3026.20 3027.92 2997.96 3001.94 3343.61 3327.75 3283.77 3268.14 3296.45 3307.25 3299.64 3302.04 3330.39 3358.54 3376.87 3383.71 3380.05 1296.05 1265.75 1251.69 1237.41 1213.33 1187.26 1180.24 1181.97 1155.28 1150.33 1130.18 1128.57 1135.61 -166.09 -147.05 -159.33 -169.30 -173.82 -165.57 -146.62 -113.80 -111.08 -108.20 -108.77 -107.38 -108.07 -303.55 -309.90 -303.47 -313.67 -307.74 -322.97 -319.76 -325.41 -320.00 -320.73 -329.09 -335.20 -339.23 -550.78 -547.38 -551.94 -541.58 -548.21 -542.91 -547.77 -537.04 -546.67 -549.16 -551.52 -555.03 -560.86 -659.56 -661.28 -668.46 -672.92 -673.66 -673.67 -672.37 -677.81 -677.51 -677.48 -675.83 -675.10 -682.05 -1184.58 -1193.20 -1186.18 -1191.37 -1196.34 -1186.41 -1189.17 -1196.31 -1189.89 -1187.43 -1196.47 -1196.75 -1198.34 -1991.81 -1984.34 -1998.57 -1998.21 -2103.38 -2333.21 -2488.38 -2796.88 -2934.76 -2991.06 -3158.63 -3219.37 -3238.89 -1505.75 -1535.06 -1605.96 -3241.70 -3251.42 -3274.43 -3323.34 -3329.99 -3388.18 -3435.67 -3439.48 -3540.34 -3590.74 -3619.48 -3637.99 -3630.37 -3652.50 -3659.01 -3658.67
3319.70 3321.97 3227.79 3107.62 3082.82 3116.80 3163.48 3153.61 3091.46 3055.60 3032.12 3029.02 3019.32 3339.66 3322.60 3286.69 3270.19 3274.80 3285.53 3279.60 3289.52 3330.47 3342.81 3357.20 3363.44 3383.67 1309.08 1282.60 1255.59 1240.55 1220.18 1194.07 1175.97 1166.41 1156.66 1139.40 1128.32 1140.08 1144.34 -147.51 -147.55 -142.97 -159.00 -164.09 -158.38 -152.69 -110.24 -89.54 -99.73 -95.36 -102.08 -107.18 -307.65 -306.47 -304.06 -317.52 -316.80 -318.25 -322.95 -328.98 -322.28 -318.85 -325.90 -328.41 -329.37 -535.15 -542.94 -538.24 -549.29 -543.97 -547.97 -544.04 -551.43 -541.89 -555.41 -549.32 -558.79 -555.89 -646.56 -656.21 -672.97 -672.63 -669.11 -672.17 -665.06 -672.56 -671.60 -671.07 -681.09 -682.24 -682.41 -1186.83 -1192.50 -1192.08 -1190.99 -1191.58 -1193.12 -1193.98 -1190.81 -1188.87 -1192.52 -1187.36 -1193.12 -1197.73 -1981.91 -1985.86 -1983.40 -1994.53 -2089.45 -2178.88 -2579.57 -2777.65 -2931.63 -2946.79 -3047.86 -3162.72 -3170.25 -1392.58 -1394.38 -1392.10 -3085.69 -3120.59 -3157.09 -3216.42 -3260.35 -3327.46 -3355.19 -3413.92 -3459.49 -3514.75 -3541.56 -3551.84 -3589.41 -3623.39 -3614.20 -3609.09
3322.75 3327.04 3212.25 3085.49 3126.69 3179.79 3210.15 3215.12 3138.99 3110.47 3059.12 3049.81 3043.86 3342.25 3342.65 3317.30 3281.00 3267.44 3262.00 3257.16 3267.72 3291.07 3315.06 3330.83 3360.39 3374.41 1317.65 1289.10 1290.12 1264.48 1234.24 1187.38 1179.87 1169.65 1149.24 1137.94 1128.09 1142.11 1153.63 -131.63 -124.85 -136.17 -152.70 -161.91 -157.99 -135.20 -105.66 -88.36 -97.18 -96.27 -103.82 -105.12 -314.97 -320.84 -312.20 -324.33 -331.34 -334.41 -338.16 -326.61 -324.90 -328.15 -324.12 -329.27 -324.91 -538.10 -530.75 -541.46 -535.77 -545.50 -544.57 -544.88 -541.90 -548.34 -551.43 -564.08 -568.46 -560.55 -666.01 -659.39 -670.88 -667.22 -665.09 -666.25 -674.51 -670.65 -667.71 -673.59 -670.21 -676.61 -671.79 -1183.56 -1189.36 -1193.03 -1190.35 -1189.44 -1192.95 -1189.98 -1195.22 -1192.72 -1190.17 -1189.46 -1193.31 -1195.31 -1974.46 -1982.78 -1979.11 -1978.58 -1989.89 -2131.09 -2312.19 -2666.54 -2778.67 -2878.50 -3019.32 -3089.80 -3083.80 -1332.41 -1322.03 -1369.47 -3005.73 -3041.33 -3103.78 -3111.51 -3131.90 -3219.15 -3310.18 -3338.40 -3367.93 -3384.03 -3439.77 -3506.55 -3515.48 -3565.53 -3568.98 -3566.70
3448.11 3437.91 3294.20 3130.36 3201.94 3255.35 3240.15 3246.31 3198.54 3121.28 3088.32 3079.25 3055.79 3358.07 3332.32 3329.59 3318.73 3303.16 3269.92 3269.55 3251.81 3269.59 3287.85 3321.93 3333.81 3365.03 1295.24 1297.22 1270.70 1256.02 1252.79 1216.98 1186.41 1173.32 1155.95 1141.37 1130.15 1133.87 1149.69 -126.77 -116.03 -121.44 -137.84 -145.74 -145.84 -116.34 -101.90 -91.09 -96.52 -106.98 -110.75 -120.53 -313.03 -322.78 -331.73 -332.91 -341.01 -348.01 -340.75 -333.90 -331.73 -329.32 -334.80 -324.23 -331.76 -535.38 -537.89 -541.45 -534.00 -548.68 -555.86 -555.46 -562.00 -561.09 -561.10 -573.93 -578.99 -574.21 -664.45 -666.39 -671.74 -670.66 -669.47 -674.28 -664.90 -669.66 -674.52 -669.69 -670.11 -673.41 -680.89 -1187.80 -1192.67 -1191.33 -1185.62 -1191.54 -1190.00 -1195.75 -1188.27 -1190.86 -1192.27 -1186.41 -1189.44 -1195.72 -1980.60 -1977.81 -1977.81 -1980.84 -1986.23 -2080.80 -2233.54 -2499.13 -2605.55 -2735.87 -2857.99 -2946.63 -3063.22 -1264.92 -1285.48 -1310.54 -2967.92 -2974.66 -3001.52 -3021.90 -3081.86 -3084.31 -3136.96 -3173.86 -3227.10 -3340.23 -3399.02 -3445.16 -3464.93 -3466.79 -3516.83 -3508.69
3417.42 3418.17 3292.61 3200.97 3191.63 3276.68 3278.69 3285.41 3224.70 3157.09 3104.13 3108.88 3079.43 3345.58 3325.52 3334.68 3325.34 3306.81 3295.91 3276.50 3250.69 3268.34 3259.84 3300.51 3313.32 3333.20 1268.82 1271.57 1272.22 1250.67 1243.76 1221.11 1174.03 1170.57 1154.88 1136.83 1125.09 1133.04 1148.08 -131.56 -108.25 -115.40 -127.27 -130.29 -118.47 -109.37 -99.20 -87.95 -93.14 -104.46 -111.71 -130.21 -326.98 -342.88 -344.29 -342.35 -347.09 -359.68 -351.73 -341.24 -343.17 -339.12 -345.34 -353.32 -357.32 -558.52 -551.96 -545.01 -551.65 -563.62 -572.61 -575.47 -567.55 -561.39 -580.14 -577.09 -577.29 -576.98 -672.21 -676.74 -672.85 -674.26 -667.78 -670.80 -665.30 -667.41 -665.79 -674.36 -675.08 -677.67 -677.39 -1190.91 -1188.93 -1192.75 -1188.32 -1192.97 -1190.23 -1189.71 -1186.19 -1195.92 -1192.85 -1186.47 -1194.70 -1192.84 -1973.83 -1975.85 -1978.54 -1982.05 -1993.01 -1999.00 -2149.26 -2332.26 -2400.90 -2558.48 -2787.33 -2926.90 -3019.63 -1227.60 -1205.68 -1244.89 -2861.30 -2884.25 -2889.78 -2933.42 -2942.98 -2987.36 -3062.15 -3083.62 -3190.71 -3221.12 -3297.79 -3405.19 -3409.56 -3460.44 -3442.27 -3444.94
3456.27 3448.89 3510.69 3208.00 3258.33 3294.80 3346.51 3334.17 3286.52 3170.93 3107.30 3087.05 3062.39 3341.86 3316.70 3307.76 3316.95 3324.13 3312.37 3291.95 3284.23 3258.82 3259.07 3268.26 3304.61 3310.99 1247.45 1269.03 1240.76 1234.93 1216.94 1218.69 1165.56 1136.22 1139.31 1124.46 1136.18 1134.23 1158.51 -135.26 -113.81 -103.18 -110.62 -112.61 -107.53 -100.39 -87.49 -88.29 -91.32 -116.67 -129.69 -143.33 -334.18 -345.98 -337.56 -331.68 -334.94 -351.30 -362.65 -351.46 -344.62 -351.74 -359.94 -363.78 -369.97 -567.55 -566.29 -561.23 -564.12 -571.36 -571.26 -574.30 -581.26 -576.21 -573.53 -578.80 -579.70 -584.82 -674.22 -682.13 -675.84 -677.11 -672.29 -672.72 -674.30 -668.22 -681.11 -677.42 -676.59 -676.19 -682.13 -1187.18 -1192.89 -1188.95 -1184.59 -1188.19 -1184.15 -1191.95 -1190.16 -1189.76 -1186.71 -1189.94 -1187.64 -1193.19 -1977.55 -1976.84 -1970.22 -1978.30 -1986.02 -1991.20 -2025.80 -2233.21 -2348.81 -2595.13 -2793.54 -2956.30 -2978.33 -1154.13 -1155.09 -1169.24 -2793.51 -2775.64 -2779.07 -2840.16 -2819.01 -2865.70 -2934.04 -2981.29 -3103.23 -3137.01 -3185.62 -3250.18 -3317.80 -3356.75 -3377.67 -3376.58
3704.80 3703.70 3498.28 3347.80 3303.29 3355.74 3388.15 3376.61 3321.87 3222.17 3126.15 3107.47 3033.96 3325.59 3307.90 3296.08 3296.26 3303.94 3309.73 3303.03 3276.44 3254.19 3246.20 3255.10 3269.57 3297.30 1238.92 1242.20 1209.36 1209.11 1192.57 1157.84 1147.82 1127.68 1134.51 1131.57 1142.81 1150.09 1166.04 -127.30 -114.88 -97.46 -102.04 -87.81 -82.25 -82.66 -86.60 -88.88 -101.96 -111.72 -126.43 -134.27 -336.04 -333.92 -322.27 -329.95 -343.20 -347.25 -358.05 -357.68 -358.39 -358.31 -357.67 -359.70 -378.40 -577.79 -570.32 -555.82 -564.67 -566.81 -577.59 -573.21 -578.02 -575.27 -581.30 -583.13 -577.97 -585.50 -677.13 -685.57 -686.56 -681.59 -680.53 -682.47 -683.87 -679.24 -676.03 -681.34 -682.50 -688.27 -682.20 -1193.24 -1188.81 -1189.75 -1183.52 -1189.23 -1186.81 -1187.03 -1193.42 -1194.93 -1191.06 -1189.62 -1186.99 -1193.07 -1976.43 -1970.70 -1976.18 -1977.07 -1980.66 -1991.32 -2104.12 -2201.66 -2434.81 -2635.36 -2825.58 -2940.97 -2933.98 -1141.29 -1110.12 -1085.80 -2700.98 -2731.65 -2688.17 -2719.56 -2783.10 -2783.90 -2795.98 -2904.09 -2956.02 -3016.07 -3107.68 -3136.52 -3219.35 -3306.88 -3297.14 -3290.63
1726.74 1726.00 1625.78 1394.33 1350.20 1380.38 1403.63 1391.24 1325.51 1204.95 1135.60 1057.58 988.54 62.11 41.41 17.70 21.26 22.60 17.27 8.22 9.12 -7.01 -17.60 -16.95 0.67 19.94 718.24 716.44 704.28 680.05 663.93 648.93 642.24 644.67 640.49 643.97 665.12 677.51 689.95 722.70 754.09 774.03 766.50 769.81 780.27 773.23 768.83 764.22 753.67 739.71 722.46 712.62 -172.59 -163.84 -158.89 -172.94 -179.92 -196.74 -195.11 -191.70 -201.22 -197.92 -192.04 -202.29 -214.17 -259.97 -257.41 -259.16 -250.17 -254.10 -249.72 -261.87 -264.08 -257.91 -257.47 -251.20 -252.42 -261.25 -766.67 -759.47 -761.36 -765.64 -766.30 -758.51 -764.71 -765.13 -765.55 -762.25 -765.65 -765.65 -764.45 -1203.28 -1201.65 -1202.19 -1195.09 -1191.65 -1194.00 -1194.96 -1198.12 -1198.11 -1198.33 -1193.26 -1194.96 -1194.54 -1652.77 -1655.53 -1654.17 -1656.44 -1658.62 -1674.45 -1809.98 -1953.35 -2190.46 -2336.20 -2498.27 -2573.73 -2585.33 -1099.31 -1056.35 -1049.39 -2647.28 -2638.19 -2652.45 -2657.93 -2653.23 -2640.44 -2640.96 -2727.31 -2812.40 -2861.34 -2954.94 -3075.99 -3079.41 -3212.44 -3211.40 -3210.74
1901.39 1899.00 1699.42 1435.69 1433.93 1470.59 1437.40 1375.56 1279.14 1241.65 1123.27 1045.57 986.00 53.50 45.12 30.01 16.20 7.77 -2.17 -5.36 -8.45 -27.86 -34.35 -22.69 -5.36 -0.94 710.24 703.58 689.75 672.38 660.06 638.88 645.11 651.78 656.61 664.18 673.77 692.43 713.07 769.55 761.95 778.44 775.79 779.74 781.89 779.39 763.71 764.04 758.54 742.21 719.28 722.83 -169.18 -155.51 -153.58 -164.55 -177.04 -175.98 -188.31 -180.80 -198.51 -197.27 -185.18 -190.88 -206.43 -256.22 -259.09 -261.45 -264.97 -260.06 -254.48 -261.11 -257.46 -255.82 -250.52 -250.81 -247.93 -262.57 -752.12 -760.53 -758.74 -764.23 -764.46 -761.12 -757.12 -756.52 -762.82 -750.87 -763.82 -766.44 -766.34 -1193.75 -1198.25 -1197.53 -1194.73 -1189.61 -1196.03 -1197.43 -1195.70 -1200.43 -1198.49 -1197.79 -1197.03 -1196.65 -1653.70 -1657.00 -1653.59 -1656.59 -1665.59 -1668.59 -1791.06 -2031.33 -2262.32 -2300.62 -2451.68 -2489.98 -2552.74 -1055.65 -1040.97 -1029.10 -2648.06 -2608.08 -2587.84 -2579.85 -2583.81 -2612.39 -2621.11 -2614.76 -2657.53 -2775.70 -2891.21 -2956.25 -3019.17 -3045.82 -3126.66 -3123.89
1885.83 1890.30 1674.12 1563.17 1509.40 1501.26 1450.68 1359.64 1306.17 1169.14 1104.10 1017.12 1017.63 66.34 40.65 38.98 20.03 16.35 -7.76 -14.69 -22.11 -18.40 -26.01 -35.56 -33.18 -23.81 689.55 681.75 678.55 656.20 652.50 649.90 658.37 666.01 658.78 700.89 699.03 725.12 739.75 785.25 785.03 794.76 781.00 779.26 781.90 777.37 762.00 752.61 746.15 741.34 732.57 715.95 -160.38 -160.46 -154.25 -163.99 -171.24 -167.03 -160.10 -174.27 -184.12 -188.50 -182.47 -184.81 -200.08 -252.57 -243.80 -250.61 -257.07 -259.32 -270.28 -261.47 -253.63 -248.51 -243.07 -247.45 -241.42 -240.36 -749.16 -749.52 -750.72 -760.17 -755.04 -755.95 -762.32 -762.86 -759.57 -759.71 -759.29 -760.80 -765.40 -1195.25 -1196.19 -1193.80 -1199.65 -1185.81 -1193.79 -1189.36 -1196.16 -1199.58 -1190.36 -1204.98 -1197.07 -1202.40 -1651.85 -1660.55 -1654.67 -1658.76 -1663.63 -1678.38 -1679.30 -1994.23 -2222.17 -2277.48 -2387.32 -2514.90 -2527.91 -1047.17 -1021.60 -994.44 -2598.82 -2593.11 -2543.61 -2549.95 -2507.65 -2525.55 -2530.72 -2553.81 -2619.37 -2645.93 -2737.94 -2939.51 -2940.54 -3038.75 -3048.19 -3046.03
1791.12 1790.63 1802.71 1463.49 1488.69 1430.75 1320.10 1297.47 1260.49 1230.16 1109.44 1101.93 1041.62 129.99 91.63 64.18 50.24 22.45 8.77 -4.83 -2.52 -20.74 -28.81 -29.27 -36.32 -28.74 669.60 666.62 660.86 652.04 645.79 648.49 672.10 694.11 709.59 729.29 712.50 740.76 765.67 818.42 800.98 782.97 781.58 775.59 771.02 762.95 740.16 740.24 740.51 742.08 737.19 727.90 -162.09 -146.95 -150.28 -148.26 -158.70 -163.51 -155.53 -164.80 -172.54 -181.75 -179.23 -174.84 -180.54 -227.80 -238.24 -245.38 -248.67 -259.64 -266.39 -259.37 -255.06 -243.50 -245.77 -239.04 -228.37 -236.60 -739.80 -742.66 -751.30 -750.64 -753.37 -760.06 -751.73 -760.78 -760.04 -760.94 -756.79 -762.58 -762.64 -1197.62 -1191.67 -1198.58 -1191.04 -1194.04 -1195.75 -1195.10 -1205.92 -1194.28 -1198.80 -1195.98 -1192.25 -1199.43 -1659.45 -1655.26 -1653.87 -1661.81 -1668.34 -1676.02 -1696.68 -2059.04 -2287.33 -2306.07 -2369.79 -2495.93 -2509.24 -1013.45 -999.58 -979.53 -2548.14 -2510.46 -2484.88 -2492.26 -2466.67 -2456.81 -2463.00 -2463.73 -2536.76 -2567.96 -2636.96 -2750.33 -2849.02 -2923.97 -2976.70 -2972.80
1733.08 1735.64 1599.07 1437.75 1373.86 1338.39 1221.57 1259.04 1314.07 1318.20 1251.89 1134.99 1119.34 156.93 135.43 102.69 90.31 49.30 31.74 16.53 -4.43 -2.20 -3.21 -33.10 -37.42 -37.58 652.34 657.85 647.46 649.32 651.32 661.90 678.55 706.76 710.95 748.84 746.37 759.64 770.86 815.58 791.22 780.38 774.50 773.80 764.03 745.67 741.36 740.86 736.96 743.51 744.59 741.52 -154.42 -146.70 -133.09 -142.51 -147.97 -151.88 -143.43 -154.95 -167.56 -172.31 -183.01 -176.95 -179.52 -226.60 -224.73 -235.32 -243.84 -256.41 -262.14 -259.55 -247.72 -250.02 -232.54 -234.45 -232.77 -238.20 -737.20 -738.41 -742.96 -748.82 -757.42 -754.73 -758.86 -768.51 -761.70 -765.45 -759.54 -759.13 -762.55 -1195.42 -1202.76 -1193.77 -1192.44 -1199.47 -1200.60 -1198.33 -1201.06 -1198.25 -1199.73 -1198.18 -1199.63 -1196.99 -1654.16 -1664.19 -1658.85 -1665.63 -1675.31 -1683.74 -1710.88 -1946.14 -2194.79 -2305.27 -2418.63 -2473.46 -2483.60 -1001.91 -999.30 -934.70 -2519.99 -2500.12 -2475.15 -2428.80 -2416.97 -2421.04 -2422.79 -2447.78 -2484.40 -2499.04 -2530.45 -2644.27 -2763.77 -2880.07 -2909.21 -2914.06
1721.72 1728.39 1546.60 1376.32 1255.22 1192.96 1215.36 1235.40 1316.57 1316.69 1252.81 1177.74 1139.62 169.82 129.61 108.83 111.00 93.63 76.01 36.74 22.28 22.43 14.31 -5.21 -27.72 -37.39 660.77 652.31 658.19 648.46 652.61 663.07 686.15 697.68 736.65 756.16 781.07 785.42 783.44 809.07 783.57 776.95 776.07 759.44 752.19 745.91 743.96 743.13 744.36 755.33 755.88 749.90 -159.71 -145.62 -137.95 -137.40 -141.77 -146.96 -153.51 -157.56 -161.55 -174.79 -180.14 -181.69 -186.02 -228.84 -227.79 -240.83 -252.69 -260.70 -263.91 -246.32 -231.27 -235.00 -228.52 -227.35 -230.13 -234.64 -734.01 -738.03 -735.18 -751.92 -754.23 -767.39 -763.56 -763.04 -764.79 -762.20 -764.54 -765.07 -759.97 -1196.89 -1201.09 -1195.39 -1193.57 -1194.53 -1200.54 -1190.78 -1199.41 -1196.65 -1197.29 -1199.87 -1196.38 -1203.39 -1654.91 -1665.55 -1667.02 -1671.60 -1670.47 -1704.54 -1733.86 -1863.74 -2105.72 -2347.12 -2427.49 -2440.73 -2474.31 -975.12 -956.66 -910.44 -2499.46 -2481.20 -2432.68 -2392.06 -2367.40 -2360.55 -2376.30 -2380.79 -2425.85 -2448.88 -2515.66 -2602.03 -2666.01 -2866.49 -2862.55 -2861.07
1538.58 1543.15 1581.57 1260.04 1242.26 1182.79 1148.87 1200.11 1281.25 1285.32 1229.20 1217.12 1197.56 220.52 191.25 141.55 154.61 136.49 98.40 73.99 59.90 57.37 21.52 -2.23 -16.70 -10.20 668.87 658.63 664.36 665.27 667.22 676.84 701.00 702.97 736.48 771.10 792.73 785.04 780.99 803.64 781.79 769.16 766.55 759.77 750.98 748.41 756.42 757.19 768.47 767.98 760.36 753.50 -147.66 -146.45 -134.28 -131.79 -146.57 -151.41 -149.31 -164.61 -174.86 -177.13 -197.59 -199.43 -198.27 -242.83 -245.63 -242.24 -250.60 -249.12 -249.74 -247.08 -233.86 -228.56 -230.73 -222.28 -227.68 -232.06 -727.48 -743.15 -743.79 -752.84 -749.93 -758.68 -762.95 -766.32 -763.71 -765.05 -760.07 -766.75 -763.64 -1191.21 -1200.06 -1199.76 -1202.01 -1196.45 -1204.62 -1199.53 -1202.77 -1199.04 -1195.68 -1190.67 -1199.54 -1204.54 -1648.90 -1656.13 -1662.24 -1675.12 -1669.85 -1704.12 -1733.28 -1900.31 -2011.70 -2236.20 -2382.44 -2412.01 -2435.37 -962.12 -941.12 -898.24 -2475.98 -2461.30 -2427.46 -2376.58 -2353.90 -2348.09 -2343.95 -2332.40 -2364.60 -2408.53 -2479.70 -2574.86 -2660.20 -2757.64 -2816.62 -2816.49
1486.31 1489.46 1349.81 1265.05 1203.60 1149.91 1125.39 1184.70 1221.63 1208.68 1201.08 1210.41 1221.84 252.58 209.56 158.31 164.49 158.11 97.60 71.86 60.33 25.56 13.14 -16.77 -3.72 1.55 685.89 690.23 684.26 679.60 683.31 686.41 705.56 712.07 745.10 777.64 785.31 787.73 772.21 789.03 773.59 766.65 759.96 750.81 749.70 758.29 771.54 779.71 781.70 779.03 774.01 758.46 -143.65 -131.50 -135.41 -137.04 -149.23 -158.11 -165.40 -175.58 -179.35 -193.59 -194.14 -195.17 -199.88 -236.60 -244.06 -245.94 -236.82 -241.46 -241.71 -231.71 -238.04 -229.46 -221.22 -226.49 -235.81 -236.91 -742.05 -746.76 -751.98 -750.97 -762.11 -763.43 -761.84 -760.30 -761.69 -760.77 -758.76 -763.91 -763.50 -1198.10 -1197.07 -1200.44 -1196.16 -1199.26 -1193.18 -1196.86 -1195.55 -1196.53 -1197.88 -1193.67 -1205.67 -1204.79 -1659.14 -1657.70 -1650.29 -1667.39 -1668.25 -1694.30 -1790.66 -1835.95 -2017.39 -2198.69 -2370.40 -2394.28 -2424.93 -955.48 -910.41 -875.68 -2444.60 -2427.14 -2370.05 -2323.29 -2325.44 -2301.15 -2304.78 -2329.66 -2366.32 -2401.52 -2422.45 -2546.86 -2598.97 -2732.56 -2777.35 -2773.67
1476.48 1474.09 1354.61 1226.31 1157.92 1104.02 1123.24 1165.39 1192.52 1180.35 1154.26 1178.91 1196.14 288.86 254.14 200.69 171.84 148.45 81.73 32.11 30.21 8.30 2.43 -1.75 17.26 32.88 703.39 690.34 696.58 704.89 697.66 699.29 712.13 727.59 745.81 771.32 788.59 781.42 761.34 781.73 772.48 769.02 759.55 753.25 760.33 768.59 777.44 788.11 805.08 788.66 782.43 770.22 -128.52 -129.34 -139.68 -143.86 -153.34 -157.57 -166.18 -182.78 -186.83 -184.52 -179.25 -182.52 -184.38 -235.22 -242.14 -243.25 -229.32 -237.01 -228.10 -238.33 -232.91 -230.78 -229.55 -232.42 -237.05 -242.92 -747.85 -750.08 -757.27 -753.40 -763.28 -767.20 -766.65 -757.26 -757.17 -755.72 -750.08 -752.72 -760.87 -1197.64 -1204.39 -1192.92 -1197.49 -1198.76 -1188.41 -1193.77 -1194.65 -1194.02 -1199.87 -1201.72 -1200.99 -1199.23 -1652.84 -1654.84 -1659.07 -1666.97 -1669.89 -1679.69 -1769.81 -1920.34 -2041.09 -2127.56 -2328.59 -2357.37 -2393.35 -912.32 -875.35 -832.62 -2417.27 -2403.32 -2334.65 -2322.37 -2285.38 -2287.62 -2286.86 -2289.35 -2334.20 -2357.16 -2399.84 -2489.37 -2522.25 -2734.95 -2731.27 -2734.03
1528.66 1533.47 1402.95 1242.18 1168.33 1098.99 1091.78 1107.19 1133.74 1126.96 1127.50 1140.36 1184.98 275.08 248.46 190.81 184.54 154.51 85.92 16.38 20.31 15.37 21.39 13.63 25.45 21.12 717.31 703.83 717.99 729.84 734.30 728.76 716.39 738.44 760.92 783.19 791.16 781.62 767.53 787.73 774.46 762.78 763.51 767.44 777.60 777.40 790.93 811.24 807.39 800.27 783.24 780.57 -119.88 -126.46 -134.51 -147.86 -153.42 -175.35 -176.46 -174.11 -180.20 -172.07 -172.73 -164.53 -179.44 -227.92 -226.11 -226.37 -215.57 -228.68 -232.80 -234.04 -237.68 -228.48 -236.10 -226.65 -239.65 -248.87 -754.94 -754.62 -752.65 -764.64 -765.84 -762.23 -763.54 -761.07 -751.21 -744.76 -741.70 -756.43 -762.11 -1199.91 -1198.74 -1197.68 -1188.84 -1182.97 -1185.28 -1193.29 -1194.57 -1191.06 -1198.45 -1195.64 -1199.93 -1202.53 -1651.92 -1652.94 -1659.21 -1656.28 -1671.34 -1681.38 -1743.84 -1894.93 -1964.34 -2097.96 -2224.88 -2253.62 -2317.21 -882.60 -858.58 -795.26 -2386.56 -2340.05 -2294.42 -2241.20 -2250.47 -2256.96 -2250.04 -2254.10 -2291.71 -2312.14 -2369.59 -2409.64 -2499.45 -2585.30 -2678.81 -2680.24
1490.57 1493.54 1377.18 1243.79 1208.80 1117.56 1061.84 1064.29 1044.96 1068.41 1108.08 1147.47 1186.90 279.41 246.11 189.27 155.13 99.99 63.08 38.95 42.82 29.53 53.21 42.85 60.44 36.00 725.87 710.29 724.14 747.01 761.06 759.83 745.35 756.60 781.14 800.09 790.98 774.57 770.09 779.20 779.22 775.40 777.26 777.61 783.45 795.55 802.57 825.11 824.58 818.62 804.73 787.84 -123.67 -127.24 -132.68 -145.83 -139.61 -149.44 -165.95 -173.15 -167.08 -171.02 -157.28 -167.42 -167.31 -213.99 -216.33 -220.29 -224.17 -224.18 -235.26 -248.05 -243.54 -251.39 -240.62 -241.04 -242.43 -244.74 -754.64 -760.87 -758.21 -757.58 -764.28 -763.02 -767.87 -760.60 -744.59 -735.58 -742.39 -750.12 -761.40 -1188.73 -1191.00 -1186.80 -1184.93 -1185.44 -1182.17 -1190.49 -1190.36 -1197.38 -1197.95 -1198.27 -1199.10 -1194.91 -1651.34 -1656.00 -1652.31 -1655.82 -1664.95 -1680.17 -1688.27 -1773.50 -1835.60 -2026.23 -2074.93 -2151.24 -2246.29 -773.83 -773.37 -780.69 -2336.87 -2310.67 -2257.35 -2238.83 -2203.27 -2220.64 -2223.62 -2244.24 -2269.55 -2311.68 -2321.49 -2357.40 -2449.22 -2579.62 -2613.59 -2616.78
1449.14 1448.82 1362.50 1239.93 1217.23 1136.83 1068.54 1052.32 1040.90 1067.47 1102.92 1168.11 1185.06 284.04 276.75 210.27 147.23 94.05 98.66 68.61 68.92 56.52 70.87 74.16 67.65 61.11 742.17 728.08 737.46 741.27 769.38 770.19 768.61 785.01 811.67 814.44 802.64 783.01 775.29 796.04 793.01 785.89 783.95 799.88 807.76 801.28 814.48 833.07 846.16 820.71 807.17 781.50 -120.16 -131.68 -127.64 -145.21 -137.25 -147.58 -163.47 -168.15 -166.15 -159.51 -159.22 -162.65 -162.93 -214.58 -213.15 -219.31 -228.40 -225.35 -243.36 -249.17 -253.79 -246.70 -247.27 -247.91 -244.34 -248.49 -748.89 -761.75 -759.83 -763.48 -752.91 -752.24 -758.08 -751.71 -747.39 -738.62 -741.25 -742.77 -751.46 -1188.71 -1184.45 -1184.35 -1186.19 -1186.28 -1186.27 -1188.54 -1193.57 -1185.89 -1201.42 -1200.76 -1192.65 -1196.91 -1650.95 -1649.54 -1654.10 -1656.08 -1664.66 -1668.86 -1677.92 -1681.97 -1690.31 -1779.41 -1836.60 -1881.14 -2040.28 -706.06 -734.30 -718.94 -2299.47 -2243.40 -2217.04 -2198.31 -2192.67 -2170.45 -2184.84 -2202.61 -2200.51 -2239.76 -2268.93 -2324.68 -2342.81 -2546.73 -2543.44 -2539.22
4134.08 4129.62 4039.68 3904.16 3849.85 3837.74 3789.03 3745.30 3727.04 3763.10 3786.61 3857.68 3911.49 3342.82 3328.94 3291.99 3222.11 3171.35 3142.77 3128.92 3116.99 3118.00 3122.43 3149.57 3141.93 3124.30 788.63 761.34 761.80 780.98 798.36 817.02 817.96 844.77 856.10 852.34 830.88 824.52 803.13 835.79 823.52 809.78 809.16 828.94 846.32 847.98 855.62 863.07 865.91 847.58 806.13 788.09 137.66 128.03 115.56 124.23 121.01 115.38 98.85 84.09 79.22 95.57 101.80 100.56 93.01 -55.06 -56.59 -61.46 -58.57 -71.56 -84.02 -89.63 -93.57 -94.42 -91.46 -89.18 -97.61 -101.99 -288.71 -293.88 -279.17 -279.80 -281.13 -280.07 -275.26 -275.67 -264.18 -266.51 -268.03 -266.01 -271.18 -255.76 -257.73 -262.08 -264.31 -261.38 -265.59 -268.13 -274.42 -278.91 -278.91 -274.43 -277.90 -280.61 -273.55 -275.19 -275.39 -279.25 -282.17 -273.09 -289.56 -288.74 -297.71 -305.67 -316.55 -412.59 -479.84 -578.85 -667.37 -673.72 -1872.15 -1843.45 -1805.16 -1773.20 -1771.60 -1766.39 -1768.97 -1793.65 -1778.07 -1817.77 -1836.45 -1902.53 -1966.45 -2046.62 -2103.05 -2105.09
4053.10 4054.01 4051.63 3893.59 3821.38 3801.19 3761.48 3743.24 3724.52 3754.00 3799.39 3858.08 3874.50 3342.29 3319.50 3297.53 3263.39 3222.51 3208.67 3166.35 3155.18 3158.18 3151.53 3165.63 3179.66 3160.71 809.12 773.43 770.76 786.78 812.21 848.47 856.25 868.32 879.91 856.81 832.56 817.09 822.61 845.55 836.25 821.23 826.61 851.59 861.91 855.47 865.94 865.95 858.86 817.90 787.41 778.44 124.37 115.84 104.00 105.72 111.41 108.47 99.80 77.37 74.68 74.23 80.21 91.34 83.88 -70.11 -69.66 -62.10 -66.06 -67.95 -82.49 -92.88 -91.37 -95.22 -100.93 -95.55 -101.62 -101.12 -283.71 -278.98 -276.97 -272.25 -271.59 -272.05 -265.76 -266.01 -266.78 -264.98 -257.85 -270.19 -273.45 -260.87 -258.22 -263.94 -267.08 -264.67 -268.44 -277.49 -268.70 -270.60 -275.72 -268.95 -280.37 -274.30 -272.08 -270.36 -269.45 -270.06 -277.95 -282.00 -274.98 -278.79 -278.94 -287.95 -317.92 -334.51 -439.13 -377.71 -635.39 -597.06 -1844.44 -1773.44 -1748.84 -1738.63 -1723.52 -1715.69 -1734.82 -1732.92 -1757.31 -1754.46 -1807.85 -1864.58 -1899.93 -2011.43 -2033.02 -2026.55
3960.42 3957.20 3975.89 3816.24 3786.65 3782.16 3751.73 3711.05 3718.29 3746.63 3792.12 3832.41 3870.40 3294.13 3304.26 3298.10 3284.25 3264.46 3235.90 3206.74 3218.61 3231.09 3210.57 3206.32 3178.46 3172.74 829.74 808.28 782.52 801.07 852.37 889.58 896.25 891.35 870.21 834.00 817.13 810.02 830.66 866.89 848.98 851.25 849.79 853.44 853.61 845.06 850.02 842.89 833.47 809.34 778.20 775.86 106.05 105.78 95.59 102.16 111.90 111.19 92.39 76.91 67.86 70.19 81.18 77.90 66.99 -88.00 -84.79 -81.17 -70.71 -75.97 -85.13 -93.04 -91.50 -86.54 -92.82 -93.80 -95.66 -91.86 -288.73 -283.31 -265.07 -267.17 -262.75 -261.26 -257.83 -260.86 -255.10 -260.70 -258.21 -264.17 -266.98 -256.09 -260.52 -260.04 -267.49 -267.16 -273.83 -273.41 -272.93 -272.37 -279.65 -274.01 -270.95 -280.87 -275.87 -274.24 -277.44 -274.14 -276.07 -279.33 -277.66 -274.84 -278.89 -278.14 -299.97 -317.02 -335.21 -316.18 -421.40 -508.64 -1768.48 -1754.45 -1735.41 -1699.85 -1709.16 -1695.81 -1687.54 -1692.92 -1714.88 -1727.47 -1747.05 -1775.90 -1831.74 -1884.21 -1955.62 -1957.65
3925.63 3930.99 3861.28 3778.13 3764.68 3762.46 3736.79 3718.19 3712.61 3728.56 3780.12 3812.97 3836.18 3280.19 3294.49 3305.47 3289.92 3276.11 3303.88 3307.31 3309.58 3266.16 3266.71 3234.79 3208.87 3206.18 871.71 843.76 858.69 873.89 928.96 924.33 918.44 888.34 855.67 807.89 798.18 809.21 820.75 856.86 844.04 841.45 842.72 835.99 845.20 837.62 827.71 806.03 801.04 786.35 776.81 761.52 110.24 98.52 89.56 99.56 90.22 86.28 84.58 72.96 69.79 68.78 63.40 64.77 54.95 -88.84 -93.41 -89.46 -87.14 -81.88 -87.38 -91.16 -87.82 -85.03 -84.95 -81.84 -89.26 -93.68 -283.39 -273.12 -265.20 -260.47 -252.99 -249.30 -257.55 -256.06 -258.33 -256.14 -258.26 -261.71 -266.74 -252.39 -264.73 -264.57 -269.10 -275.81 -269.50 -270.59 -273.75 -275.93 -280.70 -273.66 -273.03 -281.50 -270.57 -279.02 -278.47 -275.30 -280.27 -276.00 -278.39 -275.61 -275.60 -271.86 -272.68 -300.28 -330.58 -312.29 -371.21 -501.45 -1734.95 -1707.29 -1686.40 -1679.96 -1674.32 -1670.71 -1677.65 -1675.62 -1699.83 -1717.39 -1722.55 -1765.09 -1810.69 -1884.46 -1890.69 -1888.42
3924.95 3930.14 3862.07 3770.99 3750.07 3735.51 3723.94 3712.80 3699.48 3721.65 3755.82 3814.12 3827.75 3261.35 3252.40 3261.15 3289.46 3315.61 3337.43 3356.48 3328.96 3270.57 3267.31 3249.12 3237.54 3239.43 913.01 895.31 891.42 952.58 944.60 941.09 896.41 881.96 830.97 786.93 777.40 784.99 812.80 842.35 829.70 825.38 809.56 825.64 828.27 832.12 811.19 791.38 774.53 772.99 768.32 759.59 103.56 100.03 92.36 80.31 72.33 72.99 65.18 69.78 66.30 69.33 70.40 59.28 52.49 -86.05 -99.02 -92.77 -89.36 -90.64 -92.15 -86.09 -85.77 -70.29 -69.00 -73.59 -80.80 -75.81 -270.83 -266.23 -260.48 -255.60 -257.09 -252.75 -249.57 -250.55 -255.07 -261.19 -267.65 -270.71 -269.60 -259.26 -260.26 -269.75 -268.95 -269.31 -269.49 -265.67 -270.02 -270.35 -278.62 -283.40 -279.20 -276.70 -270.96 -276.15 -271.51 -276.41 -277.11 -272.40 -278.00 -279.15 -278.45 -273.29 -275.79 -290.58 -317.22 -231.70 -362.24 -405.74 -1707.49 -1674.03 -1663.22 -1639.36 -1647.22 -1645.85 -1658.94 -1674.23 -1678.38 -1694.55 -1710.18 -1753.52 -1778.20 -1827.98 -1846.95 -1843.63
3915.63 3911.72 3839.85 3738.13 3739.02 3706.41 3699.65 3698.78 3706.70 3734.35 3745.46 3788.15 3799.26 3220.08 3227.20 3224.02 3293.40 3332.58 3342.70 3354.30 3318.67 3289.99 3270.86 3230.65 3222.08 3244.43 918.53 923.37 944.01 963.49 979.13 928.62 858.03 843.89 801.61 767.71 762.78 764.42 760.87 806.75 792.20 796.93 782.52 798.85 806.80 801.77 789.08 763.98 758.14 751.67 752.72 747.71 106.41 97.38 90.23 79.94 80.11 70.43 62.46 71.19 78.76 65.85 62.68 52.63 63.56 -74.99 -80.04 -88.76 -80.43 -74.26 -75.52 -80.64 -72.13 -64.02 -64.96 -61.16 -73.66 -63.78 -255.75 -260.90 -257.23 -254.00 -256.30 -254.88 -255.59 -262.25 -262.42 -264.38 -268.20 -275.48 -274.74 -270.75 -267.36 -267.51 -268.19 -264.19 -268.74 -272.18 -266.67 -275.14 -275.22 -276.37 -279.32 -278.27 -274.03 -267.89 -272.27 -269.99 -277.75 -274.32 -275.79 -270.40 -274.03 -277.53 -271.80 -286.26 -299.53 -232.87 -278.66 -330.76 -1672.14 -1635.24 -1630.69 -1619.35 -1616.40 -1620.76 -1627.83 -1657.45 -1665.38 -1686.43 -1707.92 -1733.73 -1752.27 -1787.67 -1811.43 -1810.43
3916.36 3920.97 3852.74 3735.16 3703.51 3702.58 3697.92 3685.25 3695.73 3722.56 3732.61 3746.64 3740.97 3188.19 3190.21 3223.95 3248.35 3314.94 3325.65 3308.41 3286.80 3266.48 3231.30 3213.04 3194.26 3209.85 913.93 918.00 935.80 968.21 981.31 963.55 912.01 825.51 802.31 766.82 757.35 747.42 759.92 794.22 792.71 781.45 783.18 781.80 793.95 776.46 765.79 763.66 749.63 743.10 741.78 744.80 103.30 90.97 80.22 88.10 84.61 80.99 73.93 82.10 81.03 74.66 70.62 65.56 67.80 -62.57 -77.50 -81.38 -67.10 -62.22 -65.18 -59.56 -53.81 -56.27 -57.26 -56.25 -55.91 -63.78 -250.36 -252.24 -259.13 -253.26 -257.98 -253.77 -257.40 -262.27 -265.87 -266.34 -273.92 -277.92 -286.34 -267.40 -269.59 -271.90 -264.17 -265.23 -272.43 -266.19 -270.47 -276.00 -274.45 -276.17 -282.07 -274.70 -273.67 -267.64 -275.29 -275.78 -275.16 -278.45 -276.56 -277.42 -281.82 -268.77 -278.70 -279.86 -297.56 -221.07 -276.57 -319.75 -1616.46 -1607.55 -1583.38 -1585.87 -1597.93 -1606.65 -1629.17 -1638.18 -1660.89 -1680.75 -1711.27 -1734.54 -1762.64 -1818.92 -1800.20 -1799.99
3976.48 3972.31 3859.35 3735.70 3725.56 3712.21 3714.80 3713.85 3701.58 3683.59 3696.29 3707.03 3716.00 3143.95 3173.77 3200.88 3234.70 3251.04 3236.90 3224.24 3212.95 3211.88 3184.30 3168.73 3157.34 3192.45 885.32 906.23 924.65 945.18 985.16 954.17 885.62 828.64 805.62 770.96 760.76 750.00 748.75 779.03 770.51 760.56 763.74 769.68 771.23 767.30 753.82 743.61 748.86 740.51 741.86 744.13 89.43 83.81 87.01 98.83 106.75 103.12 92.35 81.29 98.01 85.99 78.88 89.80 86.13 -68.68 -74.09 -72.18 -65.48 -60.87 -43.71 -54.83 -54.37 -59.35 -52.28 -56.57 -59.16 -62.86 -251.35 -256.61 -253.20 -256.85 -259.53 -263.82 -263.52 -268.90 -267.32 -269.48 -277.81 -283.21 -288.08 -274.27 -269.82 -268.09 -269.63 -268.47 -267.03 -268.80 -279.63 -279.28 -284.27 -276.83 -277.86 -278.90 -271.65 -276.14 -277.91 -274.30 -275.28 -278.96 -276.73 -278.19 -272.83 -281.10 -274.53 -275.24 -279.09 -215.09 -241.79 -270.97 -1560.78 -1555.31 -1567.37 -1547.80 -1552.35 -1560.51 -1577.13 -1624.20 -1641.85 -1688.79 -1703.09 -1741.75 -1787.85 -1837.73 -1833.56 -1836.62
3937.16 3926.82 3857.97 3741.69 3735.94 3747.05 3762.44 3736.27 3710.12 3697.91 3683.38 3691.47 3689.58 3130.03 3161.49 3177.79 3190.21 3186.09 3189.22 3193.07 3193.79 3182.16 3144.67 3137.40 3140.45 3163.23 876.80 890.79 878.82 914.99 951.56 934.99 890.96 829.80 804.08 781.36 785.63 749.58 750.29 785.47 780.43 767.79 764.56 764.85 754.81 752.33 749.44 743.35 742.03 741.90 739.31 748.79 90.60 88.73 93.14 97.49 112.38 106.25 105.22 98.58 109.32 103.78 102.10 100.16 89.64 -57.08 -64.28 -61.67 -53.29 -44.91 -45.74 -38.23 -46.07 -57.50 -54.60 -53.22 -62.02 -67.27 -252.29 -253.89 -260.25 -255.58 -259.15 -272.17 -273.48 -268.20 -270.72 -268.34 -269.43 -284.71 -289.00 -275.58 -276.09 -268.91 -273.99 -276.95 -279.78 -279.17 -273.95 -280.28 -278.44 -272.82 -277.17 -278.10 -278.01 -274.78 -274.78 -269.11 -280.80 -276.71 -277.38 -275.67 -274.16 -283.43 -277.07 -277.27 -277.25 -193.79 -233.63 -269.33 -1550.98 -1544.49 -1516.26 -1534.87 -1521.82 -1539.44 -1560.04 -1575.28 -1641.49 -1664.92 -1695.65 -1793.84 -1801.32 -1841.94 -1892.03 -1889.01
3966.25 3961.41 3984.04 3801.10 3779.47 3793.51 3779.59 3769.24 3718.40 3694.62 3692.55 3681.83 3687.48 3121.16 3156.89 3161.97 3172.74 3172.41 3164.88 3176.30 3207.29 3193.59 3155.07 3136.02 3120.05 3139.27 844.11 843.10 841.20 885.48 934.92 905.61 905.79 857.45 816.78 824.02 850.49 811.22 789.20 818.05 815.23 799.14 779.19 778.51 767.26 764.07 763.19 757.61 753.64 750.84 769.69 760.97 107.21 93.87 101.77 107.54 114.60 122.37 126.61 117.36 104.51 113.86 116.39 112.30 95.47 -50.04 -57.61 -53.81 -54.48 -38.91 -38.75 -34.25 -40.56 -53.51 -54.69 -58.32 -66.48 -67.94 -264.90 -260.18 -264.21 -266.13 -268.63 -275.71 -282.56 -280.24 -271.99 -264.18 -273.17 -276.73 -292.41 -276.98 -270.39 -272.32 -280.18 -275.54 -277.93 -280.83 -278.42 -273.55 -278.03 -278.02 -279.80 -276.32 -274.30 -271.16 -278.39 -274.82 -274.86 -275.51 -273.54 -275.87 -280.55 -275.31 -276.93 -274.56 -278.31 -188.52 -226.27 -255.03 -1519.51 -1489.39 -1501.71 -1486.07 -1512.54 -1503.13 -1535.85 -1566.98 -1621.14 -1657.59 -1728.64 -1795.79 -1850.37 -1875.78 -1905.27 -1902.29
4034.13 4033.89 4025.62 3843.89 3798.17 3814.64 3806.86 3760.46 3715.80 3703.58 3678.91 3667.32 3672.70 3112.24 3130.25 3126.29 3141.97 3146.38 3160.93 3190.76 3214.30 3219.04 3169.19 3130.48 3119.05 3110.57 815.40 820.91 824.35 870.51 907.53 923.79 899.54 874.62 852.08 852.05 858.95 850.55 835.15 850.53 846.86 819.50 796.82 783.19 774.01 769.54 774.23 769.64 765.62 763.37 774.14 788.71 135.72 131.52 131.16 125.66 129.32 140.79 139.84 124.98 116.26 115.21 131.46 127.62 96.51 -41.64 -33.38 -30.46 -40.42 -30.95 -39.89 -35.84 -46.26 -50.03 -59.57 -69.61 -71.88 -73.73 -266.92 -270.81 -260.21 -271.49 -276.80 -285.54 -282.34 -276.38 -279.40 -275.05 -273.32 -281.48 -287.25 -277.98 -272.75 -273.77 -276.19 -274.08 -275.48 -273.33 -277.55 -271.68 -268.95 -270.96 -274.98 -276.77 -272.74 -272.45 -272.79 -268.15 -272.39 -273.57 -275.80 -281.60 -272.19 -274.57 -273.92 -276.68 -276.07 -183.13 -201.14 -213.17 -1457.80 -1459.88 -1470.47 -1480.03 -1478.30 -1481.01 -1503.97 -1532.71 -1590.81 -1640.30 -1730.66 -1778.03 -1839.42 -1879.24 -1891.11 -1883.22
4068.38 4070.60 3972.47 3857.95 3870.03 3812.47 3799.39 3748.03 3716.94 3689.87 3666.67 3663.74 3663.10 3103.22 3116.18 3114.18 3106.30 3137.10 3154.20 3181.87 3208.48 3209.46 3197.99 3159.47 3127.84 3105.78 801.50 807.71 821.08 863.72 895.73 918.64 913.93 902.65 903.39 901.19 905.83 881.80 856.97 870.64 863.51 831.04 790.92 782.62 786.22 792.88 781.29 780.37 775.44 773.70 785.23 796.07 160.57 156.95 139.52 133.40 146.52 143.05 148.26 138.49 134.73 138.32 137.04 127.47 125.87 -27.91 -31.55 -36.55 -34.19 -40.87 -37.42 -38.72 -46.70 -56.02 -60.98 -70.41 -69.22 -65.59 -269.51 -273.84 -281.25 -276.74 -286.00 -288.02 -286.50 -293.94 -282.33 -284.69 -277.90 -289.66 -290.05 -277.12 -270.68 -270.50 -271.11 -267.31 -269.07 -272.24 -271.83 -275.34 -271.19 -273.89 -270.33 -273.49 -270.90 -269.54 -268.63 -282.29 -277.23 -276.24 -279.48 -274.49 -275.40 -273.38 -277.30 -278.53 -271.57 -170.84 -167.99 -193.41 -1439.62 -1434.44 -1442.79 -1443.68 -1447.80 -1451.23 -1474.54 -1511.40 -1555.22 -1589.12 -1679.45 -1767.97 -1787.35 -1847.39 -1853.62 -1852.93
1185.79 1183.41 1080.08 1046.13 1037.77 975.31 915.02 874.12 834.45 828.01 804.27 789.73 775.42 634.98 625.80 626.37 633.78 655.31 681.28 714.13 717.02 736.67 704.76 689.05 657.65 648.27 397.57 410.76 449.25 477.77 487.89 494.73 485.99 481.85 494.34 513.36 510.23 498.61 489.85 713.26 678.19 644.35 623.75 611.46 610.89 620.48 610.22 600.12 584.20 582.96 591.83 602.55 155.35 157.26 150.91 154.67 148.85 150.78 155.94 151.30 152.57 145.87 145.86 134.31 134.07 -34.94 -32.66 -41.81 -45.34 -44.56 -55.45 -48.31 -61.74 -68.35 -71.62 -82.74 -80.66 -74.09 -246.37 -250.14 -247.52 -262.18 -263.81 -275.02 -271.99 -273.47 -264.18 -267.95 -266.25 -271.46 -269.95 -273.04 -269.01 -265.71 -274.82 -271.45 -275.37 -278.03 -280.73 -280.64 -277.51 -280.17 -278.86 -283.76 -673.31 -665.44 -674.98 -673.29 -675.92 -676.08 -676.16 -673.21 -678.16 -674.02 -671.20 -673.46 -673.24 -177.22 -176.21 -176.17 -690.05 -691.28 -690.15 -691.41 -691.77 -698.45 -718.45 -752.36 -764.89 -799.89 -901.26 -997.90 -1029.79 -1057.63 -1063.20 -1071.48
1236.52 1240.68 1209.92 1083.78 1099.69 1032.47 972.59 910.58 867.73 842.60 823.76 809.31 785.11 639.68 634.55 626.21 619.15 629.67 657.04 688.43 699.53 700.83 687.67 654.05 648.90 641.18 395.41 436.78 442.43 468.67 484.15 471.02 462.41 457.74 466.02 501.00 509.68 504.64 500.88 730.89 713.91 669.18 644.12 625.67 644.41 654.23 642.02 623.32 611.87 611.64 594.81 609.42 154.94 165.26 152.77 144.64 153.68 147.36 146.58 143.31 148.25 153.42 156.11 158.63 141.66 -17.26 -18.56 -37.18 -36.25 -50.21 -46.77 -49.92 -51.71 -58.61 -67.99 -76.53 -78.56 -76.59 -240.98 -242.63 -253.20 -246.42 -260.64 -262.93 -273.96 -275.05 -273.61 -274.47 -275.38 -263.09 -266.81 -265.13 -266.48 -275.48 -282.50 -278.80 -277.86 -280.74 -276.39 -288.27 -282.36 -281.91 -276.88 -280.75 -677.82 -678.30 -680.79 -673.15 -680.93 -676.29 -681.75 -681.83 -675.48 -669.86 -677.48 -681.63 -676.54 -171.73 -174.62 -177.80 -692.38 -691.46 -692.65 -695.66 -689.15 -695.87 -697.81 -724.27 -757.11 -788.88 -882.96 -951.17 -951.78 -1003.77 -1011.59 -1011.03
1348.81 1338.48 1237.79 1135.50 1116.98 1045.92 986.16 933.32 881.78 861.20 858.29 834.00 817.93 651.75 631.81 616.99 621.84 631.28 658.53 663.59 667.02 658.02 669.44 647.79 640.66 628.10 402.03 425.71 440.69 444.38 444.13 446.97 439.97 444.50 459.82 474.23 477.57 486.88 495.83 738.14 728.22 689.84 651.34 649.87 648.21 662.45 658.05 643.59 627.51 633.01 609.97 616.68 165.73 160.27 153.85 144.58 155.11 142.40 144.26 139.12 135.10 151.97 156.13 165.35 152.80 -8.52 -17.30 -30.43 -34.16 -46.72 -48.39 -51.34 -63.24 -56.61 -76.94 -83.99 -83.57 -79.51 -239.56 -244.96 -252.94 -259.03 -257.38 -261.64 -269.86 -269.42 -268.64 -266.97 -263.64 -260.84 -258.92 -264.23 -270.02 -276.91 -279.45 -272.70 -274.21 -277.90 -282.34 -277.89 -281.17 -280.38 -279.26 -276.74 -676.83 -681.00 -672.00 -675.85 -673.00 -681.85 -675.38 -674.85 -678.88 -682.22 -673.80 -672.22 -682.14 -173.97 -169.02 -168.50 -688.42 -692.91 -687.13 -691.36 -691.89 -687.84 -691.78 -707.72 -718.59 -785.58 -816.45 -909.24 -908.20 -947.47 -962.16 -962.36
1315.26 1320.00 1319.42 1146.48 1131.58 1085.41 1004.00 961.55 921.92 892.13 872.34 839.55 820.29 647.91 631.29 618.57 616.24 637.45 646.25 660.48 655.75 643.77 637.99 632.04 628.13 632.58 396.37 437.41 433.75 442.62 433.35 409.38 408.30 437.11 431.84 431.75 434.56 451.35 481.29 731.81 742.98 708.65 684.87 674.20 664.03 668.27 662.86 648.59 649.00 631.67 630.96 614.52 158.14 151.08 142.80 147.17 146.81 140.13 134.83 124.88 120.98 126.25 139.69 149.99 149.07 -9.98 -19.39 -40.57 -40.31 -47.91 -53.63 -58.82 -60.11 -66.71 -77.13 -75.57 -84.61 -88.58 -255.12 -252.62 -248.14 -264.49 -259.40 -260.74 -256.82 -265.13 -270.15 -262.29 -258.09 -267.08 -263.50 -271.52 -277.05 -274.28 -273.55 -273.35 -267.64 -281.76 -279.23 -275.47 -281.50 -274.00 -282.54 -274.17 -672.63 -671.31 -676.85 -676.08 -677.71 -670.79 -676.95 -674.72 -675.41 -679.02 -678.13 -675.66 -678.56 -176.56 -175.76 -170.15 -685.56 -689.54 -689.88 -686.43 -688.51 -688.72 -687.53 -691.69 -706.58 -721.58 -748.18 -846.17 -858.09 -910.53 -900.38 -910.47
1294.78 1295.90 1214.69 1169.99 1126.70 1065.77 976.39 922.76 908.09 885.00 858.14 844.85 823.37 656.91 638.54 632.33 630.42 622.48 634.18 638.58 626.37 632.50 633.23 620.64 627.50 640.16 408.97 432.83 447.56 427.32 407.92 396.83 401.05 417.87 417.48 409.04 413.34 423.51 473.48 731.50 744.67 714.69 691.58 676.34 664.70 660.63 648.14 644.99 639.60 630.54 621.31 615.29 143.23 143.11 137.43 130.44 131.66 126.24 118.95 120.75 124.24 118.99 139.90 140.21 139.51 -11.39 -34.22 -40.40 -55.41 -46.05 -57.57 -66.15 -64.12 -60.97 -63.70 -74.90 -81.71 -93.71 -254.92 -253.87 -266.92 -268.94 -264.83 -264.19 -259.39 -265.09 -261.96 -254.30 -261.62 -264.41 -267.64 -276.86 -274.78 -272.92 -271.10 -269.21 -269.37 -275.76 -281.38 -281.80 -275.47 -279.76 -270.95 -279.66 -672.89 -674.44 -674.80 -676.51 -677.09 -677.22 -678.59 -673.18 -683.15 -679.12 -678.29 -675.16 -678.62 -176.77 -171.88 -164.71 -684.95 -685.02 -683.10 -681.13 -684.25 -691.31 -692.72 -685.19 -696.45 -693.66 -696.37 -761.09 -790.98 -824.75 -857.40 -851.24
1290.22 1285.05 1208.08 1117.40 1101.16 1016.86 916.04 878.09 850.78 849.96 848.34 815.25 814.58 636.94 658.18 631.73 623.41 615.11 614.36 611.79 617.82 618.84 620.64 615.59 633.97 632.58 413.77 427.32 432.05 425.56 406.63 376.05 380.65 395.29 393.97 398.36 421.61 426.31 464.75 736.55 728.97 717.49 680.78 670.57 660.06 655.09 646.63 636.31 633.59 620.90 617.13 601.40 141.31 137.97 140.53 131.09 137.79 130.47 130.00 125.82 117.82 109.00 124.22 141.25 140.17 -13.81 -24.51 -41.31 -43.21 -57.91 -55.84 -56.87 -57.09 -69.04 -58.98 -74.61 -82.68 -88.48 -263.05 -252.99 -260.74 -262.68 -267.72 -267.06 -266.79 -264.64 -257.31 -262.00 -255.53 -257.10 -270.03 -277.28 -275.59 -275.06 -271.66 -266.16 -278.44 -275.55 -277.77 -275.51 -277.72 -276.72 -269.83 -271.27 -664.66 -672.72 -676.39 -675.88 -674.42 -670.87 -676.16 -682.50 -678.99 -673.19 -670.25 -675.21 -677.04 -165.68 -169.01 -162.25 -674.06 -679.70 -682.60 -676.02 -678.45 -682.73 -686.19 -694.95 -689.66 -691.64 -694.58 -711.96 -722.34 -759.73 -788.09 -788.03
1209.23 1213.03 1159.64 1064.58 998.77 955.03 896.48 867.24 849.84 820.22 797.99 800.59 805.53 672.13 670.75 658.09 634.17 618.12 613.95 616.15 618.90 611.39 599.52 614.08 622.54 629.24 377.14 412.67 404.38 406.14 386.60 380.56 370.84 380.81 385.43 409.52 425.92 460.36 464.66 715.86 713.40 681.57 670.05 656.86 644.82 637.88 625.34 627.59 627.75 621.37 604.17 595.55 144.16 148.19 144.75 148.11 145.18 151.77 140.32 134.71 116.34 109.70 113.62 128.68 138.14 -16.18 -15.12 -27.82 -41.72 -43.46 -47.27 -45.72 -49.17 -46.77 -56.35 -71.75 -86.54 -87.27 -252.22 -262.26 -262.13 -257.85 -269.54 -267.92 -262.39 -261.13 -258.16 -260.43 -261.84 -268.83 -269.05 -267.19 -260.98 -269.31 -269.14 -277.26 -275.66 -270.88 -274.67 -274.47 -266.42 -270.01 -270.58 -276.96 -667.99 -670.21 -681.92 -670.20 -679.31 -681.93 -673.15 -674.70 -680.10 -678.88 -675.39 -676.40 -674.03 -172.95 -171.95 -161.48 -674.72 -666.83 -671.22 -672.22 -676.79 -680.89 -678.49 -687.44 -695.30 -686.36 -694.22 -707.47 -700.38 -733.57 -738.38 -737.94
1130.14 1130.17 1120.36 1060.49 1006.34 957.62 899.91 906.13 872.85 834.82 790.59 791.50 811.80 687.16 702.96 662.72 649.63 636.46 641.61 637.35 630.81 621.96 614.68 608.59 615.49 626.01 367.13 361.14 388.81 379.89 379.03 368.41 367.09 368.17 369.17 390.95 433.34 440.35 448.46 701.35 690.94 668.07 652.34 649.79 628.24 637.84 622.13 622.02 616.56 609.66 612.51 608.86 162.37 166.92 162.97 163.59 152.27 147.37 149.26 139.25 122.85 112.10 107.61 114.76 136.17 -25.18 -20.42 -29.88 -28.29 -33.86 -38.02 -41.17 -50.62 -52.36 -58.21 -65.66 -81.53 -87.15 -246.54 -247.39 -251.96 -260.66 -262.19 -254.34 -252.24 -257.69 -247.29 -257.42 -265.98 -267.40 -263.80 -261.57 -261.92 -262.80 -269.99 -270.07 -263.54 -259.33 -267.40 -262.88 -265.26 -265.57 -268.08 -272.64 -667.07 -675.91 -675.22 -675.29 -679.52 -675.39 -682.06 -675.26 -676.04 -677.57 -678.48 -671.04 -675.87 -173.24 -168.09 -160.71 -684.03 -669.83 -669.21 -664.04 -664.69 -679.27 -685.65 -685.26 -682.88 -690.93 -691.30 -693.29 -694.50 -710.78 -740.24 -736.70
