513.92 516.51 518.10 467.17 461.80 449.37 441.66 444.01 444.63 453.61 449.57 446.64 444.39 117.59 108.73 106.38 104.22 103.80 102.50 92.16 100.50 111.60 111.74 118.20 109.62 94.17 -146.03 -155.49 -162.00 -169.20 -169.48 -171.65 -175.44 -193.25 -195.29 -193.08 -189.26 -188.14 -182.13 -608.08 -611.76 -606.62 -609.25 -616.21 -611.88 -613.69 -611.27 -621.71 -620.03 -610.80 -611.79 -608.23 -1477.84 -1478.05 -1477.73 -1479.62 -1478.58 -1477.13 -1491.12 -1503.23 -1520.06 -1834.53 -2168.11 -2265.01 -2509.47 -2490.68 -2535.33 -2523.02 -2528.91 -2541.86 -2551.59 -2569.21 -2599.72 -2617.10 -2622.46 -2647.14 -2698.96 -2727.88 -3344.82 -3353.02 -3410.47 -3438.07 -3435.65 -3486.92 -3485.54 -3530.94 -3542.81 -3579.74 -3591.26 -3595.19 -3586.35 -3405.70 -3409.77 -3388.57 -3375.03 -3382.37 -3392.31 -3436.79 -3495.11 -3558.09 -3604.95 -3649.15 -3676.04 -3692.64 -3894.15 -3921.68 -3931.40 -3964.12 -3967.82 -3978.23 -3994.07 -4048.15 -4083.83 -4104.44 -4160.83 -4198.21 -4244.96 -2415.34 -2439.85 -2455.26 -2469.98 -2511.61 -2513.73 -2519.51 -2514.20 -2535.01 -2542.97 -2534.03 -2541.53 -2555.81 -2537.46 -2547.98 -2548.07 -2558.52 -2551.49 -2556.88
519.18 524.51 495.91 474.87 453.07 457.19 448.22 450.94 457.65 460.22 450.56 444.60 439.55 120.53 111.20 106.10 103.25 101.53 103.16 91.71 102.68 110.35 109.54 109.53 108.63 101.09 -151.54 -142.98 -158.98 -177.41 -176.92 -180.55 -190.98 -196.43 -200.09 -194.56 -194.11 -193.87 -188.33 -608.66 -609.12 -610.95 -615.23 -611.97 -614.09 -617.09 -614.89 -612.17 -611.46 -614.89 -618.44 -619.19 -1478.72 -1476.08 -1481.14 -1476.17 -1474.01 -1477.86 -1483.01 -1504.32 -1511.08 -1663.06 -1773.89 -1981.34 -2362.75 -2413.89 -2442.85 -2507.29 -2482.47 -2479.63 -2488.73 -2503.73 -2551.99 -2552.81 -2582.91 -2614.23 -2663.98 -2677.12 -3323.07 -3340.29 -3317.03 -3402.08 -3383.10 -3421.88 -3450.31 -3455.15 -3519.89 -3526.82 -3579.72 -3568.51 -3567.48 -3356.32 -3354.26 -3329.49 -3343.36 -3339.52 -3358.33 -3396.14 -3485.57 -3538.06 -3573.04 -3590.08 -3648.94 -3656.01 -3841.73 -3869.36 -3858.37 -3856.83 -3885.74 -3906.29 -3929.57 -3975.92 -4014.94 -4061.80 -4114.36 -4129.53 -4194.98 -2364.66 -2417.65 -2445.92 -2454.07 -2479.11 -2509.07 -2503.26 -2513.99 -2520.01 -2520.95 -2530.86 -2529.81 -2536.15 -2540.52 -2550.80 -2551.75 -2548.62 -2558.23 -2555.13
485.48 486.94 484.99 471.35 457.31 454.37 448.56 446.10 458.17 456.53 448.63 439.08 431.44 106.63 111.89 101.90 107.58 105.25 102.99 108.56 111.39 117.27 116.92 102.77 105.78 86.60 -152.88 -159.19 -174.52 -178.54 -189.67 -190.19 -191.78 -200.44 -195.91 -189.72 -190.68 -196.13 -188.52 -606.41 -609.53 -609.22 -618.76 -615.78 -616.30 -612.85 -612.65 -616.96 -611.72 -616.67 -614.51 -614.73 -1472.09 -1480.23 -1483.65 -1474.30 -1476.18 -1476.51 -1480.26 -1482.12 -1501.06 -1552.94 -1747.41 -1814.72 -2087.95 -2392.00 -2387.53 -2385.88 -2445.46 -2439.18 -2458.88 -2462.19 -2483.70 -2522.26 -2540.33 -2593.04 -2635.45 -2637.98 -3281.38 -3278.82 -3304.14 -3299.49 -3352.55 -3371.30 -3392.47 -3407.44 -3427.57 -3471.87 -3495.95 -3507.00 -3532.10 -3343.86 -3328.28 -3323.44 -3316.89 -3320.74 -3337.05 -3343.74 -3407.29 -3493.22 -3554.97 -3574.42 -3580.17 -3633.41 -3819.49 -3811.09 -3812.13 -3832.34 -3839.20 -3850.83 -3894.48 -3929.65 -3993.06 -4014.03 -4038.89 -4093.69 -4142.72 -2357.61 -2386.48 -2402.65 -2439.45 -2442.29 -2471.43 -2499.43 -2495.29 -2502.40 -2509.17 -2510.21 -2523.29 -2521.56 -2530.04 -2536.76 -2538.45 -2549.68 -2554.34 -2551.40
497.15 502.03 495.30 485.22 471.69 458.03 464.96 465.31 469.97 467.36 452.43 434.65 432.03 108.53 112.57 106.41 112.11 123.57 116.29 117.41 115.12 116.89 111.38 102.20 91.61 88.35 -164.68 -163.46 -166.85 -177.97 -192.67 -197.95 -195.17 -197.55 -193.25 -186.69 -190.98 -193.56 -197.78 -613.25 -613.71 -622.37 -609.70 -611.59 -614.55 -607.29 -615.45 -616.94 -614.08 -606.18 -607.60 -614.75 -1475.35 -1479.31 -1476.58 -1481.51 -1479.96 -1473.93 -1484.20 -1477.01 -1503.39 -1537.61 -1574.54 -1655.84 -1822.32 -1941.38 -2255.15 -2343.75 -2246.82 -2315.52 -2347.58 -2362.32 -2400.53 -2475.79 -2523.17 -2495.66 -2500.50 -2614.54 -3212.10 -3231.69 -3232.30 -3278.35 -3247.34 -3308.02 -3331.23 -3338.30 -3342.61 -3365.52 -3434.30 -3463.38 -3499.75 -3332.94 -3311.70 -3303.55 -3284.01 -3291.75 -3329.11 -3324.64 -3345.59 -3398.71 -3477.31 -3505.64 -3563.78 -3583.34 -3786.36 -3785.94 -3793.06 -3795.66 -3832.68 -3823.93 -3827.54 -3853.14 -3881.11 -3930.77 -3982.13 -4039.08 -4044.74 -2297.07 -2329.65 -2385.10 -2406.35 -2435.02 -2441.21 -2472.01 -2457.38 -2479.35 -2487.25 -2490.95 -2505.93 -2512.32 -2513.10 -2522.62 -2539.45 -2552.28 -2546.96 -2548.03
512.35 513.62 502.92 497.00 493.79 477.81 484.11 479.94 477.51 466.51 457.37 451.77 429.28 113.28 115.44 121.71 124.39 124.96 121.35 114.11 112.16 118.71 113.42 110.87 92.44 67.14 -182.12 -180.53 -177.72 -194.25 -194.64 -196.02 -191.23 -189.14 -191.87 -186.31 -188.02 -193.56 -197.30 -615.27 -617.00 -617.62 -612.69 -606.60 -613.14 -612.24 -614.10 -605.43 -620.27 -612.88 -614.73 -617.47 -1483.22 -1478.78 -1475.15 -1479.83 -1480.75 -1475.81 -1481.40 -1482.99 -1481.00 -1499.74 -1586.62 -1637.82 -1799.68 -1946.72 -2060.31 -2191.53 -2162.53 -2161.93 -2167.52 -2254.03 -2265.63 -2293.55 -2277.28 -2314.50 -2428.38 -2393.51 -3118.94 -3127.65 -3191.85 -3204.95 -3218.34 -3257.69 -3266.38 -3285.46 -3333.24 -3358.61 -3418.73 -3458.30 -3458.33 -3293.74 -3298.83 -3271.86 -3270.51 -3276.53 -3291.53 -3314.33 -3322.27 -3388.98 -3424.29 -3499.16 -3553.94 -3562.80 -3756.93 -3763.32 -3766.59 -3764.27 -3789.81 -3814.04 -3812.58 -3833.13 -3852.53 -3893.03 -3960.05 -3954.51 -4000.63 -2186.81 -2255.25 -2321.56 -2366.00 -2424.77 -2433.90 -2441.15 -2459.71 -2463.94 -2476.72 -2475.48 -2476.36 -2492.26 -2493.61 -2512.81 -2516.72 -2545.62 -2546.12 -2546.07
542.25 549.28 541.27 541.66 521.75 504.68 502.81 495.75 486.13 485.53 470.45 460.41 451.82 111.90 114.07 116.69 122.48 115.47 114.25 112.52 104.10 102.56 102.51 92.50 80.49 69.49 -178.33 -185.62 -196.30 -193.41 -189.85 -194.77 -184.76 -180.79 -177.89 -182.68 -189.39 -194.65 -195.64 -618.75 -622.30 -624.47 -621.46 -614.60 -609.77 -617.74 -615.76 -614.26 -614.40 -621.61 -622.28 -623.40 -1320.96 -1321.02 -1316.42 -1316.32 -1317.55 -1320.32 -1317.86 -1319.93 -1321.53 -1328.83 -1397.73 -1490.81 -1558.61 -2025.61 -2308.49 -2304.59 -2226.04 -2271.70 -2330.47 -2390.42 -2517.66 -2511.83 -2447.01 -2504.48 -2478.70 -2635.08 -3232.59 -3241.03 -3354.78 -3413.43 -3492.91 -3492.63 -3531.79 -3536.14 -3566.59 -3574.41 -3695.22 -3700.37 -3731.16 -3727.62 -3756.39 -3756.87 -3741.06 -3747.57 -3752.20 -3802.65 -3809.24 -3832.01 -3894.89 -3929.80 -3990.92 -4026.72 -4115.77 -4126.76 -4129.38 -4133.59 -4152.38 -4170.66 -4165.44 -4185.09 -4200.69 -4233.22 -4255.49 -4300.11 -4301.07 -2145.52 -2221.15 -2241.63 -2331.25 -2368.52 -2398.05 -2428.20 -2448.73 -2438.96 -2454.21 -2457.58 -2471.07 -2473.66 -2479.56 -2496.56 -2501.78 -2525.60 -2540.37 -2535.42
570.82 571.01 588.65 568.69 550.37 509.08 503.19 501.08 493.94 470.66 455.74 457.04 450.55 112.10 111.39 120.79 121.39 115.02 111.84 104.15 97.22 102.35 96.79 86.24 79.96 65.09 -182.19 -194.23 -184.58 -191.09 -172.58 -181.44 -174.76 -172.86 -167.61 -187.31 -196.15 -199.23 -198.99 -626.32 -625.85 -622.84 -621.97 -612.80 -614.65 -611.14 -618.76 -616.98 -625.72 -619.67 -618.89 -626.02 -1315.15 -1324.81 -1315.85 -1317.30 -1314.33 -1313.40 -1321.02 -1321.48 -1320.80 -1335.90 -1403.66 -1493.59 -1591.80 -2048.01 -2141.20 -2115.00 -2198.82 -2243.50 -2233.27 -2327.58 -2374.37 -2362.75 -2401.44 -2377.18 -2422.09 -2492.44 -3078.61 -3074.27 -3183.76 -3244.63 -3249.04 -3325.70 -3387.21 -3426.71 -3410.87 -3426.10 -3484.08 -3645.91 -3667.36 -3711.13 -3733.29 -3730.38 -3724.34 -3702.35 -3709.21 -3718.70 -3754.61 -3802.44 -3853.95 -3912.62 -3942.25 -3987.47 -4082.31 -4092.15 -4089.13 -4111.78 -4104.88 -4135.89 -4149.90 -4169.74 -4184.38 -4185.02 -4220.88 -4237.14 -4295.18 -2071.26 -2143.22 -2196.94 -2284.27 -2309.10 -2385.62 -2389.54 -2403.70 -2422.59 -2427.12 -2430.15 -2448.79 -2468.03 -2469.41 -2479.44 -2486.68 -2516.06 -2521.19 -2520.92
648.79 650.68 665.86 579.21 557.56 520.03 498.57 489.45 481.02 457.18 456.80 455.46 448.83 106.89 112.16 116.71 118.85 110.78 101.73 93.23 87.20 77.73 78.73 67.94 61.41 60.90 -192.54 -193.32 -179.16 -176.87 -169.56 -178.30 -169.60 -169.90 -174.32 -185.05 -194.51 -195.95 -194.65 -619.02 -622.06 -622.97 -609.67 -617.31 -610.06 -607.34 -616.13 -612.97 -617.60 -618.44 -616.23 -622.10 -1319.30 -1315.16 -1318.28 -1317.85 -1320.41 -1315.32 -1318.33 -1320.87 -1330.76 -1344.29 -1371.92 -1464.23 -1505.94 -2008.61 -2018.96 -2059.77 -2057.11 -2099.42 -2146.78 -2075.90 -2238.74 -2257.38 -2253.29 -2209.36 -2287.72 -2341.67 -3032.48 -3021.26 -3044.58 -3176.16 -3184.15 -3183.97 -3169.07 -3302.34 -3359.40 -3372.79 -3468.87 -3608.84 -3644.68 -3677.62 -3698.51 -3692.19 -3672.55 -3669.44 -3679.98 -3713.38 -3745.75 -3769.43 -3829.43 -3894.89 -3907.99 -3936.89 -4064.12 -4073.09 -4084.85 -4081.01 -4109.87 -4121.41 -4124.83 -4141.07 -4151.38 -4179.86 -4192.46 -4222.70 -4230.60 -2038.79 -2124.04 -2180.20 -2202.23 -2290.26 -2327.18 -2372.19 -2366.26 -2399.60 -2393.66 -2415.38 -2423.20 -2441.04 -2455.14 -2474.54 -2482.63 -2501.17 -2503.89 -2502.31
796.74 792.35 706.90 617.58 564.44 523.55 488.31 473.03 466.27 462.39 462.71 464.60 456.00 108.65 112.25 121.81 112.81 106.92 88.34 74.03 65.45 57.78 57.67 50.28 49.58 44.26 -196.74 -178.92 -183.18 -164.93 -158.52 -165.29 -165.23 -174.20 -180.86 -186.22 -190.90 -194.22 -194.45 -605.37 -617.23 -611.80 -616.44 -608.46 -608.47 -611.07 -611.20 -604.80 -614.25 -612.72 -618.15 -617.69 -1318.89 -1319.48 -1319.59 -1316.43 -1309.59 -1325.41 -1313.84 -1321.66 -1355.40 -1367.79 -1417.51 -1452.95 -1460.59 -1931.39 -1940.38 -1894.74 -1919.89 -1968.56 -1972.56 -2037.17 -2062.55 -2139.96 -2139.72 -2193.23 -2163.41 -2269.08 -2872.79 -2876.40 -2996.30 -3040.85 -3041.06 -3058.92 -3104.18 -3085.85 -3163.64 -3401.87 -3446.18 -3537.70 -3559.82 -3589.29 -3626.35 -3642.01 -3667.52 -3665.48 -3666.58 -3685.85 -3711.42 -3762.83 -3793.75 -3858.10 -3868.11 -3930.59 -4010.21 -4053.19 -4067.68 -4074.12 -4077.11 -4095.73 -4110.40 -4130.88 -4144.25 -4149.44 -4180.71 -4193.33 -4211.35 -1997.87 -2054.00 -2106.76 -2149.02 -2224.36 -2272.68 -2301.62 -2326.90 -2359.67 -2371.86 -2389.68 -2408.58 -2412.88 -2450.31 -2459.93 -2458.18 -2473.15 -2490.78 -2477.74
782.12 789.35 798.39 567.45 572.28 518.18 494.29 474.33 471.17 470.87 474.70 464.91 452.10 109.52 115.72 122.54 118.17 113.54 93.36 79.58 48.75 51.32 55.25 52.41 49.22 49.94 -181.86 -174.84 -161.57 -156.67 -147.69 -160.04 -170.27 -178.58 -184.91 -191.00 -190.81 -194.02 -188.28 -610.29 -608.02 -612.34 -615.28 -608.96 -603.55 -602.53 -613.04 -612.22 -617.64 -608.64 -614.29 -618.43 -1315.39 -1321.42 -1315.93 -1309.76 -1313.45 -1313.91 -1316.47 -1321.48 -1353.24 -1381.45 -1386.12 -1395.25 -1385.03 -1806.68 -1800.14 -1821.92 -1801.85 -1851.08 -1900.50 -1978.64 -2018.89 -2046.73 -2050.48 -2124.24 -2146.91 -2174.89 -2755.55 -2775.69 -2899.57 -2920.94 -2954.06 -2926.09 -2865.91 -2849.44 -2883.45 -2985.90 -3287.44 -3380.76 -3349.90 -3554.97 -3583.02 -3616.75 -3633.76 -3649.86 -3656.94 -3667.44 -3687.30 -3734.12 -3792.78 -3822.64 -3861.42 -3907.97 -4000.10 -4004.96 -4039.72 -4041.66 -4062.17 -4083.37 -4100.02 -4104.85 -4116.16 -4136.11 -4154.68 -4164.39 -4197.72 -1980.62 -2046.24 -2102.51 -2130.05 -2187.38 -2223.61 -2277.05 -2305.23 -2314.63 -2339.90 -2336.65 -2357.86 -2362.70 -2377.60 -2383.45 -2416.67 -2439.39 -2457.90 -2452.22
808.42 808.63 719.80 594.29 538.56 523.42 477.83 480.44 471.79 466.06 464.34 458.47 451.49 118.39 129.48 123.70 117.25 105.72 91.74 69.49 61.78 55.69 53.21 64.34 57.61 51.51 -178.90 -167.15 -159.40 -152.42 -153.54 -173.02 -175.01 -179.22 -188.66 -194.83 -192.21 -185.46 -187.41 -608.82 -604.96 -609.84 -607.54 -603.09 -600.91 -597.33 -606.74 -612.78 -607.31 -618.07 -614.51 -624.36 -1322.03 -1324.34 -1315.27 -1310.25 -1314.69 -1317.28 -1318.81 -1314.50 -1341.70 -1377.28 -1371.48 -1378.42 -1349.04 -1778.79 -1755.29 -1768.23 -1767.04 -1795.66 -1818.82 -1902.69 -1967.26 -1994.23 -2031.69 -2027.96 -2038.58 -2085.25 -2718.02 -2704.68 -2752.58 -2813.10 -2757.95 -2743.75 -2732.17 -2744.76 -2761.10 -2918.01 -2984.94 -3123.34 -3230.38 -3255.64 -3349.52 -3484.54 -3607.12 -3611.74 -3638.50 -3663.95 -3689.75 -3738.41 -3754.34 -3794.18 -3851.74 -3868.00 -3974.33 -3988.68 -4012.59 -4022.24 -4053.83 -4061.75 -4093.78 -4100.66 -4120.99 -4120.66 -4139.03 -4158.56 -4159.92 -1954.99 -2013.79 -2052.35 -2112.25 -2110.96 -2214.17 -2229.15 -2228.85 -2301.72 -2311.89 -2311.92 -2311.80 -2353.92 -2340.03 -2367.75 -2385.84 -2422.90 -2426.02 -2422.98
814.86 824.65 721.73 596.78 532.38 488.50 476.61 473.59 469.09 457.80 453.52 454.77 458.36 119.55 132.15 132.35 115.67 96.56 79.56 61.74 61.15 58.34 58.28 65.86 55.91 53.05 -169.45 -153.68 -149.52 -141.72 -147.89 -172.73 -182.40 -189.74 -181.84 -176.74 -164.70 -177.74 -171.66 -597.60 -595.79 -606.53 -602.53 -602.28 -597.85 -604.67 -620.07 -616.94 -616.33 -617.12 -619.20 -626.52 -1317.14 -1322.11 -1317.46 -1302.33 -1310.57 -1310.58 -1313.42 -1315.37 -1336.50 -1346.79 -1348.73 -1336.93 -1319.64 -1740.79 -1740.87 -1743.33 -1735.36 -1772.06 -1808.52 -1847.50 -1892.70 -1914.19 -1931.43 -1973.44 -1977.12 -2006.33 -2641.44 -2624.60 -2684.24 -2687.77 -2708.07 -2692.98 -2694.99 -2651.26 -2699.36 -2748.06 -2803.82 -2827.26 -2912.98 -3152.78 -3262.12 -3455.10 -3528.69 -3604.20 -3628.13 -3651.69 -3674.18 -3724.18 -3745.56 -3774.45 -3822.99 -3847.62 -3946.23 -3981.11 -3997.19 -4016.40 -4037.16 -4055.38 -4090.97 -4101.78 -4110.80 -4113.08 -4122.45 -4133.21 -4145.65 -1921.52 -1977.74 -2031.93 -2090.99 -2108.75 -2176.90 -2190.36 -2190.02 -2192.85 -2248.61 -2256.31 -2290.06 -2294.48 -2323.40 -2344.51 -2358.90 -2395.95 -2395.26 -2395.77
820.74 821.57 733.17 592.90 513.93 491.57 482.86 465.42 462.39 463.15 453.39 464.21 479.73 132.36 128.32 131.33 109.03 86.39 65.60 57.75 66.66 67.60 80.55 66.53 63.57 69.52 -166.42 -155.29 -150.50 -150.71 -157.27 -173.43 -176.56 -182.19 -172.08 -163.51 -165.24 -169.44 -172.18 -594.29 -589.95 -590.48 -593.90 -601.27 -600.64 -605.51 -611.90 -624.76 -616.89 -626.03 -624.10 -621.43 -1314.89 -1316.78 -1318.12 -1306.06 -1309.72 -1314.39 -1311.91 -1312.12 -1316.31 -1312.30 -1319.71 -1313.72 -1319.51 -1745.02 -1743.11 -1748.18 -1738.90 -1758.37 -1774.04 -1808.71 -1845.43 -1897.20 -1910.03 -1929.90 -1949.61 -1980.21 -2599.73 -2610.09 -2605.88 -2653.55 -2617.52 -2620.01 -2597.25 -2618.03 -2611.91 -2612.23 -2664.10 -2731.43 -2801.64 -3021.45 -3130.91 -3243.54 -3309.18 -3432.31 -3609.65 -3651.38 -3663.96 -3698.90 -3732.73 -3768.45 -3804.32 -3829.38 -3917.31 -3960.16 -4000.33 -4004.76 -4030.08 -4059.13 -4089.49 -4094.98 -4106.62 -4115.54 -4115.61 -4123.27 -4145.41 -1908.94 -1952.36 -2004.10 -2029.41 -2081.40 -2138.64 -2181.16 -2161.57 -2154.82 -2182.19 -2235.23 -2249.58 -2286.52 -2288.31 -2291.13 -2302.06 -2320.18 -2358.42 -2359.30
824.16 826.70 735.09 559.58 508.03 485.17 470.64 465.22 468.52 469.38 466.36 483.17 481.49 142.82 125.52 114.64 104.27 72.91 64.02 58.91 67.90 100.06 84.52 82.06 77.95 87.90 -147.21 -147.65 -146.06 -143.98 -159.86 -162.19 -171.32 -170.79 -161.21 -156.18 -151.42 -159.11 -158.77 -582.31 -591.26 -580.06 -593.45 -592.80 -597.38 -604.51 -613.27 -614.61 -615.96 -621.78 -617.48 -620.52 -1309.40 -1316.20 -1307.28 -1307.82 -1301.34 -1316.05 -1317.46 -1316.61 -1320.01 -1318.13 -1319.58 -1323.57 -1319.45 -1734.54 -1743.68 -1738.15 -1736.02 -1756.74 -1782.76 -1803.56 -1824.45 -1861.76 -1867.43 -1920.88 -1925.00 -1938.64 -2546.63 -2563.69 -2581.74 -2573.09 -2576.21 -2570.29 -2578.67 -2560.70 -2561.50 -2553.40 -2612.28 -2648.56 -2771.08 -2929.40 -2906.02 -2994.08 -3069.37 -3333.25 -3585.83 -3609.08 -3652.25 -3701.75 -3721.11 -3745.68 -3801.60 -3844.45 -3917.39 -3953.96 -3993.75 -4010.71 -4029.68 -4064.82 -4085.42 -4089.71 -4103.01 -4107.99 -4112.58 -4117.70 -4124.26 -1899.70 -1938.15 -1952.63 -2001.40 -2025.52 -2058.67 -2125.33 -2149.70 -2152.51 -2171.54 -2180.37 -2227.08 -2224.72 -2234.27 -2259.08 -2261.19 -2319.03 -2320.34 -2314.98
839.09 838.85 732.33 579.09 534.82 495.53 472.79 469.42 476.54 485.60 478.96 485.58 498.68 148.52 127.01 105.30 83.34 67.35 78.86 69.77 90.90 109.15 107.29 89.33 86.40 105.41 -127.68 -130.87 -135.09 -137.35 -138.22 -151.61 -156.82 -158.33 -149.67 -150.12 -154.43 -153.28 -168.12 -586.50 -589.75 -586.77 -594.71 -593.40 -598.46 -610.06 -613.22 -617.72 -626.06 -621.55 -621.11 -610.89 -1314.81 -1310.65 -1309.16 -1305.76 -1314.00 -1315.21 -1312.41 -1312.40 -1318.73 -1314.17 -1317.15 -1315.41 -1322.53 -1741.44 -1739.33 -1743.39 -1745.03 -1745.47 -1763.85 -1769.36 -1779.86 -1821.36 -1817.24 -1822.83 -1866.86 -1875.23 -2509.92 -2507.06 -2529.64 -2540.89 -2525.46 -2537.13 -2550.90 -2532.71 -2526.16 -2510.58 -2515.33 -2612.36 -2689.40 -2744.61 -2797.71 -2824.68 -2979.77 -3165.03 -3426.27 -3554.38 -3584.43 -3704.35 -3721.93 -3735.19 -3772.44 -3831.08 -3940.81 -3958.13 -3996.68 -4016.14 -4041.63 -4070.21 -4083.16 -4095.21 -4103.39 -4112.31 -4105.95 -4119.66 -4126.37 -1900.49 -1929.89 -1956.11 -1991.62 -1998.31 -2010.58 -2057.07 -2080.89 -2090.90 -2101.46 -2128.98 -2158.87 -2171.79 -2179.77 -2207.39 -2247.49 -2269.33 -2281.47 -2279.31
843.59 845.54 728.09 616.67 545.14 504.71 475.87 472.71 491.34 509.40 514.41 508.90 502.74 156.44 130.69 109.22 92.95 77.16 80.34 102.05 126.39 125.01 121.13 98.18 100.00 108.43 -122.71 -118.64 -131.43 -132.16 -141.23 -142.66 -150.50 -155.50 -145.03 -156.42 -167.31 -166.09 -176.81 -598.54 -598.32 -592.88 -593.98 -603.90 -603.26 -621.37 -603.32 -623.87 -624.96 -616.34 -619.46 -620.45 -1307.00 -1305.42 -1308.48 -1306.33 -1308.73 -1310.16 -1312.41 -1320.54 -1315.17 -1320.18 -1313.92 -1316.96 -1319.41 -1746.68 -1739.34 -1741.35 -1735.54 -1744.72 -1739.06 -1747.92 -1759.44 -1771.37 -1776.25 -1799.02 -1833.77 -1865.35 -2463.50 -2480.42 -2503.64 -2490.95 -2505.41 -2498.43 -2501.22 -2509.78 -2498.72 -2494.54 -2489.39 -2483.97 -2547.41 -2611.82 -2696.24 -2730.56 -2863.70 -3119.87 -3364.02 -3411.84 -3565.33 -3649.20 -3715.63 -3724.55 -3766.95 -3824.50 -3952.43 -3965.40 -3995.22 -4050.96 -4069.73 -4092.24 -4092.88 -4103.35 -4106.58 -4109.72 -4116.34 -4126.31 -4137.17 -1904.71 -1930.19 -1953.85 -1976.85 -1992.60 -2006.75 -2022.89 -2035.32 -2051.73 -2059.09 -2098.89 -2114.46 -2132.03 -2159.53 -2179.39 -2189.86 -2243.24 -2246.93 -2246.22
823.12 823.01 847.77 560.08 534.52 500.21 495.54 500.43 540.86 527.08 521.15 528.81 508.76 146.66 135.68 121.33 103.76 80.09 76.96 98.97 130.09 138.39 116.82 94.64 103.91 105.85 -111.14 -119.42 -114.30 -127.85 -143.28 -145.96 -148.55 -154.95 -157.49 -164.27 -180.64 -182.16 -185.70 -615.49 -611.79 -603.60 -602.45 -605.76 -615.86 -620.10 -621.40 -613.69 -620.96 -612.00 -612.33 -606.68 -1311.93 -1296.34 -1309.54 -1313.80 -1310.19 -1317.52 -1314.50 -1317.54 -1316.86 -1312.63 -1321.83 -1324.41 -1318.11 -1739.53 -1742.40 -1736.92 -1739.72 -1741.63 -1740.07 -1737.87 -1753.79 -1750.44 -1774.62 -1782.60 -1804.12 -1825.17 -2443.05 -2453.25 -2442.99 -2441.45 -2455.16 -2479.47 -2463.06 -2482.09 -2478.49 -2460.51 -2448.73 -2461.24 -2444.35 -2457.42 -2504.87 -2621.00 -2764.14 -3044.47 -3328.48 -3507.30 -3592.22 -3660.14 -3678.98 -3728.91 -3765.54 -3818.31 -3939.34 -3978.76 -4002.13 -4063.94 -4090.42 -4100.94 -4103.22 -4108.22 -4108.77 -4117.28 -4132.30 -4127.98 -4144.07 -1909.22 -1930.55 -1951.78 -1962.41 -1973.65 -1994.61 -2013.53 -2014.52 -2032.15 -2045.31 -2046.97 -2090.75 -2112.92 -2138.47 -2129.66 -2168.45 -2176.12 -2213.85 -2217.87
3856.13 3856.85 3740.38 3587.11 3508.99 3485.89 3482.01 3516.09 3524.57 3535.86 3508.76 3494.49 3468.72 3311.76 3295.40 3298.76 3276.54 3264.75 3260.54 3287.79 3314.84 3320.81 3317.57 3294.47 3300.69 3316.05 -93.81 -93.38 -106.15 -115.49 -122.36 -141.94 -150.54 -152.66 -157.15 -157.80 -166.00 -170.35 -169.40 -497.76 -511.60 -496.20 -506.92 -508.91 -511.70 -511.83 -507.55 -514.97 -500.50 -496.59 -494.40 -502.89 -798.39 -792.98 -806.62 -801.55 -812.02 -808.37 -806.81 -810.76 -810.50 -821.48 -812.40 -811.92 -813.56 -1172.50 -1180.63 -1175.94 -1173.73 -1179.52 -1177.03 -1176.69 -1177.39 -1177.33 -1192.08 -1209.76 -1217.74 -1233.83 -1395.11 -1411.07 -1413.89 -1424.75 -1417.83 -1407.32 -1430.31 -1404.69 -1386.89 -1408.02 -1406.54 -1416.93 -1403.06 -1331.34 -1373.16 -1391.00 -1564.94 -1742.94 -2057.17 -2267.00 -2495.98 -2529.50 -2576.90 -2627.20 -2634.68 -2752.25 -3941.98 -3994.32 -4052.04 -4091.03 -4098.40 -4112.15 -4106.05 -4118.72 -4109.74 -4122.88 -4130.59 -4138.41 -4160.45 -1924.74 -1937.61 -1948.69 -1952.34 -1965.87 -1989.08 -2002.58 -2010.33 -2006.47 -2021.90 -2032.60 -2040.96 -2072.49 -2102.81 -2122.96 -2129.95 -2177.43 -2186.78 -2183.43
3833.92 3830.84 3735.47 3621.36 3565.53 3485.97 3498.21 3512.28 3535.84 3521.13 3501.46 3477.23 3466.26 3307.35 3300.44 3288.82 3267.26 3266.89 3272.41 3285.91 3308.12 3318.62 3311.73 3301.74 3310.04 3320.55 -89.24 -87.35 -113.24 -118.72 -135.50 -136.97 -141.65 -148.82 -144.68 -145.27 -152.47 -156.15 -153.17 -487.66 -491.41 -492.81 -512.05 -508.26 -505.30 -509.67 -499.71 -506.88 -492.85 -496.76 -498.46 -498.23 -797.50 -799.87 -807.55 -805.71 -812.06 -814.42 -812.09 -814.39 -814.59 -815.17 -814.50 -813.06 -810.41 -1182.77 -1179.88 -1171.96 -1169.41 -1173.54 -1174.48 -1175.35 -1175.95 -1178.45 -1179.09 -1192.31 -1191.25 -1214.68 -1370.07 -1390.89 -1400.72 -1402.94 -1402.58 -1406.30 -1379.41 -1378.28 -1380.58 -1370.43 -1381.90 -1389.72 -1387.78 -1317.31 -1361.95 -1401.75 -1547.23 -1720.94 -1884.65 -1921.69 -2152.14 -2402.25 -2502.52 -2506.74 -2649.43 -2727.81 -3956.52 -4000.81 -4071.79 -4114.13 -4117.55 -4123.63 -4132.41 -4138.55 -4137.48 -4130.86 -4144.34 -4149.26 -4158.86 -1940.75 -1942.23 -1953.32 -1966.56 -1974.32 -1983.78 -1991.71 -1991.11 -2000.30 -2005.09 -2024.15 -2034.12 -2036.16 -2061.71 -2087.34 -2110.36 -2164.73 -2152.89 -2154.90
4053.36 4056.08 3941.23 3682.55 3672.65 3550.57 3501.35 3508.31 3550.31 3533.60 3522.64 3480.89 3486.71 3342.89 3339.79 3307.91 3297.54 3275.04 3272.83 3298.69 3305.54 3338.86 3325.86 3312.30 3318.40 3325.31 -82.46 -84.31 -111.46 -109.10 -118.76 -117.00 -121.64 -130.69 -131.60 -125.97 -135.63 -143.80 -143.43 -482.46 -477.28 -493.06 -498.75 -505.61 -509.32 -503.03 -502.39 -498.57 -490.68 -487.69 -486.21 -493.68 -799.32 -802.40 -808.96 -809.83 -809.68 -804.07 -809.10 -808.09 -808.06 -806.39 -814.32 -810.05 -810.85 -1175.31 -1172.83 -1171.92 -1176.50 -1171.64 -1174.82 -1178.26 -1179.34 -1172.17 -1177.89 -1176.79 -1179.83 -1194.61 -1349.63 -1376.09 -1383.22 -1384.58 -1390.62 -1371.11 -1370.14 -1370.98 -1369.53 -1359.80 -1368.97 -1367.44 -1363.65 -1295.11 -1337.19 -1351.32 -1383.59 -1591.87 -1648.72 -1755.62 -2119.25 -2110.92 -2335.41 -2489.48 -2711.99 -2755.36 -3984.31 -4038.64 -4072.23 -4116.31 -4144.70 -4153.14 -4164.92 -4150.61 -4163.75 -4159.23 -4171.94 -4170.36 -4166.93 -1944.91 -1953.66 -1975.30 -1978.33 -1979.23 -1986.10 -1988.04 -1990.92 -1996.97 -2001.81 -2017.19 -2024.85 -2036.11 -2054.17 -2068.89 -2086.19 -2122.62 -2129.43 -2136.84
4183.10 4186.22 3998.90 3806.95 3689.03 3604.95 3553.85 3606.32 3568.91 3603.29 3585.95 3555.80 3544.10 3361.13 3344.97 3325.70 3301.13 3273.21 3274.61 3296.18 3329.74 3342.00 3339.18 3328.52 3322.10 3331.48 -76.06 -93.12 -112.50 -111.29 -101.19 -107.30 -116.10 -121.57 -124.36 -121.02 -124.20 -133.04 -139.17 -475.74 -483.81 -493.07 -502.61 -508.78 -501.11 -494.89 -494.49 -505.11 -493.38 -484.97 -480.01 -488.29 -795.08 -802.26 -802.76 -806.12 -805.11 -803.73 -806.72 -805.65 -801.59 -809.28 -806.27 -807.10 -807.43 -1175.16 -1171.01 -1169.60 -1172.02 -1175.52 -1177.24 -1178.43 -1179.54 -1176.31 -1172.50 -1176.18 -1182.23 -1178.52 -1335.77 -1357.16 -1348.17 -1364.99 -1365.18 -1365.32 -1356.03 -1353.99 -1345.94 -1352.29 -1355.41 -1352.90 -1363.00 -1279.97 -1296.83 -1319.03 -1332.92 -1372.54 -1465.36 -1535.57 -1762.96 -2042.28 -2121.27 -2450.88 -2675.02 -2756.58 -4000.13 -4034.16 -4110.70 -4131.92 -4155.94 -4175.32 -4172.20 -4184.11 -4174.10 -4181.07 -4174.87 -4186.94 -4192.32 -1960.31 -1978.76 -1980.98 -1995.82 -1999.72 -1999.15 -2002.42 -2001.31 -2010.93 -2010.41 -2015.52 -2027.10 -2031.35 -2045.39 -2064.43 -2080.63 -2110.75 -2122.09 -2118.84
4255.08 4260.45 4219.85 3759.45 3722.77 3621.01 3629.14 3684.63 3636.96 3643.90 3615.08 3614.10 3565.93 3357.76 3338.20 3322.47 3306.54 3300.63 3283.97 3291.16 3327.04 3353.03 3346.43 3340.83 3342.52 3342.03 -68.34 -98.70 -97.88 -108.84 -102.83 -99.47 -118.11 -123.99 -130.80 -129.91 -118.00 -131.48 -154.75 -480.45 -497.57 -503.06 -501.80 -505.36 -498.15 -490.82 -491.08 -493.42 -484.23 -481.15 -481.53 -487.77 -791.37 -798.39 -799.78 -799.96 -794.63 -796.45 -795.60 -798.78 -800.72 -800.46 -813.41 -809.40 -813.40 -1169.73 -1169.48 -1172.30 -1174.07 -1166.51 -1171.61 -1171.73 -1176.02 -1178.14 -1176.93 -1182.07 -1177.13 -1178.43 -1327.99 -1340.51 -1349.77 -1354.55 -1356.83 -1346.60 -1347.34 -1346.38 -1346.75 -1339.39 -1351.62 -1350.67 -1357.35 -1279.89 -1283.06 -1292.15 -1324.92 -1360.30 -1392.82 -1493.23 -1710.84 -1961.43 -2185.16 -2590.36 -2671.72 -2775.61 -4008.28 -4068.51 -4124.41 -4141.56 -4172.69 -4186.05 -4200.20 -4197.05 -4196.30 -4199.75 -4193.42 -4200.60 -4207.92 -1974.30 -1983.09 -1989.34 -2011.18 -2008.11 -2027.20 -2024.20 -2014.36 -2008.76 -2010.58 -2023.45 -2021.88 -2028.65 -2044.99 -2062.64 -2077.38 -2094.66 -2104.95 -2108.82
4211.26 4209.94 4105.35 3884.52 3749.15 3687.22 3710.68 3756.28 3748.45 3675.37 3640.95 3629.62 3582.95 3367.36 3355.90 3354.12 3331.76 3323.44 3303.60 3300.55 3335.65 3360.83 3364.84 3356.43 3353.68 3358.72 -70.55 -83.10 -99.87 -100.57 -98.94 -105.55 -116.53 -138.04 -135.75 -137.09 -131.26 -150.56 -161.70 -493.49 -500.92 -503.51 -503.21 -504.72 -491.99 -485.11 -479.89 -481.32 -482.68 -475.33 -477.82 -481.32 -792.54 -794.63 -801.77 -801.23 -787.29 -790.68 -797.93 -791.28 -803.52 -804.65 -808.26 -801.93 -811.86 -1168.24 -1165.05 -1171.32 -1163.76 -1174.78 -1169.19 -1173.94 -1174.82 -1183.19 -1177.81 -1176.54 -1186.45 -1179.27 -1330.31 -1345.06 -1345.31 -1350.50 -1337.19 -1335.70 -1334.54 -1339.45 -1336.95 -1331.78 -1336.63 -1342.51 -1354.49 -1271.89 -1272.65 -1279.81 -1291.89 -1319.30 -1385.31 -1446.01 -1624.54 -1857.68 -1984.17 -2382.00 -2669.97 -2767.79 -4024.29 -4087.31 -4139.03 -4136.96 -4173.51 -4195.64 -4207.20 -4199.91 -4204.17 -4207.41 -4198.87 -4211.84 -4217.92 -1994.31 -2001.88 -2011.36 -2018.28 -2031.85 -2031.57 -2027.65 -2025.49 -2023.33 -2017.64 -2024.92 -2026.67 -2033.43 -2048.71 -2057.03 -2062.60 -2087.70 -2090.51 -2093.80
4132.85 4134.39 4018.99 3898.71 3852.57 3773.41 3765.24 3818.71 3785.54 3777.60 3736.02 3642.50 3564.11 3386.47 3394.34 3372.78 3347.74 3315.07 3300.81 3311.49 3355.69 3362.21 3375.35 3375.30 3376.07 3365.42 -58.50 -63.39 -81.02 -94.86 -104.01 -103.04 -127.45 -137.35 -160.38 -138.08 -154.80 -165.93 -166.17 -495.62 -507.17 -509.53 -501.76 -498.45 -494.03 -485.62 -468.71 -472.59 -479.54 -479.92 -478.69 -488.60 -786.51 -797.36 -802.43 -796.84 -792.61 -785.16 -787.11 -792.69 -801.06 -797.78 -808.75 -802.13 -810.10 -1172.31 -1169.52 -1168.19 -1169.10 -1177.85 -1173.46 -1170.10 -1173.99 -1172.55 -1179.86 -1176.96 -1176.59 -1175.49 -1325.82 -1341.47 -1350.21 -1341.37 -1334.32 -1334.55 -1336.82 -1332.89 -1332.80 -1336.45 -1328.82 -1339.13 -1338.70 -1262.52 -1254.95 -1268.61 -1280.46 -1323.26 -1338.11 -1440.11 -1607.07 -1695.46 -1795.33 -2319.04 -2676.14 -2750.80 -4022.46 -4078.17 -4108.02 -4153.42 -4180.55 -4205.00 -4217.16 -4216.41 -4214.87 -4214.76 -4224.25 -4230.67 -4233.38 -2002.73 -2017.39 -2029.77 -2034.70 -2036.49 -2042.74 -2039.24 -2039.29 -2030.00 -2020.33 -2032.45 -2030.98 -2040.05 -2042.05 -2051.49 -2059.34 -2087.68 -2084.40 -2093.26
4073.08 4069.56 3998.61 3901.33 3857.86 3855.60 3852.15 3827.71 3845.31 3818.14 3785.56 3658.74 3603.35 3427.36 3427.25 3397.69 3372.80 3313.72 3303.72 3344.95 3362.78 3393.24 3399.01 3396.84 3383.96 3366.09 -49.64 -58.50 -73.13 -91.96 -97.24 -117.76 -138.89 -161.45 -161.16 -167.81 -171.66 -174.18 -170.44 -499.01 -514.26 -507.55 -508.88 -499.88 -492.06 -475.70 -461.41 -463.86 -462.24 -466.65 -486.92 -484.10 -788.89 -793.67 -796.74 -781.12 -778.50 -782.76 -784.03 -783.13 -789.41 -794.11 -796.93 -795.16 -807.34 -1165.86 -1164.30 -1168.18 -1167.42 -1173.10 -1173.61 -1171.51 -1179.65 -1176.50 -1176.21 -1179.38 -1171.52 -1176.66 -1332.58 -1336.18 -1337.69 -1333.71 -1325.41 -1329.21 -1336.58 -1327.55 -1329.44 -1325.00 -1324.94 -1329.38 -1329.83 -1247.60 -1252.91 -1264.19 -1272.30 -1279.78 -1298.90 -1328.07 -1417.26 -1598.22 -1865.86 -2016.12 -2710.49 -2734.41 -3977.45 -4059.88 -4100.89 -4152.28 -4182.53 -4211.37 -4212.63 -4223.28 -4229.43 -4229.68 -4234.59 -4235.39 -4242.89 -2009.47 -2035.16 -2041.93 -2043.65 -2042.04 -2045.15 -2038.23 -2033.18 -2031.03 -2024.67 -2031.22 -2031.30 -2036.37 -2049.57 -2051.62 -2063.74 -2073.54 -2085.59 -2077.74
4054.82 4057.93 4000.40 3895.47 3862.45 3862.56 3867.55 3862.52 3859.42 3826.38 3769.06 3724.48 3625.85 3452.45 3426.23 3378.30 3355.20 3319.57 3327.47 3370.61 3395.44 3400.80 3408.88 3392.79 3380.34 3358.06 -47.22 -56.51 -75.25 -84.88 -100.90 -99.32 -138.65 -163.74 -164.97 -179.78 -178.87 -182.48 -187.42 -509.29 -507.59 -516.63 -505.08 -497.56 -492.49 -476.85 -460.64 -456.33 -454.39 -467.95 -477.96 -478.90 -780.88 -781.02 -780.28 -778.46 -774.62 -776.23 -775.64 -780.24 -776.83 -789.38 -789.82 -799.50 -794.54 -1163.27 -1163.01 -1166.63 -1165.93 -1173.86 -1173.17 -1167.20 -1172.10 -1174.15 -1172.66 -1174.74 -1176.36 -1173.85 -1328.88 -1334.03 -1333.73 -1325.99 -1327.40 -1327.88 -1328.98 -1330.19 -1331.01 -1324.61 -1326.68 -1322.33 -1330.13 -1242.84 -1246.04 -1252.87 -1261.89 -1274.91 -1287.25 -1301.08 -1405.24 -1557.24 -1650.55 -2001.46 -2339.12 -2739.78 -3965.09 -4043.52 -4090.99 -4118.35 -4176.09 -4203.52 -4214.75 -4225.33 -4227.47 -4228.94 -4231.92 -4248.61 -4248.55 -2034.73 -2042.41 -2042.02 -2043.72 -2048.16 -2042.89 -2037.93 -2032.35 -2035.24 -2035.74 -2028.96 -2031.76 -2036.48 -2041.73 -2049.21 -2063.93 -2075.75 -2080.58 -2084.67
4030.25 4030.95 4031.80 3837.04 3837.37 3860.58 3859.26 3866.52 3869.59 3845.57 3823.59 3760.24 3690.83 3465.89 3412.99 3363.34 3342.81 3331.73 3353.40 3386.65 3404.63 3389.36 3397.41 3381.60 3362.42 3351.66 -49.98 -54.62 -63.08 -74.75 -97.25 -108.18 -139.59 -140.91 -154.08 -168.44 -182.47 -175.21 -169.76 -499.46 -501.03 -506.15 -501.67 -504.10 -483.35 -472.04 -457.76 -452.39 -450.53 -459.95 -471.40 -478.97 -777.41 -786.30 -779.30 -783.03 -773.87 -778.71 -771.79 -780.25 -785.19 -786.80 -789.16 -792.35 -792.07 -1153.89 -1162.82 -1160.34 -1169.16 -1168.96 -1170.67 -1173.49 -1168.73 -1180.90 -1173.39 -1173.83 -1173.56 -1179.76 -1328.56 -1329.47 -1328.22 -1329.70 -1326.26 -1326.59 -1325.23 -1325.10 -1325.10 -1323.45 -1324.19 -1329.70 -1330.22 -1244.22 -1247.15 -1251.70 -1251.27 -1253.42 -1278.65 -1301.32 -1335.26 -1441.18 -1633.38 -1948.13 -2088.04 -2491.20 -3971.49 -4027.62 -4064.65 -4128.13 -4147.23 -4184.36 -4211.99 -4219.25 -4229.33 -4232.77 -4230.33 -4247.75 -4254.61 -2027.52 -2044.60 -2040.03 -2049.36 -2050.33 -2049.71 -2042.29 -2040.77 -2039.47 -2040.57 -2033.90 -2030.68 -2040.47 -2044.67 -2050.93 -2063.50 -2081.49 -2085.84 -2082.14
4009.45 4007.71 3934.23 3852.59 3827.43 3846.11 3856.63 3860.50 3860.67 3873.34 3870.25 3821.00 3696.64 3464.32 3424.20 3370.69 3343.34 3355.89 3401.37 3411.92 3407.59 3396.32 3377.83 3352.77 3342.58 3329.21 -61.61 -63.62 -59.90 -75.87 -109.63 -107.21 -121.87 -129.89 -143.33 -165.96 -178.62 -167.49 -168.81 -490.80 -485.96 -486.59 -499.42 -492.78 -494.03 -472.55 -453.90 -466.00 -460.73 -470.84 -468.97 -475.11 -780.74 -783.93 -792.53 -791.07 -793.99 -776.71 -776.84 -781.09 -782.48 -787.64 -792.85 -784.72 -794.13 -1149.53 -1157.32 -1157.81 -1161.30 -1166.92 -1165.77 -1167.59 -1173.72 -1175.95 -1176.11 -1169.65 -1176.53 -1179.77 -1318.74 -1323.72 -1321.26 -1325.06 -1325.07 -1326.73 -1321.39 -1331.02 -1327.00 -1330.60 -1324.28 -1326.81 -1327.92 -1242.96 -1242.88 -1242.89 -1249.42 -1249.36 -1261.92 -1272.01 -1295.74 -1407.16 -1583.99 -1706.10 -2038.88 -2259.53 -3800.22 -4014.79 -4035.18 -4090.36 -4141.33 -4176.10 -4195.85 -4213.41 -4216.88 -4229.88 -4230.30 -4241.16 -4254.15 -2024.88 -2029.85 -2039.98 -2050.37 -2051.46 -2047.56 -2047.12 -2043.43 -2042.46 -2036.31 -2034.83 -2033.13 -2037.97 -2038.32 -2056.64 -2063.36 -2072.75 -2082.79 -2081.64
4006.19 4011.12 3918.04 3867.34 3774.05 3749.64 3797.68 3814.65 3851.99 3859.32 3876.69 3806.42 3732.48 3473.73 3444.19 3396.61 3398.29 3407.72 3428.27 3402.62 3399.58 3385.24 3369.86 3339.72 3317.83 3318.23 -82.39 -78.84 -79.50 -93.12 -115.70 -110.59 -115.56 -131.56 -141.78 -151.20 -177.71 -175.89 -150.71 -478.79 -464.57 -474.96 -488.94 -489.94 -478.58 -480.12 -479.60 -479.01 -476.63 -481.58 -472.67 -479.16 -781.50 -787.32 -794.42 -802.70 -794.04 -783.87 -778.91 -779.00 -788.84 -789.48 -791.92 -791.81 -785.54 -1153.96 -1159.18 -1161.96 -1160.24 -1167.30 -1164.23 -1167.76 -1171.55 -1173.31 -1168.26 -1170.84 -1172.03 -1177.31 -1328.91 -1326.93 -1325.74 -1327.22 -1321.68 -1322.41 -1329.00 -1329.75 -1330.11 -1322.45 -1330.35 -1326.28 -1322.90 -1243.38 -1240.83 -1243.92 -1243.80 -1242.72 -1250.41 -1261.81 -1289.87 -1314.94 -1457.16 -1550.90 -1860.90 -2167.76 -3674.75 -3877.78 -4009.66 -4035.65 -4111.34 -4139.99 -4190.30 -4216.62 -4220.93 -4227.87 -4237.61 -4241.53 -4245.06 -2026.67 -2027.26 -2037.87 -2042.78 -2047.53 -2041.21 -2046.67 -2041.57 -2037.39 -2041.53 -2039.16 -2033.83 -2041.71 -2048.44 -2061.43 -2062.70 -2072.83 -2088.14 -2083.00
1581.01 1583.31 1601.04 1398.35 1378.95 1368.52 1425.78 1471.47 1496.20 1511.25 1527.96 1469.44 1402.20 2513.07 2418.93 2456.47 2414.04 2396.10 2381.25 2342.05 2332.37 2313.82 2306.14 2260.72 2264.29 2258.57 -99.08 -79.03 -79.84 -109.44 -120.21 -119.90 -127.07 -131.32 -153.60 -158.99 -175.07 -168.09 -152.89 -495.01 -494.10 -492.94 -494.22 -503.61 -506.46 -508.15 -515.65 -509.59 -520.73 -518.92 -517.95 -513.95 -695.03 -705.19 -723.01 -714.93 -707.68 -707.06 -700.77 -701.72 -697.11 -701.36 -707.12 -707.64 -703.38 -1126.23 -1128.69 -1127.62 -1127.02 -1136.78 -1139.05 -1137.85 -1137.78 -1136.49 -1139.47 -1142.21 -1143.94 -1141.95 -1333.14 -1328.29 -1334.29 -1332.05 -1327.94 -1332.09 -1337.14 -1331.69 -1330.40 -1334.34 -1337.63 -1328.79 -1332.13 -1495.48 -1492.25 -1492.60 -1495.93 -1499.34 -1499.33 -1511.97 -1529.09 -1541.92 -1598.81 -1736.16 -1996.04 -2214.50 -3485.69 -3664.99 -3704.36 -3812.21 -3844.72 -3899.76 -3916.35 -3963.09 -3990.02 -3994.57 -3997.07 -4000.62 -4009.37 -2012.36 -2016.53 -2022.10 -2028.21 -2028.83 -2031.82 -2038.93 -2038.31 -2039.79 -2032.56 -2034.90 -2037.30 -2042.08 -2041.84 -2048.77 -2063.87 -2084.64 -2087.85 -2082.90
1549.96 1548.54 1462.70 1376.38 1322.23 1362.25 1416.66 1461.06 1485.97 1494.02 1501.87 1513.36 1475.86 2600.13 2531.07 2485.81 2470.48 2443.61 2365.84 2321.02 2327.53 2302.83 2273.34 2263.53 2257.32 2251.61 -111.45 -98.26 -103.26 -107.85 -139.50 -135.63 -146.90 -171.54 -163.31 -165.28 -163.72 -155.91 -150.40 -498.40 -484.40 -487.47 -503.38 -497.31 -494.47 -506.12 -520.74 -526.86 -530.67 -527.78 -520.60 -523.23 -700.32 -708.11 -720.65 -718.84 -717.48 -710.54 -701.30 -706.88 -705.21 -712.11 -716.95 -712.54 -707.83 -1133.25 -1137.54 -1134.09 -1137.00 -1137.70 -1144.63 -1135.31 -1131.30 -1143.24 -1141.03 -1135.12 -1140.07 -1142.70 -1326.64 -1330.34 -1331.43 -1331.79 -1338.06 -1336.39 -1331.18 -1335.80 -1335.29 -1329.76 -1332.68 -1335.01 -1336.69 -1491.53 -1490.98 -1494.40 -1494.57 -1494.39 -1494.36 -1504.62 -1507.39 -1566.38 -1620.40 -1664.11 -1879.82 -2256.75 -3335.66 -3549.15 -3615.07 -3722.25 -3840.09 -3858.78 -3902.94 -3923.60 -3963.55 -3974.12 -3997.78 -3991.48 -3999.98 -2002.88 -2004.81 -2012.13 -2024.15 -2020.33 -2031.12 -2031.92 -2033.22 -2034.73 -2036.23 -2038.57 -2040.35 -2034.21 -2047.65 -2055.72 -2068.64 -2094.41 -2088.16 -2087.60
1538.01 1534.74 1446.11 1355.41 1321.19 1370.93 1411.05 1459.40 1460.65 1476.81 1490.07 1480.59 1504.81 2679.28 2578.51 2556.15 2487.34 2429.68 2351.10 2346.28 2345.72 2314.06 2308.83 2286.12 2273.20 2245.00 -118.67 -124.10 -127.25 -139.68 -150.40 -156.13 -167.12 -167.29 -178.16 -164.48 -161.99 -150.06 -140.82 -487.54 -475.93 -476.90 -486.17 -489.75 -500.56 -519.42 -519.53 -535.91 -533.38 -536.19 -526.21 -534.35 -709.70 -711.25 -717.00 -723.50 -720.14 -718.51 -714.46 -709.28 -712.73 -710.67 -722.63 -726.63 -723.82 -1134.89 -1139.29 -1139.09 -1138.17 -1131.86 -1143.57 -1142.55 -1141.56 -1139.30 -1142.81 -1140.79 -1141.14 -1142.90 -1323.95 -1335.14 -1330.76 -1330.95 -1332.56 -1334.67 -1335.94 -1334.31 -1334.67 -1331.44 -1331.82 -1332.06 -1334.03 -1493.44 -1485.86 -1490.67 -1488.64 -1494.92 -1496.41 -1499.16 -1505.46 -1541.38 -1613.55 -1683.28 -1902.49 -2223.57 -3259.73 -3339.70 -3505.69 -3591.18 -3767.83 -3826.68 -3870.96 -3921.08 -3940.66 -3952.85 -3961.98 -3981.12 -3978.98 -1994.20 -2005.81 -2009.81 -2014.77 -2016.91 -2029.43 -2027.79 -2032.54 -2035.37 -2035.31 -2038.40 -2039.79 -2041.25 -2052.39 -2066.08 -2069.24 -2082.63 -2095.35 -2092.02
1463.83 1465.66 1474.43 1279.41 1256.12 1312.70 1371.44 1393.24 1418.89 1423.42 1449.65 1476.38 1485.27 2654.85 2610.59 2581.50 2508.62 2448.37 2383.78 2384.21 2351.28 2324.38 2308.35 2291.61 2275.25 2249.19 -143.55 -138.68 -132.61 -139.44 -159.47 -161.64 -173.58 -174.46 -165.05 -153.24 -141.78 -133.51 -134.79 -466.89 -470.66 -469.86 -480.81 -487.58 -501.48 -503.33 -537.44 -540.87 -543.24 -535.39 -538.19 -539.91 -723.53 -716.46 -715.99 -719.91 -717.22 -719.55 -722.59 -716.53 -716.48 -722.37 -718.07 -727.67 -726.19 -1142.29 -1139.31 -1134.14 -1137.50 -1136.34 -1146.37 -1143.07 -1143.83 -1144.87 -1143.33 -1136.68 -1136.89 -1146.96 -1331.05 -1331.83 -1337.93 -1329.18 -1327.88 -1331.30 -1336.69 -1330.18 -1332.99 -1332.62 -1333.37 -1329.02 -1336.38 -1493.00 -1491.45 -1497.85 -1492.15 -1488.78 -1499.86 -1487.10 -1498.34 -1553.09 -1586.61 -1664.37 -1818.60 -1842.80 -2937.29 -3349.62 -3416.91 -3491.88 -3655.78 -3782.87 -3798.81 -3867.90 -3913.10 -3924.24 -3955.97 -3958.85 -3973.47 -1990.59 -1990.81 -2001.70 -2016.89 -2016.78 -2028.04 -2031.92 -2038.43 -2045.70 -2036.02 -2039.32 -2046.13 -2057.86 -2057.60 -2078.81 -2076.95 -2095.66 -2097.73 -2099.44
1432.82 1438.16 1372.12 1267.23 1248.35 1251.99 1294.36 1326.39 1377.11 1403.57 1422.57 1426.05 1447.74 2600.13 2532.77 2522.09 2541.00 2475.86 2459.20 2405.40 2356.48 2299.41 2288.38 2276.74 2273.88 2245.93 -142.32 -145.45 -147.52 -149.01 -141.39 -151.92 -170.83 -175.89 -156.56 -137.85 -133.05 -121.58 -119.39 -468.24 -466.30 -461.52 -477.33 -490.80 -512.26 -519.00 -539.33 -537.92 -539.61 -529.65 -537.75 -537.15 -721.92 -718.38 -718.74 -712.37 -718.97 -717.35 -723.96 -721.77 -721.10 -714.77 -720.71 -719.14 -723.07 -1140.66 -1140.17 -1137.59 -1146.43 -1142.44 -1141.94 -1144.65 -1144.88 -1146.87 -1149.10 -1147.05 -1145.57 -1140.93 -1336.21 -1333.43 -1332.69 -1332.17 -1328.14 -1330.67 -1331.34 -1330.05 -1332.37 -1328.34 -1336.86 -1332.84 -1334.55 -1495.67 -1492.65 -1491.14 -1496.96 -1493.25 -1495.04 -1495.16 -1489.82 -1504.48 -1556.22 -1622.11 -1659.89 -1926.92 -2974.75 -3267.41 -3324.43 -3501.48 -3614.34 -3656.64 -3750.83 -3831.04 -3855.86 -3904.78 -3919.52 -3927.60 -3957.32 -1984.68 -1987.13 -2001.26 -2004.05 -2016.69 -2027.89 -2030.42 -2040.04 -2048.08 -2047.26 -2052.85 -2055.27 -2062.59 -2073.47 -2072.18 -2081.98 -2104.19 -2109.35 -2119.24
1436.74 1442.51 1386.01 1282.64 1257.03 1224.34 1241.67 1264.76 1305.17 1327.74 1332.02 1327.63 1315.24 2479.29 2436.11 2496.24 2524.80 2515.34 2469.65 2416.42 2345.07 2324.98 2287.77 2263.90 2254.41 2246.75 -142.11 -133.96 -132.61 -124.06 -127.52 -149.55 -173.29 -157.76 -138.21 -121.00 -121.40 -110.89 -109.54 -473.67 -472.53 -471.31 -476.82 -512.36 -515.91 -529.30 -542.86 -543.62 -537.92 -525.98 -526.49 -541.06 -725.27 -717.07 -714.28 -702.52 -706.17 -711.87 -725.65 -719.13 -722.35 -718.63 -717.05 -715.30 -718.76 -1137.84 -1137.68 -1142.92 -1142.00 -1148.29 -1145.93 -1137.87 -1143.94 -1146.13 -1142.44 -1145.58 -1144.55 -1143.51 -1328.22 -1331.43 -1331.12 -1332.43 -1330.60 -1334.16 -1330.12 -1336.13 -1329.93 -1332.11 -1325.02 -1329.53 -1330.90 -1497.31 -1494.41 -1499.52 -1495.29 -1490.99 -1498.38 -1494.37 -1498.58 -1508.05 -1529.36 -1575.82 -1655.74 -1995.32 -2937.96 -3210.69 -3357.33 -3509.31 -3557.36 -3627.93 -3690.49 -3753.20 -3786.22 -3871.02 -3904.47 -3912.25 -3957.37 -1965.69 -1982.33 -1998.91 -2015.50 -2023.02 -2024.65 -2035.54 -2040.51 -2049.00 -2046.82 -2051.92 -2057.12 -2070.76 -2077.54 -2090.04 -2088.44 -2110.08 -2122.35 -2124.98
1508.80 1509.16 1421.92 1314.38 1304.38 1238.07 1213.10 1244.92 1258.77 1267.17 1250.37 1246.50 1245.20 2399.13 2383.27 2435.97 2513.30 2500.69 2459.92 2416.20 2355.19 2315.32 2288.21 2273.00 2254.68 2246.05 -116.67 -120.51 -109.51 -122.01 -129.32 -150.70 -153.80 -146.93 -139.24 -118.13 -120.18 -106.76 -120.52 -483.42 -492.39 -491.55 -512.17 -508.00 -518.26 -532.82 -539.22 -536.82 -532.83 -520.08 -522.85 -515.20 -704.05 -701.08 -701.91 -697.69 -705.28 -714.65 -716.33 -719.08 -719.40 -717.43 -715.77 -716.79 -718.93 -1141.95 -1145.21 -1139.31 -1148.51 -1142.32 -1144.80 -1138.52 -1132.90 -1145.13 -1145.47 -1140.91 -1145.36 -1146.04 -1333.13 -1332.64 -1331.93 -1334.26 -1332.71 -1334.80 -1335.95 -1335.28 -1326.21 -1336.50 -1329.16 -1336.00 -1329.98 -1490.86 -1487.15 -1494.48 -1495.80 -1492.58 -1500.63 -1499.88 -1505.24 -1517.31 -1559.91 -1620.38 -1650.17 -1825.09 -2844.15 -3196.00 -3302.42 -3433.81 -3473.15 -3551.86 -3613.85 -3663.97 -3776.34 -3829.08 -3863.38 -3922.77 -3957.79 -1966.38 -1985.22 -1996.91 -2022.97 -2033.41 -2037.30 -2042.89 -2043.48 -2048.70 -2060.55 -2065.61 -2073.92 -2075.81 -2091.11 -2100.06 -2106.57 -2119.59 -2134.27 -2127.14
1513.81 1512.03 1441.64 1365.77 1301.87 1240.71 1210.16 1230.58 1233.34 1248.99 1246.54 1218.22 1204.90 2357.57 2373.26 2424.57 2478.27 2491.79 2461.46 2410.43 2388.09 2329.00 2290.32 2287.29 2274.59 2264.36 -112.24 -104.65 -103.52 -114.54 -146.02 -145.50 -138.52 -133.08 -112.73 -118.14 -109.80 -126.43 -131.14 -514.20 -512.68 -504.40 -513.46 -517.21 -522.46 -535.99 -542.27 -534.22 -526.04 -519.08 -518.08 -516.45 -692.44 -699.31 -693.37 -690.28 -686.98 -702.77 -712.31 -711.89 -715.73 -714.16 -720.24 -721.92 -726.60 -1141.08 -1145.15 -1145.15 -1139.31 -1145.58 -1141.67 -1134.57 -1137.11 -1141.53 -1145.34 -1140.51 -1144.36 -1140.76 -1334.80 -1336.46 -1329.38 -1327.27 -1328.89 -1329.40 -1337.47 -1330.46 -1332.26 -1338.31 -1332.72 -1331.20 -1332.21 -1492.47 -1493.47 -1491.10 -1497.57 -1488.60 -1496.07 -1494.73 -1518.08 -1545.56 -1586.05 -1640.17 -1654.69 -1790.64 -2769.56 -2968.96 -3175.01 -3278.56 -3426.87 -3470.92 -3553.40 -3638.00 -3719.73 -3794.58 -3847.04 -3927.82 -3962.19 -1970.17 -1991.07 -2004.67 -2030.99 -2026.02 -2035.90 -2045.71 -2055.04 -2056.87 -2071.26 -2068.89 -2080.44 -2095.28 -2089.69 -2102.94 -2104.94 -2126.37 -2144.69 -2141.73
1505.93 1505.73 1508.34 1322.68 1308.08 1255.31 1211.38 1209.67 1207.25 1243.18 1243.31 1221.92 1207.70 2334.39 2342.23 2388.88 2459.20 2479.79 2449.09 2426.34 2402.17 2312.84 2297.60 2280.86 2285.02 2280.67 -92.67 -107.69 -116.57 -133.57 -142.21 -132.62 -125.87 -108.81 -110.87 -107.65 -118.98 -122.43 -140.25 -515.46 -519.06 -523.42 -528.23 -528.62 -538.88 -546.41 -531.18 -518.06 -520.70 -516.34 -512.49 -501.74 -685.84 -687.12 -690.86 -689.03 -683.46 -691.00 -701.71 -708.15 -713.27 -724.94 -720.18 -716.13 -715.73 -1141.53 -1143.64 -1145.41 -1143.88 -1137.39 -1141.21 -1137.83 -1137.10 -1145.69 -1147.73 -1142.52 -1141.95 -1146.39 -1333.07 -1324.70 -1328.88 -1336.33 -1330.39 -1325.68 -1334.01 -1334.40 -1334.19 -1331.49 -1338.69 -1337.25 -1331.60 -1490.86 -1494.28 -1492.27 -1495.85 -1490.00 -1494.58 -1501.00 -1513.67 -1535.88 -1568.74 -1577.00 -1615.99 -1805.26 -2815.65 -3023.74 -3199.16 -3235.97 -3279.82 -3392.59 -3462.25 -3557.07 -3607.73 -3772.17 -3796.52 -3900.83 -3946.46 -1967.35 -2004.56 -2007.16 -2023.11 -2032.46 -2033.71 -2044.25 -2050.97 -2061.24 -2071.19 -2075.51 -2083.60 -2092.70 -2093.78 -2104.72 -2119.97 -2146.34 -2153.80 -2153.75
1502.21 1509.56 1433.66 1329.60 1287.36 1248.41 1209.40 1177.66 1194.76 1200.81 1232.89 1219.20 1187.83 2320.77 2331.34 2390.23 2404.72 2440.07 2449.24 2395.37 2362.28 2307.23 2301.75 2274.87 2275.81 2270.38 -99.41 -120.66 -137.83 -134.64 -123.50 -112.86 -105.13 -112.14 -93.87 -101.79 -126.36 -129.59 -155.02 -524.41 -539.97 -534.09 -536.03 -539.40 -537.65 -536.45 -523.27 -513.69 -510.43 -513.04 -504.21 -494.13 -677.49 -677.22 -683.27 -685.75 -688.18 -697.81 -696.75 -704.54 -714.83 -720.35 -724.82 -720.39 -720.99 -1140.39 -1140.00 -1135.77 -1138.79 -1140.62 -1140.50 -1140.67 -1135.35 -1140.29 -1137.30 -1145.83 -1139.86 -1142.22 -1328.88 -1324.90 -1331.48 -1334.19 -1335.50 -1333.84 -1335.69 -1327.19 -1331.01 -1330.42 -1335.17 -1335.41 -1330.87 -1494.50 -1495.95 -1491.64 -1495.56 -1488.01 -1498.49 -1508.34 -1505.94 -1521.23 -1557.80 -1570.71 -1574.51 -1798.48 -2811.94 -2962.16 -3098.20 -3221.35 -3241.90 -3314.68 -3412.55 -3442.11 -3606.49 -3701.12 -3804.74 -3849.99 -3906.76 -1969.92 -2006.43 -2014.20 -2029.52 -2032.84 -2033.18 -2043.61 -2050.33 -2057.01 -2055.28 -2072.45 -2082.36 -2096.07 -2100.49 -2115.06 -2124.77 -2146.74 -2156.54 -2152.57
1515.61 1512.99 1435.92 1321.15 1256.52 1214.19 1180.67 1172.20 1172.54 1191.58 1209.29 1190.43 1174.29 2302.01 2327.60 2361.53 2402.23 2425.56 2426.87 2392.72 2336.49 2323.63 2294.17 2285.77 2269.90 2256.66 -107.06 -127.27 -125.89 -119.49 -114.22 -99.14 -95.40 -98.49 -97.41 -103.13 -123.59 -152.55 -156.95 -518.32 -527.44 -526.60 -531.07 -535.52 -534.19 -524.87 -515.70 -501.17 -495.20 -498.76 -493.96 -503.83 -680.66 -680.25 -685.60 -686.33 -698.39 -702.17 -707.85 -713.94 -724.10 -723.38 -719.89 -716.86 -713.47 -1129.34 -1130.22 -1135.79 -1140.34 -1137.92 -1138.88 -1136.92 -1139.96 -1140.71 -1142.25 -1134.52 -1141.76 -1142.43 -1325.52 -1334.14 -1336.13 -1328.95 -1330.11 -1332.06 -1334.89 -1334.98 -1336.10 -1331.46 -1331.19 -1329.29 -1330.27 -1489.45 -1492.68 -1489.30 -1498.71 -1487.90 -1492.60 -1492.23 -1494.13 -1501.17 -1506.21 -1554.81 -1579.47 -1755.55 -2730.02 -2997.44 -3035.97 -3151.63 -3220.77 -3279.88 -3317.00 -3469.23 -3513.70 -3698.17 -3783.40 -3817.19 -3879.98 -1995.32 -2007.57 -2020.26 -2020.99 -2023.12 -2030.68 -2035.84 -2039.65 -2050.99 -2061.10 -2071.64 -2081.25 -2085.54 -2098.99 -2105.42 -2118.99 -2136.08 -2152.92 -2150.56
1503.47 1497.73 1414.45 1321.61 1253.33 1169.84 1166.20 1161.83 1187.78 1192.13 1178.37 1183.13 1150.81 2301.74 2310.45 2382.92 2400.34 2426.70 2422.22 2398.72 2377.68 2332.37 2321.31 2299.94 2290.50 2266.20 -112.21 -109.59 -114.27 -108.43 -93.02 -84.87 -82.08 -78.47 -88.73 -100.23 -121.94 -123.91 -141.26 -506.74 -512.98 -515.34 -518.50 -527.54 -526.05 -522.92 -507.47 -496.76 -488.98 -483.80 -490.00 -496.35 -695.14 -693.46 -698.30 -686.78 -699.37 -705.93 -711.68 -717.79 -711.99 -719.66 -712.38 -714.73 -706.83 -1126.41 -1129.40 -1137.37 -1144.34 -1151.02 -1140.94 -1137.67 -1132.46 -1134.09 -1128.26 -1133.99 -1136.41 -1144.43 -1333.53 -1329.44 -1332.55 -1334.21 -1333.42 -1330.94 -1329.41 -1331.84 -1334.54 -1327.99 -1333.70 -1336.05 -1338.15 -1495.25 -1494.14 -1488.74 -1494.95 -1494.81 -1495.87 -1493.21 -1491.19 -1496.69 -1522.67 -1544.93 -1608.88 -1643.92 -2533.50 -2793.25 -3073.54 -3095.82 -3186.91 -3202.43 -3260.97 -3428.21 -3501.10 -3691.11 -3762.78 -3804.46 -3836.01 -1948.02 -1981.79 -1993.10 -1995.59 -2016.25 -2014.93 -2032.28 -2029.96 -2036.78 -2054.17 -2071.43 -2083.65 -2082.57 -2098.21 -2112.85 -2119.72 -2138.11 -2148.81 -2149.09
3632.28 3630.83 3559.54 3441.53 3407.36 3361.26 3337.40 3312.54 3345.07 3334.57 3343.45 3328.38 3313.20 3699.63 3727.46 3790.54 3817.83 3847.78 3837.36 3811.51 3809.34 3777.57 3755.27 3744.64 3717.89 3700.49 1431.45 1418.90 1415.95 1407.97 1426.22 1450.98 1443.92 1441.38 1434.97 1419.45 1400.84 1411.42 1392.99 -143.11 -155.24 -163.95 -166.93 -175.03 -182.60 -174.63 -160.10 -150.61 -128.37 -126.52 -134.35 -141.64 -374.21 -373.43 -386.98 -380.16 -390.50 -387.38 -399.12 -398.06 -388.86 -385.48 -386.98 -379.11 -396.72 -592.93 -600.08 -602.62 -609.13 -599.87 -607.56 -593.77 -589.31 -588.29 -584.59 -593.56 -599.09 -602.89 -711.12 -717.30 -721.08 -717.81 -726.31 -720.28 -721.20 -718.89 -720.24 -719.24 -720.27 -719.27 -719.28 -1304.15 -1295.35 -1299.73 -1295.95 -1298.56 -1301.16 -1293.22 -1300.56 -1305.12 -1299.23 -1344.13 -1423.68 -1439.79 -2596.54 -2807.15 -2946.39 -3049.07 -3233.55 -3273.89 -3301.46 -3394.06 -3635.50 -3748.47 -3800.55 -3876.34 -3922.60 -1899.44 -1944.26 -1959.08 -1962.83 -1984.66 -2005.37 -2017.76 -2020.85 -2031.77 -2039.85 -2061.89 -2073.04 -2083.15 -2089.59 -2101.85 -2114.44 -2123.66 -2142.73 -2143.89
3596.42 3594.86 3505.13 3397.63 3375.08 3373.81 3336.37 3327.97 3303.19 3315.32 3301.36 3315.05 3314.87 3706.36 3721.84 3751.17 3791.35 3796.26 3827.15 3810.29 3806.64 3804.12 3792.54 3763.78 3740.67 3709.61 1434.95 1434.76 1431.84 1429.81 1431.54 1442.31 1438.79 1441.66 1432.64 1409.70 1402.83 1399.79 1378.75 -144.67 -164.11 -168.46 -175.15 -174.23 -176.59 -171.51 -172.27 -156.36 -139.56 -139.48 -137.00 -138.72 -358.29 -372.16 -369.06 -372.84 -379.89 -382.98 -396.17 -383.20 -377.04 -375.40 -377.45 -388.34 -388.85 -601.17 -607.05 -598.80 -600.41 -593.10 -589.10 -597.75 -590.34 -589.38 -587.10 -591.87 -604.11 -603.02 -718.65 -717.29 -720.53 -722.59 -721.30 -724.08 -722.96 -721.89 -718.28 -713.35 -723.26 -714.37 -715.91 -1297.83 -1299.10 -1303.59 -1301.19 -1293.95 -1296.18 -1300.02 -1294.18 -1302.66 -1303.43 -1304.45 -1370.31 -1429.40 -2485.84 -2744.02 -2803.53 -2948.09 -3006.42 -3133.73 -3277.62 -3383.90 -3539.34 -3680.88 -3771.20 -3832.91 -3874.56 -1851.20 -1900.69 -1907.74 -1950.07 -1932.80 -1957.63 -1963.50 -1995.28 -2000.01 -2013.25 -2048.46 -2064.09 -2069.84 -2092.30 -2095.03 -2105.75 -2126.95 -2134.40 -2127.78
3598.51 3595.19 3504.02 3373.31 3361.15 3346.24 3343.98 3323.36 3312.98 3304.29 3296.66 3289.18 3287.92 3681.35 3696.12 3706.94 3725.34 3783.13 3780.66 3795.26 3805.31 3806.80 3798.70 3780.70 3756.23 3718.60 1434.48 1435.43 1437.52 1449.16 1450.72 1445.27 1433.40 1430.80 1413.94 1394.24 1377.50 1379.51 1378.95 -163.21 -177.64 -178.61 -178.83 -169.77 -157.65 -157.28 -165.18 -159.71 -141.07 -127.10 -134.36 -133.17 -354.81 -352.94 -362.01 -366.95 -367.16 -372.95 -386.61 -368.10 -366.95 -368.25 -373.29 -383.54 -389.20 -596.95 -596.24 -595.46 -589.27 -589.59 -585.21 -588.63 -589.66 -578.98 -582.87 -598.92 -597.82 -600.73 -716.71 -712.70 -714.58 -726.63 -716.67 -719.79 -715.62 -719.40 -726.55 -728.70 -724.34 -719.86 -720.45 -1297.75 -1295.96 -1292.89 -1304.18 -1296.85 -1303.60 -1299.42 -1296.45 -1300.01 -1300.57 -1303.66 -1303.24 -1351.27 -2367.61 -2513.12 -2651.07 -2667.09 -2884.58 -3043.96 -3181.69 -3267.42 -3454.47 -3598.39 -3731.60 -3773.44 -3852.46 -1777.31 -1824.21 -1853.43 -1852.47 -1843.60 -1856.20 -1883.79 -1890.23 -1943.79 -1988.74 -2009.17 -2044.79 -2048.01 -2064.46 -2080.82 -2085.83 -2105.86 -2114.27 -2117.48
3680.10 3675.84 3544.71 3384.02 3360.72 3347.06 3344.19 3335.44 3317.25 3307.95 3304.34 3291.51 3297.53 3698.42 3687.58 3698.68 3687.45 3721.07 3735.14 3780.53 3787.12 3794.09 3789.38 3778.97 3785.71 3747.97 1471.64 1459.56 1458.58 1461.31 1455.18 1441.82 1423.28 1421.13 1399.16 1381.09 1364.95 1371.70 1361.23 -162.58 -173.55 -182.52 -175.10 -167.99 -155.39 -150.20 -148.11 -138.03 -135.69 -131.10 -125.96 -131.44 -349.92 -354.34 -348.70 -356.91 -360.69 -360.84 -365.28 -359.85 -353.70 -355.40 -369.56 -376.04 -378.85 -595.99 -596.67 -580.17 -575.05 -585.69 -588.41 -576.00 -582.47 -584.35 -592.56 -592.09 -596.95 -591.66 -708.12 -709.40 -713.47 -717.42 -720.11 -715.87 -718.63 -716.31 -715.40 -721.01 -720.84 -720.85 -723.24 -1301.06 -1296.93 -1298.34 -1292.38 -1295.69 -1296.87 -1300.43 -1297.87 -1299.76 -1297.76 -1305.36 -1296.86 -1314.22 -2325.67 -2329.77 -2517.32 -2592.74 -2703.52 -2876.98 -2969.45 -3114.96 -3407.30 -3501.82 -3600.19 -3664.21 -3778.67 -1726.67 -1763.00 -1764.93 -1770.12 -1821.36 -1834.71 -1869.42 -1875.04 -1896.49 -1931.33 -1955.31 -2012.63 -2040.09 -2051.83 -2064.97 -2085.45 -2099.86 -2097.45 -2102.27
3630.27 3626.03 3551.14 3391.33 3376.61 3368.61 3384.80 3344.72 3353.80 3325.78 3326.79 3311.40 3301.83 3713.79 3704.74 3684.80 3674.78 3701.01 3728.68 3707.65 3755.41 3768.74 3795.33 3789.35 3794.82 3771.94 1477.56 1464.27 1463.38 1452.38 1433.50 1426.91 1419.86 1402.36 1391.26 1376.92 1360.09 1363.54 1346.89 -171.42 -169.41 -166.96 -177.57 -174.86 -163.17 -145.85 -135.00 -122.97 -121.00 -121.47 -108.79 -125.34 -342.82 -344.73 -340.85 -341.13 -350.38 -349.84 -358.52 -356.51 -351.39 -352.21 -354.19 -369.45 -381.08 -586.05 -587.66 -584.06 -574.38 -572.01 -575.76 -574.51 -576.76 -575.05 -584.45 -591.42 -586.02 -594.60 -706.17 -708.74 -708.76 -712.28 -713.73 -720.67 -712.78 -717.00 -721.52 -721.51 -722.22 -719.87 -722.51 -1296.68 -1298.17 -1302.80 -1305.92 -1299.48 -1301.79 -1298.67 -1296.11 -1300.86 -1291.23 -1298.60 -1305.75 -1316.87 -2327.95 -2329.30 -2330.65 -2440.16 -2621.32 -2683.00 -2881.27 -3122.62 -3218.43 -3429.28 -3560.37 -3604.46 -3655.04 -1543.99 -1652.48 -1739.54 -1720.29 -1750.44 -1727.62 -1787.66 -1815.83 -1866.93 -1864.77 -1910.55 -1997.24 -2014.12 -2011.86 -2043.12 -2052.23 -2071.90 -2076.13 -2072.38
3717.89 3717.60 3676.83 3397.48 3400.37 3414.69 3426.36 3407.43 3359.54 3354.93 3356.65 3326.70 3330.67 3746.35 3730.49 3686.51 3670.88 3699.20 3709.99 3702.38 3704.78 3733.14 3761.29 3779.61 3786.45 3782.79 1509.88 1479.58 1465.52 1451.24 1427.15 1401.09 1394.07 1395.80 1369.11 1364.16 1344.01 1342.40 1349.44 -166.97 -147.93 -160.22 -170.19 -174.71 -166.46 -147.51 -114.69 -111.97 -109.09 -109.66 -108.27 -108.96 -329.52 -335.87 -329.45 -339.64 -333.72 -348.94 -345.73 -351.39 -345.97 -346.70 -355.07 -361.18 -365.20 -577.88 -574.48 -579.04 -568.69 -575.31 -570.01 -574.87 -564.14 -573.77 -576.26 -578.62 -582.13 -587.96 -699.44 -701.15 -708.33 -712.80 -713.53 -713.54 -712.24 -717.68 -717.38 -717.35 -715.71 -714.98 -721.92 -1292.58 -1301.20 -1294.18 -1299.37 -1304.34 -1294.41 -1297.18 -1304.31 -1297.90 -1295.43 -1304.47 -1304.75 -1306.35 -2325.42 -2317.95 -2332.19 -2331.83 -2436.99 -2666.83 -2821.99 -3130.50 -3268.37 -3324.67 -3492.25 -3552.99 -3572.51 -1505.75 -1535.06 -1605.96 -1627.03 -1636.75 -1659.76 -1708.67 -1715.32 -1773.51 -1820.99 -1824.81 -1925.67 -1976.07 -2004.81 -2023.32 -2015.70 -2037.83 -2044.34 -2044.00
3648.43 3650.71 3556.53 3436.36 3411.56 3445.54 3492.22 3482.35 3420.20 3384.33 3360.86 3357.76 3348.06 3742.41 3725.35 3689.44 3672.94 3677.54 3688.27 3682.35 3692.26 3733.21 3745.55 3759.95 3766.18 3786.41 1522.91 1496.43 1469.42 1454.38 1434.01 1407.90 1389.80 1380.24 1370.49 1353.23 1342.15 1353.91 1358.17 -148.39 -148.43 -143.86 -159.88 -164.98 -159.26 -153.58 -111.13 -90.42 -100.62 -96.24 -102.97 -108.07 -333.63 -332.45 -330.03 -343.50 -342.78 -344.22 -348.93 -354.95 -348.26 -344.82 -351.88 -354.38 -355.34 -562.25 -570.04 -565.34 -576.39 -571.07 -575.07 -571.14 -578.53 -569.00 -582.51 -576.42 -585.89 -582.99 -686.43 -696.08 -712.84 -712.50 -708.98 -712.04 -704.93 -712.44 -711.47 -710.95 -720.96 -722.11 -722.29 -1294.84 -1300.51 -1300.09 -1298.99 -1299.58 -1301.12 -1301.98 -1298.81 -1296.87 -1300.52 -1295.36 -1301.12 -1305.73 -2315.53 -2319.47 -2317.01 -2328.14 -2423.07 -2512.49 -2913.18 -3111.26 -3265.24 -3280.40 -3381.48 -3496.33 -3503.86 -1392.58 -1394.38 -1392.10 -1471.02 -1505.92 -1542.42 -1601.74 -1645.68 -1712.79 -1740.52 -1799.25 -1844.82 -1900.08 -1926.89 -1937.17 -1974.74 -2008.72 -1999.53 -1994.42
3651.49 3655.78 3540.99 3414.23 3455.42 3508.52 3538.89 3543.85 3467.72 3439.20 3387.86 3378.55 3372.59 3745.00 3745.40 3720.05 3683.75 3670.19 3664.75 3659.91 3670.47 3693.82 3717.80 3733.58 3763.13 3777.16 1531.48 1502.93 1503.95 1478.31 1448.07 1401.21 1393.70 1383.48 1363.07 1351.77 1341.92 1355.94 1367.46 -132.52 -125.74 -137.06 -153.59 -162.80 -158.87 -136.08 -106.54 -89.24 -98.06 -97.16 -104.71 -106.01 -340.95 -346.82 -338.18 -350.30 -357.32 -360.38 -364.13 -352.59 -350.87 -354.12 -350.09 -355.24 -350.89 -565.20 -557.85 -568.56 -562.87 -572.60 -571.67 -571.98 -569.00 -575.44 -578.53 -591.18 -595.56 -587.65 -705.88 -699.26 -710.75 -707.09 -704.96 -706.12 -714.38 -710.53 -707.58 -713.47 -710.08 -716.48 -711.66 -1291.57 -1297.36 -1301.03 -1298.35 -1297.44 -1300.95 -1297.98 -1303.22 -1300.72 -1298.17 -1297.46 -1301.31 -1303.31 -2308.07 -2316.39 -2312.73 -2312.19 -2323.50 -2464.71 -2645.81 -3000.16 -3112.28 -3212.11 -3352.94 -3423.41 -3417.42 -1332.41 -1322.03 -1369.47 -1391.06 -1426.65 -1489.11 -1496.83 -1517.23 -1604.47 -1695.51 -1723.73 -1753.26 -1769.36 -1825.10 -1891.88 -1900.81 -1950.85 -1954.31 -1952.02
3776.85 3766.64 3622.94 3459.10 3530.68 3584.09 3568.89 3575.05 3527.27 3450.02 3417.05 3407.99 3384.52 3760.81 3735.07 3732.34 3721.48 3705.90 3672.67 3672.30 3654.56 3672.33 3690.60 3724.67 3736.56 3767.77 1509.07 1511.05 1484.53 1469.85 1466.62 1430.81 1400.24 1387.15 1369.78 1355.20 1343.98 1347.70 1363.52 -127.66 -116.91 -122.32 -138.73 -146.63 -146.72 -117.22 -102.78 -91.98 -97.41 -107.87 -111.64 -121.41 -339.00 -348.76 -357.71 -358.88 -366.98 -373.98 -366.72 -359.88 -357.70 -355.29 -360.77 -350.21 -357.73 -562.49 -564.99 -568.55 -561.10 -575.78 -582.96 -582.56 -589.11 -588.20 -588.20 -601.03 -606.09 -601.31 -704.32 -706.26 -711.61 -710.53 -709.35 -714.15 -704.77 -709.54 -714.39 -709.57 -709.98 -713.29 -720.77 -1295.80 -1300.67 -1299.33 -1293.62 -1299.54 -1298.00 -1303.76 -1296.27 -1298.86 -1300.27 -1294.41 -1297.44 -1303.72 -2314.21 -2311.43 -2311.42 -2314.45 -2319.84 -2414.42 -2567.16 -2832.74 -2939.17 -3069.48 -3191.61 -3280.25 -3396.83 -1264.92 -1285.48 -1310.54 -1353.25 -1359.99 -1386.85 -1407.23 -1467.19 -1469.63 -1522.29 -1559.19 -1612.43 -1725.56 -1784.35 -1830.49 -1850.26 -1852.12 -1902.15 -1894.02
3746.16 3746.91 3621.34 3529.71 3520.36 3605.42 3607.43 3614.15 3553.43 3485.83 3432.86 3437.62 3408.16 3748.32 3728.27 3737.42 3728.08 3709.56 3698.65 3679.25 3653.44 3671.08 3662.58 3703.26 3716.06 3735.94 1482.65 1485.40 1486.05 1464.50 1457.59 1434.94 1387.86 1384.40 1368.71 1350.66 1338.92 1346.87 1361.91 -132.44 -109.13 -116.28 -128.16 -131.17 -119.35 -110.26 -100.09 -88.84 -94.03 -105.35 -112.59 -131.10 -352.96 -368.85 -370.26 -368.32 -373.06 -385.66 -377.70 -367.21 -369.14 -365.09 -371.31 -379.29 -383.30 -585.62 -579.07 -572.11 -578.75 -590.72 -599.71 -602.58 -594.65 -588.49 -607.24 -604.19 -604.39 -604.08 -712.08 -716.61 -712.72 -714.14 -707.66 -710.67 -705.17 -707.28 -705.66 -714.24 -714.95 -717.54 -717.26 -1298.91 -1296.93 -1300.75 -1296.32 -1300.97 -1298.23 -1297.71 -1294.19 -1303.92 -1300.85 -1294.47 -1302.71 -1300.84 -2307.44 -2309.47 -2312.15 -2315.67 -2326.62 -2332.61 -2482.87 -2665.88 -2734.51 -2892.09 -3120.94 -3260.52 -3353.25 -1227.60 -1205.68 -1244.89 -1246.63 -1269.58 -1275.11 -1318.75 -1328.31 -1372.69 -1447.48 -1468.95 -1576.04 -1606.45 -1683.12 -1790.51 -1794.89 -1845.77 -1827.60 -1830.27
3785.01 3777.63 3839.43 3536.73 3587.07 3623.54 3675.24 3662.91 3615.26 3499.67 3436.03 3415.79 3391.13 3744.60 3719.44 3710.51 3719.70 3726.87 3715.12 3694.70 3686.98 3661.56 3661.81 3671.01 3707.36 3713.74 1461.28 1482.86 1454.59 1448.76 1430.77 1432.52 1379.39 1350.05 1353.14 1338.29 1350.01 1348.06 1372.34 -136.14 -114.70 -104.07 -111.50 -113.49 -108.42 -101.27 -88.38 -89.18 -92.21 -117.56 -130.57 -144.22 -360.16 -371.95 -363.53 -357.66 -360.91 -377.27 -388.62 -377.44 -370.59 -377.71 -385.91 -389.76 -395.94 -594.65 -593.39 -588.33 -591.22 -598.47 -598.37 -601.40 -608.36 -603.32 -600.64 -605.90 -606.80 -611.92 -714.09 -722.00 -715.72 -716.99 -712.16 -712.59 -714.18 -708.10 -720.99 -717.29 -716.46 -716.06 -722.01 -1295.19 -1300.89 -1296.95 -1292.59 -1296.20 -1292.15 -1299.95 -1298.16 -1297.77 -1294.71 -1297.94 -1295.64 -1301.19 -2311.16 -2310.45 -2303.84 -2311.92 -2319.63 -2324.81 -2359.41 -2566.83 -2682.43 -2928.75 -3127.15 -3289.91 -3311.95 -1154.13 -1155.09 -1169.24 -1178.84 -1160.97 -1164.40 -1225.49 -1204.33 -1251.03 -1319.37 -1366.62 -1488.56 -1522.34 -1570.95 -1635.51 -1703.13 -1742.08 -1763.00 -1761.91
4033.53 4032.43 3827.02 3676.53 3632.02 3684.48 3716.89 3705.34 3650.61 3550.90 3454.88 3436.21 3362.70 3728.34 3710.64 3698.83 3699.01 3706.68 3712.47 3705.78 3679.19 3656.94 3648.94 3657.85 3672.31 3700.04 1452.75 1456.03 1423.19 1422.93 1406.40 1371.67 1361.65 1341.51 1348.34 1345.40 1356.64 1363.92 1379.87 -128.19 -115.77 -98.35 -102.92 -88.70 -83.13 -83.54 -87.48 -89.77 -102.84 -112.60 -127.31 -135.16 -362.01 -359.90 -348.25 -355.92 -369.17 -373.22 -384.02 -383.65 -384.36 -384.28 -383.64 -385.67 -404.38 -604.89 -597.42 -582.92 -591.77 -593.92 -604.69 -600.31 -605.12 -602.37 -608.40 -610.24 -605.07 -612.60 -717.00 -725.44 -726.43 -721.47 -720.40 -722.35 -723.75 -719.11 -715.90 -721.21 -722.37 -728.14 -722.07 -1301.24 -1296.81 -1297.75 -1291.52 -1297.23 -1294.81 -1295.03 -1301.43 -1302.94 -1299.06 -1297.62 -1294.99 -1301.07 -2310.04 -2304.31 -2309.79 -2310.69 -2314.28 -2324.93 -2437.74 -2535.28 -2768.42 -2968.98 -3159.19 -3274.59 -3267.59 -1141.29 -1110.12 -1085.80 -1086.31 -1116.98 -1073.50 -1104.88 -1168.43 -1169.23 -1181.31 -1289.42 -1341.35 -1401.40 -1493.01 -1521.85 -1604.68 -1692.21 -1682.47 -1675.96
1949.66 1948.91 1848.70 1617.25 1573.11 1603.30 1626.55 1614.16 1548.43 1427.87 1358.52 1280.50 1211.46 77.13 56.43 32.73 36.28 37.62 32.29 23.24 24.14 8.01 -2.58 -1.93 15.69 34.96 792.19 790.39 778.23 754.00 737.88 722.88 716.19 718.62 714.44 717.92 739.07 751.46 763.90 916.07 947.46 967.40 959.87 963.18 973.64 966.60 962.20 957.59 947.04 933.08 915.83 905.99 -183.38 -174.63 -169.68 -183.73 -190.71 -207.53 -205.90 -202.49 -212.01 -208.71 -202.83 -213.08 -224.97 -278.34 -275.78 -277.53 -268.54 -272.46 -268.08 -280.23 -282.44 -276.27 -275.84 -269.57 -270.78 -279.62 -829.72 -822.53 -824.42 -828.70 -829.36 -821.56 -827.77 -828.18 -828.60 -825.30 -828.70 -828.70 -827.50 -1422.42 -1420.79 -1421.33 -1414.23 -1410.79 -1413.14 -1414.10 -1417.26 -1417.25 -1417.47 -1412.40 -1414.10 -1413.68 -1967.70 -1970.47 -1969.10 -1971.38 -1973.55 -1989.38 -2124.91 -2268.29 -2505.40 -2651.13 -2813.20 -2888.67 -2900.27 -1099.31 -1056.35 -1049.39 -1034.33 -1025.25 -1039.50 -1044.99 -1040.28 -1027.50 -1028.01 -1114.37 -1199.45 -1248.39 -1341.99 -1463.04 -1466.46 -1599.49 -1598.46 -1597.79
2124.30 2121.92 1922.33 1658.61 1656.84 1693.51 1660.32 1598.48 1502.05 1464.56 1346.18 1268.49 1208.92 68.52 60.15 45.04 31.23 22.80 12.86 9.66 6.57 -12.84 -19.33 -7.67 9.66 14.08 784.19 777.53 763.70 746.33 734.01 712.83 719.06 725.73 730.56 738.13 747.72 766.38 787.02 962.92 955.32 971.81 969.16 973.11 975.26 972.76 957.08 957.41 951.91 935.58 912.65 916.20 -179.97 -166.30 -164.37 -175.34 -187.83 -186.78 -199.10 -191.59 -209.31 -208.07 -195.97 -201.67 -217.22 -274.58 -277.46 -279.82 -283.34 -278.43 -272.85 -279.47 -275.82 -274.18 -268.88 -269.18 -266.30 -280.94 -815.18 -823.58 -821.79 -827.28 -827.51 -824.18 -820.18 -819.58 -825.87 -813.92 -826.87 -829.50 -829.40 -1412.89 -1417.39 -1416.67 -1413.87 -1408.75 -1415.17 -1416.57 -1414.84 -1419.57 -1417.63 -1416.93 -1416.17 -1415.79 -1968.63 -1971.93 -1968.53 -1971.52 -1980.53 -1983.52 -2105.99 -2346.26 -2577.25 -2615.55 -2766.61 -2804.92 -2867.67 -1055.65 -1040.97 -1029.10 -1035.11 -995.13 -974.89 -966.90 -970.86 -999.44 -1008.17 -1001.81 -1044.58 -1162.75 -1278.26 -1343.31 -1406.22 -1432.87 -1513.71 -1510.94
2108.75 2113.21 1897.04 1786.08 1732.32 1724.17 1673.60 1582.55 1529.09 1392.06 1327.02 1240.03 1240.55 81.36 55.67 54.00 35.05 31.37 7.27 0.33 -7.09 -3.38 -10.98 -20.54 -18.16 -8.79 763.50 755.70 752.49 730.15 726.45 723.85 732.32 739.96 732.73 774.84 772.98 799.07 813.70 978.62 978.41 988.13 974.37 972.63 975.27 970.74 955.37 945.98 939.52 934.71 925.94 909.32 -171.17 -171.25 -165.04 -174.79 -182.03 -177.83 -170.89 -185.06 -194.91 -199.29 -193.26 -195.61 -210.88 -270.94 -262.17 -268.98 -275.44 -277.69 -288.65 -279.84 -271.99 -266.88 -261.44 -265.82 -259.79 -258.73 -812.21 -812.58 -813.78 -823.22 -818.09 -819.00 -825.37 -825.92 -822.63 -822.77 -822.35 -823.86 -828.46 -1414.39 -1415.33 -1412.94 -1418.79 -1404.95 -1412.93 -1408.50 -1415.30 -1418.72 -1409.50 -1424.12 -1416.21 -1421.54 -1966.79 -1975.49 -1969.60 -1973.70 -1978.56 -1993.32 -1994.24 -2309.16 -2537.10 -2592.42 -2702.26 -2829.83 -2842.84 -1047.17 -1021.60 -994.44 -985.87 -980.17 -930.66 -937.01 -894.71 -912.61 -917.78 -940.86 -1006.42 -1032.99 -1124.99 -1326.56 -1327.59 -1425.80 -1435.25 -1433.08
2014.03 2013.55 2025.63 1686.41 1711.60 1653.66 1543.02 1520.38 1483.41 1453.07 1332.35 1324.85 1264.54 145.01 106.66 79.20 65.26 37.47 23.79 10.19 12.51 -5.72 -13.79 -14.25 -21.30 -13.71 743.55 740.57 734.81 725.99 719.74 722.44 746.05 768.06 783.54 803.24 786.45 814.71 839.62 1011.79 994.35 976.34 974.95 968.96 964.40 956.32 933.53 933.61 933.88 935.45 930.56 921.27 -172.88 -157.75 -161.07 -159.05 -169.49 -174.30 -166.32 -175.60 -183.34 -192.54 -190.02 -185.64 -191.33 -246.17 -256.60 -263.75 -267.03 -278.01 -284.76 -277.73 -273.43 -261.87 -264.13 -257.41 -246.74 -254.96 -802.85 -805.72 -814.35 -813.69 -816.43 -823.11 -814.78 -823.84 -823.10 -824.00 -819.85 -825.64 -825.70 -1416.76 -1410.81 -1417.72 -1410.18 -1413.18 -1414.89 -1414.24 -1425.06 -1413.42 -1417.94 -1415.12 -1411.39 -1418.57 -1974.38 -1970.19 -1968.80 -1976.75 -1983.27 -1990.95 -2011.62 -2373.97 -2602.26 -2621.01 -2684.72 -2810.86 -2824.17 -1013.45 -999.58 -979.53 -935.19 -897.51 -871.94 -879.32 -853.73 -843.87 -850.05 -850.79 -923.81 -955.01 -1024.01 -1137.38 -1236.07 -1311.03 -1363.75 -1359.86
1955.99 1958.55 1821.98 1660.66 1596.78 1561.31 1444.49 1481.95 1536.99 1541.11 1474.81 1357.91 1342.25 171.95 150.45 117.71 105.33 64.32 46.76 31.56 10.59 12.82 11.82 -18.08 -22.40 -22.56 726.29 731.80 721.41 723.27 725.27 735.85 752.50 780.71 784.90 822.79 820.32 833.59 844.81 1008.95 984.59 973.75 967.88 967.17 957.40 939.04 934.73 934.23 930.33 936.88 937.96 934.89 -165.21 -157.49 -143.89 -153.30 -158.76 -162.67 -154.22 -165.74 -178.36 -183.10 -193.80 -187.74 -190.31 -244.97 -243.10 -253.69 -262.20 -274.78 -280.50 -277.92 -266.09 -268.39 -250.91 -252.82 -251.14 -256.57 -800.25 -801.46 -806.01 -811.88 -820.48 -817.78 -821.92 -831.57 -824.76 -828.51 -822.60 -822.19 -825.61 -1414.56 -1421.90 -1412.91 -1411.58 -1418.61 -1419.74 -1417.47 -1420.20 -1417.39 -1418.87 -1417.32 -1418.77 -1416.13 -1969.10 -1979.12 -1973.78 -1980.57 -1990.25 -1998.67 -2025.82 -2261.08 -2509.73 -2620.21 -2733.57 -2788.40 -2798.54 -1001.91 -999.30 -934.70 -907.04 -887.18 -862.20 -815.85 -804.02 -808.09 -809.85 -834.83 -871.45 -886.10 -917.50 -1031.32 -1150.82 -1267.13 -1296.26 -1301.11
1944.63 1951.30 1769.51 1599.24 1478.14 1415.87 1438.28 1458.32 1539.49 1539.60 1475.73 1400.65 1362.53 184.84 144.63 123.86 126.02 108.65 91.03 51.76 37.31 37.45 29.33 9.81 -12.69 -22.37 734.72 726.26 732.14 722.41 726.56 737.02 760.10 771.63 810.60 830.11 855.02 859.37 857.39 1002.44 976.94 970.32 969.45 952.81 945.56 939.28 937.33 936.50 937.73 948.70 949.25 943.27 -170.50 -156.41 -148.75 -148.20 -152.57 -157.75 -164.30 -168.35 -172.35 -185.59 -190.93 -192.48 -196.82 -247.21 -246.16 -259.20 -271.05 -279.07 -282.27 -264.69 -249.63 -253.37 -246.88 -245.72 -248.50 -253.01 -797.07 -801.08 -798.24 -814.97 -817.28 -830.44 -826.61 -826.10 -827.84 -825.25 -827.60 -828.12 -823.03 -1416.03 -1420.23 -1414.53 -1412.71 -1413.67 -1419.68 -1409.92 -1418.55 -1415.79 -1416.43 -1419.01 -1415.52 -1422.53 -1969.85 -1980.48 -1981.96 -1986.54 -1985.40 -2019.47 -2048.79 -2178.68 -2420.65 -2662.06 -2742.42 -2755.67 -2789.24 -975.12 -956.66 -910.44 -886.52 -868.25 -819.74 -779.11 -754.45 -747.60 -763.35 -767.84 -812.90 -835.94 -902.71 -989.08 -1053.06 -1253.54 -1249.60 -1248.12
1761.50 1766.06 1804.48 1482.96 1465.18 1405.71 1371.79 1423.02 1504.16 1508.24 1452.11 1440.04 1420.48 235.54 206.27 156.57 169.63 151.51 113.43 89.02 74.92 72.39 36.54 12.80 -1.68 4.82 742.82 732.58 738.31 739.22 741.17 750.79 774.95 776.92 810.43 845.05 866.68 858.99 854.94 997.01 975.16 962.53 959.92 953.14 944.35 941.78 949.79 950.56 961.84 961.35 953.73 946.87 -158.45 -157.25 -145.07 -142.58 -157.37 -162.21 -160.10 -175.40 -185.65 -187.92 -208.38 -210.22 -209.06 -261.20 -264.00 -260.61 -268.96 -267.48 -268.11 -265.45 -252.23 -246.93 -249.10 -240.65 -246.05 -250.42 -790.53 -806.20 -806.84 -815.90 -812.99 -821.74 -826.01 -829.37 -826.76 -828.11 -823.12 -829.80 -826.69 -1410.35 -1419.20 -1418.90 -1421.15 -1415.59 -1423.76 -1418.67 -1421.91 -1418.18 -1414.82 -1409.81 -1418.68 -1423.68 -1963.84 -1971.07 -1977.17 -1990.05 -1984.79 -2019.05 -2048.22 -2215.24 -2326.64 -2551.14 -2697.37 -2726.95 -2750.30 -962.12 -941.12 -898.24 -863.04 -848.35 -814.51 -763.63 -740.95 -735.14 -731.00 -719.45 -751.66 -795.59 -866.76 -961.91 -1047.25 -1144.70 -1203.67 -1203.55
1709.23 1712.37 1572.72 1487.96 1426.52 1372.83 1348.31 1407.62 1444.54 1431.60 1424.00 1433.32 1444.75 267.60 224.58 173.33 179.51 173.13 112.62 86.88 75.36 40.58 28.17 -1.75 11.30 16.57 759.84 764.18 758.21 753.55 757.26 760.36 779.51 786.02 819.05 851.59 859.26 861.68 846.16 982.40 966.96 960.02 953.33 944.18 943.07 951.66 964.91 973.08 975.07 972.40 967.38 951.84 -154.45 -142.29 -146.20 -147.83 -160.02 -168.90 -176.19 -186.38 -190.14 -204.39 -204.93 -205.97 -210.67 -254.97 -262.43 -264.31 -255.18 -259.83 -260.07 -250.08 -256.41 -247.83 -239.59 -244.86 -254.18 -255.27 -805.10 -809.82 -815.04 -814.02 -825.16 -826.48 -824.89 -823.36 -824.75 -823.83 -821.82 -826.96 -826.55 -1417.24 -1416.21 -1419.58 -1415.30 -1418.40 -1412.32 -1416.00 -1414.69 -1415.67 -1417.02 -1412.81 -1424.81 -1423.93 -1974.08 -1972.63 -1965.23 -1982.33 -1983.18 -2009.23 -2105.59 -2150.88 -2332.32 -2513.63 -2685.33 -2709.22 -2739.86 -955.48 -910.41 -875.68 -831.65 -814.19 -757.10 -710.35 -712.49 -688.20 -691.83 -716.71 -753.37 -788.57 -809.50 -933.92 -986.02 -1119.62 -1164.41 -1160.72
1699.40 1697.00 1577.53 1449.23 1380.84 1326.94 1346.16 1388.30 1415.44 1403.26 1377.18 1401.83 1419.06 303.89 269.16 215.71 186.86 163.47 96.75 47.13 45.23 23.32 17.45 13.27 32.28 47.90 777.34 764.29 770.53 778.84 771.61 773.24 786.08 801.54 819.76 845.27 862.54 855.37 835.29 975.10 965.86 962.39 952.92 946.63 953.70 961.96 970.82 981.48 998.45 982.03 975.80 963.59 -139.31 -140.13 -150.47 -154.65 -164.13 -168.36 -176.97 -193.57 -197.62 -195.32 -190.04 -193.32 -195.18 -253.58 -260.51 -261.62 -247.69 -255.38 -246.46 -256.70 -251.28 -249.14 -247.91 -250.79 -255.42 -261.29 -810.91 -813.14 -820.33 -816.46 -826.34 -830.25 -829.71 -820.31 -820.22 -818.77 -813.14 -815.78 -823.93 -1416.79 -1423.53 -1412.06 -1416.63 -1417.90 -1407.55 -1412.91 -1413.79 -1413.16 -1419.01 -1420.86 -1420.13 -1418.37 -1967.77 -1969.77 -1974.00 -1981.91 -1984.82 -1994.63 -2084.75 -2235.27 -2356.02 -2442.49 -2643.52 -2672.31 -2708.29 -912.32 -875.35 -832.62 -804.32 -790.37 -721.70 -709.42 -672.43 -674.67 -673.91 -676.40 -721.25 -744.21 -786.89 -876.42 -909.30 -1122.00 -1118.32 -1121.09
1751.58 1756.39 1625.87 1465.10 1391.24 1321.91 1314.69 1330.10 1356.66 1349.88 1350.42 1363.28 1407.90 290.10 263.49 205.83 199.56 169.53 100.94 31.40 35.33 30.39 36.41 28.65 40.47 36.14 791.26 777.78 791.94 803.79 808.25 802.71 790.34 812.39 834.87 857.14 865.11 855.57 841.48 981.11 967.83 956.15 956.88 960.81 970.97 970.77 984.30 1004.61 1000.76 993.64 976.61 973.94 -130.68 -137.25 -145.31 -158.66 -164.22 -186.15 -187.26 -184.90 -191.00 -182.87 -183.52 -175.32 -190.24 -246.28 -244.48 -244.74 -233.94 -247.05 -251.17 -252.41 -256.05 -246.85 -254.47 -245.02 -258.02 -267.24 -818.00 -817.68 -815.70 -827.70 -828.89 -825.28 -826.59 -824.12 -814.27 -807.81 -804.75 -819.49 -825.17 -1419.05 -1417.88 -1416.82 -1407.98 -1402.11 -1404.42 -1412.43 -1413.71 -1410.20 -1417.59 -1414.78 -1419.07 -1421.67 -1966.86 -1967.87 -1974.15 -1971.21 -1986.27 -1996.31 -2058.77 -2209.86 -2279.27 -2412.89 -2539.82 -2568.56 -2632.14 -882.60 -858.58 -795.26 -773.61 -727.10 -681.48 -628.25 -637.52 -644.01 -637.09 -641.16 -678.76 -699.20 -756.64 -796.69 -886.50 -972.35 -1065.86 -1067.29
1713.49 1716.45 1600.09 1466.70 1431.72 1340.48 1284.76 1287.21 1267.88 1291.32 1331.00 1370.38 1409.82 294.44 261.13 204.29 170.15 115.01 78.10 53.97 57.84 44.55 68.23 57.87 75.46 51.03 799.82 784.24 798.09 820.96 835.01 833.78 819.30 830.55 855.09 874.04 864.93 848.52 844.04 972.57 972.59 968.77 970.63 970.98 976.82 988.92 995.94 1018.48 1017.95 1011.99 998.10 981.21 -134.46 -138.03 -143.47 -156.63 -150.40 -160.23 -176.74 -183.95 -177.87 -181.81 -168.08 -178.21 -178.11 -232.36 -234.69 -238.66 -242.54 -242.55 -253.62 -266.41 -261.91 -269.75 -258.99 -259.41 -260.79 -263.11 -817.69 -823.92 -821.27 -820.64 -827.34 -826.07 -830.92 -823.66 -807.65 -798.63 -805.44 -813.18 -824.46 -1407.87 -1410.14 -1405.94 -1404.07 -1404.58 -1401.31 -1409.63 -1409.50 -1416.52 -1417.09 -1417.41 -1418.24 -1414.05 -1966.27 -1970.93 -1967.25 -1970.76 -1979.89 -1995.10 -2003.20 -2088.43 -2150.54 -2341.16 -2389.86 -2466.18 -2561.22 -773.83 -773.37 -780.69 -723.92 -697.73 -644.40 -625.88 -590.32 -607.69 -610.68 -631.29 -656.60 -698.73 -708.54 -744.45 -836.27 -966.67 -1000.64 -1003.83
1672.06 1671.74 1585.41 1462.85 1440.14 1359.75 1291.46 1275.23 1263.82 1290.39 1325.84 1391.03 1407.98 299.06 291.77 225.30 162.25 109.07 113.68 83.63 83.94 71.54 85.89 89.19 82.67 76.13 816.12 802.03 811.41 815.22 843.33 844.14 842.56 858.96 885.62 888.39 876.59 856.96 849.24 989.41 986.38 979.27 977.32 993.25 1001.13 994.65 1007.85 1026.44 1039.53 1014.08 1000.55 974.87 -130.95 -142.47 -138.44 -156.01 -148.05 -158.37 -174.26 -178.94 -176.94 -170.31 -170.02 -173.45 -173.72 -232.95 -231.51 -237.67 -246.77 -243.72 -261.73 -267.54 -272.15 -265.07 -265.64 -266.28 -262.71 -266.86 -811.94 -824.80 -822.88 -826.53 -815.97 -815.30 -821.13 -814.76 -810.44 -801.68 -804.30 -805.83 -814.52 -1407.85 -1403.59 -1403.49 -1405.33 -1405.42 -1405.41 -1407.68 -1412.71 -1405.03 -1420.56 -1419.90 -1411.79 -1416.05 -1965.88 -1964.48 -1969.04 -1971.02 -1979.59 -1983.79 -1992.86 -1996.91 -2005.24 -2094.34 -2151.54 -2196.07 -2355.22 -706.06 -734.30 -718.94 -686.53 -630.45 -604.09 -585.36 -579.72 -557.51 -571.89 -589.66 -587.56 -626.82 -655.98 -711.74 -729.86 -933.78 -930.49 -926.28
4406.11 4401.65 4311.71 4176.19 4121.88 4109.78 4061.06 4017.34 3999.08 4035.14 4058.65 4129.72 4183.52 3797.07 3783.18 3746.23 3676.36 3625.60 3597.02 3583.17 3571.23 3572.24 3576.67 3603.81 3596.17 3578.54 838.12 810.83 811.29 830.47 847.86 866.51 867.46 894.26 905.60 901.84 880.38 874.02 852.62 906.04 893.76 880.03 879.40 899.19 916.56 918.23 925.87 933.32 936.16 917.83 876.38 858.34 160.97 151.34 138.87 147.54 144.32 138.69 122.17 107.40 102.53 118.88 125.11 123.87 116.32 -46.44 -47.97 -52.84 -49.95 -62.94 -75.41 -81.01 -84.95 -85.80 -82.85 -80.56 -88.99 -93.38 -299.21 -304.38 -289.67 -290.29 -291.62 -290.56 -285.76 -286.16 -274.68 -277.01 -278.52 -276.50 -281.67 -266.14 -268.11 -272.46 -274.69 -271.76 -275.97 -278.52 -284.80 -289.29 -289.29 -284.81 -288.28 -290.99 -286.77 -288.41 -288.61 -292.47 -295.39 -286.32 -302.78 -301.96 -310.93 -318.90 -329.77 -425.81 -493.06 -578.85 -667.37 -673.72 -617.97 -589.27 -550.99 -519.03 -517.42 -512.22 -514.80 -539.48 -523.90 -563.59 -582.28 -648.35 -712.27 -792.45 -848.88 -850.91
4325.14 4326.05 4323.67 4165.62 4093.42 4073.23 4033.52 4015.28 3996.55 4026.03 4071.42 4130.12 4146.54 3796.53 3773.74 3751.77 3717.63 3676.76 3662.91 3620.59 3609.42 3612.42 3605.77 3619.87 3633.91 3614.95 858.62 822.93 820.26 836.28 861.70 897.97 905.75 917.81 929.41 906.31 882.05 866.58 872.10 915.80 906.50 891.48 896.86 921.84 932.15 925.72 936.18 936.20 929.11 888.15 857.66 848.69 147.68 139.16 127.31 129.03 134.72 131.78 123.12 100.68 97.99 97.54 103.52 114.65 107.19 -61.50 -61.05 -53.48 -57.44 -59.33 -73.88 -84.26 -82.76 -86.60 -92.32 -86.94 -93.01 -92.51 -294.21 -289.48 -287.46 -282.74 -282.09 -282.55 -276.26 -276.51 -277.27 -275.47 -268.35 -280.69 -283.95 -271.25 -268.61 -274.32 -277.47 -275.05 -278.82 -287.87 -279.08 -280.98 -286.10 -279.33 -290.75 -284.69 -285.30 -283.58 -282.67 -283.28 -291.18 -295.23 -288.20 -292.01 -292.17 -301.18 -331.14 -347.73 -452.35 -377.71 -635.39 -597.06 -590.27 -519.27 -494.67 -484.46 -469.35 -461.52 -480.65 -478.75 -503.13 -500.29 -553.68 -610.41 -645.76 -757.25 -778.85 -772.38
4232.45 4229.23 4247.93 4088.28 4058.69 4054.20 4023.76 3983.08 3990.33 4018.66 4064.16 4104.45 4142.44 3748.37 3758.50 3752.34 3738.49 3718.71 3690.14 3660.98 3672.85 3685.33 3664.81 3660.56 3632.70 3626.98 879.23 857.78 832.01 850.56 901.87 939.08 945.74 940.84 919.71 883.49 866.63 859.51 880.16 937.14 919.23 921.50 920.04 923.69 923.86 915.31 920.27 913.13 903.72 879.59 848.45 846.11 129.37 129.09 118.90 125.47 135.22 134.50 115.71 100.22 91.17 93.51 104.49 101.21 90.30 -79.39 -76.18 -72.55 -62.09 -67.35 -76.52 -84.42 -82.88 -77.92 -84.21 -85.18 -87.04 -83.24 -299.23 -293.80 -275.57 -277.66 -273.25 -271.76 -268.33 -271.36 -265.60 -271.20 -268.70 -274.66 -277.47 -266.47 -270.91 -270.42 -277.87 -277.55 -284.21 -283.80 -283.32 -282.75 -290.03 -284.39 -281.33 -291.25 -289.09 -287.46 -290.67 -287.37 -289.30 -292.55 -290.88 -288.06 -292.11 -291.36 -313.19 -330.24 -348.43 -316.18 -421.40 -508.64 -514.31 -500.27 -481.23 -445.67 -454.99 -441.64 -433.37 -438.75 -460.71 -473.29 -492.88 -521.73 -577.57 -630.04 -701.44 -703.47
4197.67 4203.03 4133.32 4050.17 4036.72 4034.49 4008.83 3990.22 3984.64 4000.59 4052.15 4085.01 4108.22 3734.43 3748.73 3759.72 3744.16 3730.35 3758.12 3761.55 3763.83 3720.40 3720.96 3689.03 3663.11 3660.42 921.21 893.26 908.18 923.38 978.46 973.83 967.93 937.84 905.16 857.38 847.68 858.70 870.25 927.11 914.29 911.70 912.97 906.24 915.45 907.87 897.96 876.28 871.29 856.60 847.06 831.77 133.55 121.83 112.87 122.87 113.53 109.60 107.90 96.27 93.11 92.09 86.72 88.09 78.26 -80.23 -84.80 -80.85 -78.53 -73.26 -78.77 -82.54 -79.21 -76.41 -76.33 -73.23 -80.64 -85.07 -293.89 -283.62 -275.69 -270.97 -263.48 -259.80 -268.04 -266.55 -268.83 -266.63 -268.76 -272.21 -277.24 -262.77 -275.11 -274.96 -279.48 -286.19 -279.88 -280.97 -284.14 -286.31 -291.08 -284.04 -283.41 -291.89 -283.80 -292.24 -291.69 -288.52 -293.49 -289.23 -291.61 -288.84 -288.82 -285.08 -285.90 -313.51 -343.80 -312.29 -371.21 -501.45 -480.78 -453.12 -432.22 -425.79 -420.15 -416.54 -423.47 -421.45 -445.65 -463.22 -468.37 -510.92 -556.51 -630.29 -636.52 -634.25
4196.98 4202.18 4134.11 4043.03 4022.10 4007.54 3995.97 3984.84 3971.52 3993.69 4027.86 4086.16 4099.79 3715.59 3706.65 3715.39 3743.70 3769.85 3791.67 3810.72 3783.21 3724.82 3721.55 3703.36 3691.78 3693.67 962.50 944.81 940.91 1002.07 994.09 990.59 945.91 931.45 880.47 836.42 826.90 834.49 862.30 912.60 899.95 895.63 879.81 895.89 898.52 902.37 881.44 861.63 844.78 843.24 838.57 829.84 126.87 123.34 115.67 103.63 95.65 96.31 88.49 93.10 89.61 92.65 93.72 82.59 75.81 -77.44 -90.40 -84.16 -80.74 -82.03 -83.53 -77.47 -77.16 -61.68 -60.38 -64.97 -72.18 -67.19 -281.32 -276.73 -270.98 -266.09 -267.58 -263.24 -260.07 -261.04 -265.57 -271.69 -278.14 -281.21 -280.09 -269.64 -270.64 -280.13 -279.34 -279.69 -279.87 -276.05 -280.40 -280.73 -289.00 -293.79 -289.58 -287.08 -284.18 -289.37 -284.74 -289.64 -290.33 -285.62 -291.23 -292.37 -291.67 -286.52 -289.01 -303.80 -330.44 -231.70 -362.24 -405.74 -453.32 -419.86 -409.05 -385.19 -393.05 -391.68 -404.77 -420.06 -424.21 -440.38 -456.01 -499.35 -524.03 -573.81 -592.77 -589.46
4187.66 4183.76 4111.88 4010.17 4011.06 3978.45 3971.69 3970.82 3978.74 4006.39 4017.50 4060.18 4071.29 3674.33 3681.44 3678.27 3747.64 3786.83 3796.95 3808.55 3772.92 3744.23 3725.10 3684.89 3676.32 3698.67 968.03 972.86 993.50 1012.98 1028.63 978.11 907.53 893.38 851.11 817.20 812.28 813.92 810.37 877.00 862.45 867.18 852.77 869.10 877.05 872.02 859.33 834.23 828.39 821.92 822.97 817.96 129.72 120.69 113.54 103.26 103.42 93.74 85.78 94.51 102.08 89.16 85.99 75.94 86.88 -66.38 -71.42 -80.14 -71.81 -65.65 -66.91 -72.02 -63.52 -55.40 -56.34 -52.54 -65.04 -55.16 -266.25 -271.40 -267.72 -264.50 -266.80 -265.37 -266.09 -272.75 -272.91 -274.87 -278.70 -285.98 -285.24 -281.14 -277.74 -277.89 -278.57 -274.58 -279.12 -282.56 -277.06 -285.52 -285.60 -286.75 -289.70 -288.65 -287.26 -281.12 -285.50 -283.21 -290.97 -287.54 -289.01 -283.62 -287.26 -290.75 -285.03 -299.49 -312.75 -232.87 -278.66 -330.76 -417.97 -381.07 -376.51 -365.18 -362.23 -366.59 -373.66 -403.27 -411.21 -432.26 -453.75 -479.56 -498.10 -533.50 -557.26 -556.26
4188.40 4193.00 4124.78 4007.20 3975.54 3974.62 3969.96 3957.29 3967.77 3994.60 4004.65 4018.68 4013.01 3642.43 3644.45 3678.19 3702.60 3769.18 3779.89 3762.66 3741.04 3720.72 3685.55 3667.28 3648.51 3664.09 963.42 967.49 985.29 1017.70 1030.81 1013.04 961.51 875.00 851.81 816.31 806.85 796.92 809.42 864.47 862.95 851.69 853.43 852.05 864.20 846.71 836.04 833.91 819.88 813.35 812.03 815.05 126.61 114.28 103.53 111.42 107.92 104.30 97.24 105.41 104.34 97.97 93.93 88.88 91.11 -53.95 -68.89 -72.77 -58.48 -53.60 -56.56 -50.95 -45.20 -47.66 -48.65 -47.64 -47.30 -55.16 -260.86 -262.74 -269.63 -263.75 -268.48 -264.27 -267.90 -272.77 -276.37 -276.83 -284.41 -288.42 -296.83 -277.78 -279.97 -282.28 -274.56 -275.61 -282.82 -276.57 -280.86 -286.39 -284.83 -286.55 -292.45 -285.08 -286.89 -280.86 -288.51 -289.01 -288.38 -291.67 -289.78 -290.64 -295.04 -281.99 -291.92 -293.09 -310.78 -221.07 -276.57 -319.75 -362.28 -353.38 -329.21 -331.70 -343.76 -352.47 -375.00 -384.01 -406.72 -426.58 -457.09 -480.37 -508.47 -564.75 -546.02 -545.82
4248.52 4244.35 4131.38 4007.73 3997.60 3984.24 3986.84 3985.88 3973.61 3955.63 3968.33 3979.06 3988.03 3598.20 3628.01 3655.12 3688.94 3705.28 3691.14 3678.49 3667.19 3666.12 3638.54 3622.97 3611.58 3646.69 934.81 955.73 974.14 994.68 1034.65 1003.67 935.12 878.14 855.12 820.45 810.25 799.50 798.25 849.28 840.76 830.81 833.99 839.93 841.48 837.55 824.07 813.86 819.11 810.76 812.10 814.38 112.74 107.12 110.32 122.14 130.06 126.43 115.66 104.60 121.32 109.30 102.20 113.11 109.44 -60.06 -65.48 -63.56 -56.86 -52.25 -35.09 -46.21 -45.76 -50.74 -43.66 -47.96 -50.54 -54.24 -261.85 -267.10 -263.69 -267.35 -270.02 -274.31 -274.02 -279.39 -277.82 -279.98 -288.30 -293.71 -298.58 -284.66 -280.20 -278.47 -280.02 -278.85 -277.41 -279.18 -290.01 -289.66 -294.66 -287.21 -288.24 -289.28 -284.88 -289.37 -291.13 -287.52 -288.50 -292.18 -289.96 -291.41 -286.05 -294.32 -287.75 -288.46 -292.32 -215.09 -241.79 -270.97 -306.61 -301.14 -313.20 -293.63 -298.18 -306.34 -322.96 -370.03 -387.67 -434.62 -448.92 -487.58 -533.68 -583.55 -579.39 -582.45
4209.20 4198.85 4130.01 4013.73 4007.98 4019.09 4034.47 4008.31 3982.16 3969.95 3955.42 3963.50 3961.61 3584.27 3615.73 3632.04 3644.45 3640.33 3643.46 3647.31 3648.03 3636.40 3598.92 3591.64 3594.70 3617.47 926.30 940.28 928.32 964.49 1001.05 984.48 940.46 879.29 853.57 830.86 835.12 799.07 799.78 855.72 850.68 838.04 834.81 835.10 825.05 822.57 819.69 813.60 812.28 812.15 809.56 819.04 113.91 112.05 116.45 120.80 135.70 129.56 128.53 121.89 132.63 127.09 125.41 123.47 112.95 -48.46 -55.66 -53.05 -44.67 -36.29 -37.12 -29.61 -37.46 -48.88 -45.98 -44.61 -53.41 -58.66 -262.78 -264.38 -270.74 -266.07 -269.64 -282.67 -283.98 -278.70 -281.22 -278.84 -279.92 -295.21 -299.50 -285.96 -286.48 -279.29 -284.38 -287.33 -290.16 -289.55 -284.33 -290.66 -288.82 -283.20 -287.55 -288.48 -291.23 -288.00 -288.00 -282.33 -294.03 -289.93 -290.60 -288.89 -287.38 -296.65 -290.29 -290.50 -290.47 -193.79 -233.63 -269.33 -296.81 -290.31 -262.09 -280.70 -267.65 -285.26 -305.87 -321.11 -387.32 -410.75 -441.47 -539.67 -547.14 -587.77 -637.85 -634.83
4238.29 4233.45 4256.08 4073.14 4051.50 4065.55 4051.62 4041.27 3990.44 3966.66 3964.59 3953.87 3959.52 3575.40 3611.14 3616.21 3626.98 3626.66 3619.12 3630.55 3661.53 3647.83 3609.31 3590.26 3574.30 3593.51 893.61 892.59 890.69 934.97 984.42 955.10 955.29 906.95 866.27 873.51 899.99 860.71 838.69 888.29 885.48 869.39 849.44 848.76 837.51 834.32 833.44 827.86 823.89 821.09 839.94 831.22 130.53 117.18 125.08 130.85 137.91 145.68 149.93 140.68 127.83 137.17 139.70 135.61 118.78 -41.43 -48.99 -45.20 -45.86 -30.30 -30.14 -25.63 -31.95 -44.89 -46.07 -49.70 -57.86 -59.32 -275.39 -270.68 -274.70 -276.62 -279.12 -286.21 -293.05 -290.74 -282.49 -274.68 -283.67 -287.22 -302.91 -287.36 -280.78 -282.70 -290.56 -285.92 -288.32 -291.21 -288.80 -283.93 -288.41 -288.40 -290.18 -286.71 -287.53 -284.38 -291.61 -288.04 -288.09 -288.73 -286.76 -289.09 -293.77 -288.54 -290.15 -287.79 -291.53 -188.52 -226.27 -255.03 -265.33 -235.22 -247.54 -231.90 -258.37 -248.95 -281.68 -312.81 -366.97 -403.42 -474.47 -541.62 -596.20 -621.61 -651.09 -648.11
4306.17 4305.93 4297.65 4115.93 4070.20 4086.68 4078.90 4032.50 3987.83 3975.61 3950.94 3939.36 3944.73 3566.48 3584.50 3580.53 3596.21 3600.62 3615.17 3645.00 3668.54 3673.29 3623.43 3584.72 3573.29 3564.81 864.90 870.41 873.85 920.00 957.02 973.29 949.03 924.12 901.58 901.55 908.44 900.05 884.65 920.78 917.11 889.75 867.06 853.44 844.26 839.79 844.48 839.89 835.87 833.61 844.39 858.96 159.04 154.83 154.48 148.98 152.63 164.10 163.15 148.30 139.58 138.52 154.77 150.93 119.82 -33.03 -24.77 -21.85 -31.80 -22.34 -31.27 -27.22 -37.65 -41.41 -50.96 -61.00 -63.27 -65.11 -277.42 -281.31 -270.70 -281.99 -287.30 -296.04 -292.83 -286.88 -289.90 -285.55 -283.82 -291.98 -297.74 -288.36 -283.14 -284.15 -286.57 -284.46 -285.87 -283.71 -287.93 -282.06 -279.34 -281.34 -285.36 -287.15 -285.97 -285.68 -286.02 -281.37 -285.61 -286.79 -289.03 -294.82 -285.41 -287.79 -287.14 -289.90 -289.29 -183.13 -201.14 -213.17 -203.63 -205.71 -216.30 -225.86 -224.13 -226.84 -249.80 -278.54 -336.64 -386.12 -476.49 -523.86 -585.24 -625.07 -636.93 -629.05
4340.41 4342.63 4244.50 4129.99 4142.06 4084.50 4071.43 4020.07 3988.97 3961.91 3938.71 3935.77 3935.13 3557.47 3570.42 3568.43 3560.54 3591.34 3608.44 3636.12 3662.72 3663.70 3652.23 3613.72 3582.08 3560.02 851.00 857.20 870.58 913.22 945.22 968.13 963.43 952.15 952.89 950.68 955.32 931.29 906.46 940.89 933.76 901.29 861.17 852.87 856.47 863.13 851.54 850.62 845.69 843.95 855.48 866.31 183.88 180.26 162.83 156.71 169.83 166.37 171.58 161.80 158.04 161.63 160.35 150.78 149.18 -19.30 -22.94 -27.94 -25.57 -32.25 -28.81 -30.11 -38.09 -47.41 -52.36 -61.80 -60.61 -56.98 -280.01 -284.34 -291.74 -287.23 -296.49 -298.51 -296.99 -304.44 -292.83 -295.18 -288.39 -300.16 -300.55 -287.50 -281.06 -280.88 -281.49 -277.69 -279.45 -282.63 -282.21 -285.73 -281.57 -284.27 -280.71 -283.87 -284.13 -282.76 -281.85 -295.51 -290.45 -289.46 -292.70 -287.71 -288.62 -286.60 -290.53 -291.75 -284.79 -170.84 -167.99 -193.41 -185.45 -180.26 -188.61 -189.51 -193.63 -197.05 -220.37 -257.23 -301.05 -334.95 -425.27 -513.79 -533.17 -593.22 -599.45 -598.76
1385.91 1383.53 1280.20 1246.25 1237.89 1175.43 1115.14 1074.24 1034.57 1028.13 1004.39 989.85 975.54 734.39 725.21 725.77 733.18 754.72 780.69 813.53 816.42 836.08 804.16 788.45 757.06 747.68 480.52 493.72 532.20 560.73 570.85 577.68 568.95 564.81 577.29 596.31 593.18 581.56 572.81 788.31 753.24 719.40 698.80 686.51 685.94 695.53 685.27 675.17 659.25 658.01 666.88 677.60 190.88 192.79 186.44 190.20 184.38 186.31 191.47 186.83 188.10 181.40 181.39 169.84 169.60 -30.63 -28.35 -37.50 -41.03 -40.24 -51.13 -44.00 -57.42 -64.03 -67.30 -78.43 -76.34 -69.78 -259.50 -263.27 -260.65 -275.32 -276.94 -288.15 -285.12 -286.60 -277.31 -281.08 -279.38 -284.59 -283.08 -293.83 -289.80 -286.50 -295.61 -292.24 -296.15 -298.82 -301.51 -301.42 -298.30 -300.95 -299.65 -304.55 -726.55 -718.69 -728.22 -726.54 -729.16 -729.33 -729.40 -726.45 -731.40 -727.26 -724.45 -726.70 -726.48 -177.22 -176.21 -176.17 -173.17 -174.40 -173.27 -174.53 -174.89 -181.57 -201.57 -235.48 -248.01 -283.01 -384.38 -481.02 -512.91 -540.75 -546.31 -554.60
1436.64 1440.80 1410.04 1283.90 1299.81 1232.59 1172.71 1110.70 1067.85 1042.72 1023.88 1009.43 985.23 739.09 733.96 725.61 718.55 729.07 756.45 787.84 798.94 800.24 787.08 753.46 748.31 740.58 478.37 519.73 525.39 551.63 567.10 553.97 545.37 540.69 548.97 583.96 592.64 587.59 583.83 805.94 788.96 744.23 719.17 700.72 719.46 729.28 717.07 698.37 686.92 686.69 669.86 684.47 190.47 200.79 188.30 180.17 189.21 182.89 182.11 178.83 183.78 188.95 191.64 194.16 177.19 -12.94 -14.25 -32.87 -31.94 -45.90 -42.46 -45.61 -47.39 -54.30 -63.68 -72.22 -74.25 -72.28 -254.12 -255.77 -266.33 -259.55 -273.77 -276.06 -287.09 -288.18 -286.74 -287.60 -288.51 -276.22 -279.94 -285.91 -287.27 -296.27 -303.28 -299.59 -298.65 -301.53 -297.18 -309.06 -303.15 -302.70 -297.67 -301.54 -731.06 -731.54 -734.03 -726.39 -734.18 -729.53 -734.99 -735.07 -728.72 -723.10 -730.72 -734.87 -729.79 -171.73 -174.62 -177.80 -175.50 -174.58 -175.77 -178.77 -172.26 -178.99 -180.93 -207.39 -240.23 -272.00 -366.08 -434.28 -434.90 -486.89 -494.70 -494.15
1548.92 1538.60 1437.91 1335.62 1317.10 1246.03 1186.28 1133.44 1081.90 1061.32 1058.41 1034.12 1018.05 751.16 731.22 716.40 721.25 730.69 757.94 763.00 766.43 757.42 768.84 747.19 740.07 727.51 484.99 508.67 523.65 527.34 527.09 529.93 522.93 527.46 542.77 557.19 560.53 569.84 578.78 813.19 803.27 764.89 726.39 724.92 723.26 737.50 733.10 718.64 702.56 708.06 685.02 691.73 201.26 195.80 189.38 180.11 190.64 177.93 179.79 174.65 170.63 187.50 191.66 200.88 188.33 -4.21 -12.99 -26.12 -29.84 -42.40 -44.08 -47.02 -58.92 -52.30 -72.63 -79.67 -79.26 -75.20 -252.69 -258.10 -266.07 -272.16 -270.51 -274.77 -282.99 -282.55 -281.77 -280.10 -276.77 -273.97 -272.05 -285.02 -290.81 -297.69 -300.24 -293.49 -295.00 -298.69 -303.13 -298.68 -301.96 -301.16 -300.05 -297.53 -730.07 -734.24 -725.24 -729.09 -726.24 -735.10 -728.62 -728.09 -732.12 -735.46 -727.04 -725.46 -735.38 -173.97 -169.02 -168.50 -171.54 -176.03 -170.25 -174.48 -175.01 -170.96 -174.90 -190.84 -201.70 -268.69 -299.57 -392.36 -391.32 -430.59 -445.28 -445.47
1515.38 1520.11 1519.54 1346.60 1331.70 1285.53 1204.12 1161.67 1122.04 1092.25 1072.46 1039.67 1020.41 747.32 730.69 717.97 715.65 736.85 745.66 759.88 755.16 743.18 737.39 731.44 727.54 731.99 479.32 520.37 516.70 525.58 516.30 492.33 491.25 520.07 514.79 514.70 517.52 534.30 564.24 806.86 818.03 783.70 759.92 749.25 739.08 743.32 737.91 723.64 724.05 706.72 706.01 689.57 193.66 186.61 178.33 182.70 182.34 175.66 170.36 160.41 156.51 161.78 175.22 185.52 184.60 -5.67 -15.08 -36.26 -36.00 -43.59 -49.32 -54.51 -55.80 -62.40 -72.82 -71.26 -80.29 -84.27 -268.25 -265.75 -261.27 -277.62 -272.53 -273.87 -269.95 -278.26 -283.28 -275.42 -271.22 -280.21 -276.63 -292.31 -297.84 -295.07 -294.34 -294.13 -288.42 -302.55 -300.02 -296.26 -302.28 -294.79 -303.33 -294.96 -725.87 -724.55 -730.09 -729.32 -730.95 -724.03 -730.19 -727.96 -728.65 -732.26 -731.37 -728.90 -731.81 -176.56 -175.76 -170.15 -168.68 -172.66 -173.00 -169.55 -171.63 -171.84 -170.65 -174.81 -189.70 -204.70 -231.30 -329.29 -341.21 -393.65 -383.50 -393.59
1494.90 1496.02 1414.81 1370.11 1326.82 1265.89 1176.51 1122.88 1108.21 1085.12 1058.26 1044.97 1023.48 756.32 737.95 731.73 729.82 721.89 733.59 737.99 725.77 731.91 732.64 720.04 726.91 739.57 491.92 515.78 530.51 510.28 490.88 479.79 484.00 500.82 500.43 492.00 496.30 506.46 556.43 806.55 819.72 789.74 766.63 751.39 739.75 735.68 723.19 720.04 714.65 705.59 696.36 690.34 178.76 178.64 172.96 165.97 167.19 161.77 154.48 156.28 159.77 154.52 175.43 175.74 175.04 -7.08 -29.91 -36.09 -51.10 -41.74 -53.26 -61.84 -59.81 -56.66 -59.38 -70.58 -77.40 -89.40 -268.05 -267.00 -280.05 -282.07 -277.96 -277.32 -272.52 -278.22 -275.09 -267.43 -274.75 -277.54 -280.77 -297.65 -295.56 -293.70 -291.89 -290.00 -290.16 -296.54 -302.17 -302.59 -296.26 -300.55 -291.73 -300.45 -726.13 -727.68 -728.04 -729.75 -730.34 -730.46 -731.83 -726.42 -736.39 -732.36 -731.53 -728.40 -731.87 -176.77 -171.88 -164.71 -168.06 -168.14 -166.22 -164.25 -167.37 -174.43 -175.84 -168.31 -179.57 -176.78 -179.49 -244.21 -274.10 -307.86 -340.52 -334.36
1490.33 1485.17 1408.20 1317.52 1301.28 1216.98 1116.16 1078.21 1050.90 1050.07 1048.46 1015.37 1014.70 736.34 757.59 731.14 722.81 714.51 713.77 711.20 717.23 718.25 720.05 714.99 733.37 731.98 496.72 510.27 515.00 508.52 489.59 459.01 463.61 478.24 476.93 481.32 504.56 509.26 547.71 811.60 804.02 792.54 755.83 745.62 735.11 730.14 721.68 711.36 708.64 695.95 692.18 676.45 176.84 173.50 176.06 166.62 173.32 166.00 165.53 161.35 153.35 144.53 159.75 176.78 175.70 -9.50 -20.20 -36.99 -38.90 -53.59 -51.53 -52.55 -52.78 -64.72 -54.67 -70.30 -78.37 -84.17 -276.18 -266.12 -273.87 -275.81 -280.85 -280.19 -279.92 -277.77 -270.44 -275.13 -268.66 -270.23 -283.16 -298.07 -296.38 -295.84 -292.45 -286.95 -299.23 -296.34 -298.55 -296.29 -298.51 -297.51 -290.62 -292.06 -717.90 -725.96 -729.63 -729.13 -727.66 -724.12 -729.40 -735.74 -732.23 -726.43 -723.49 -728.45 -730.28 -165.68 -169.01 -162.25 -157.18 -162.82 -165.72 -159.14 -161.57 -165.85 -169.30 -178.07 -172.78 -174.76 -177.70 -195.07 -205.46 -242.85 -271.21 -271.15
1409.35 1413.15 1359.76 1264.70 1198.88 1155.15 1096.60 1067.36 1049.96 1020.33 998.11 1000.71 1005.65 771.54 770.16 757.49 733.58 717.52 713.35 715.56 718.31 710.79 698.93 713.49 721.94 728.64 460.09 495.62 487.33 489.10 469.56 463.52 453.80 463.77 468.38 492.48 508.88 543.31 547.61 790.91 788.45 756.62 745.10 731.92 719.87 712.93 700.39 702.64 702.80 696.42 679.22 670.60 179.69 183.71 180.28 183.64 180.71 187.30 175.85 170.24 151.87 145.23 149.15 164.21 173.67 -11.87 -10.81 -23.50 -37.40 -39.14 -42.96 -41.41 -44.86 -42.45 -52.04 -67.44 -82.23 -82.95 -265.35 -275.39 -275.26 -270.98 -282.68 -281.05 -275.52 -274.27 -271.29 -273.56 -274.97 -281.96 -282.18 -287.97 -281.77 -290.10 -289.93 -298.05 -296.45 -291.67 -295.46 -295.25 -287.21 -290.80 -291.37 -297.74 -721.23 -723.45 -735.16 -723.44 -732.55 -735.17 -726.39 -727.94 -733.34 -732.12 -728.63 -729.64 -727.27 -172.95 -171.95 -161.48 -157.84 -149.95 -154.34 -155.34 -159.91 -164.01 -161.60 -170.56 -178.42 -169.48 -177.33 -190.59 -183.50 -216.69 -221.50 -221.06
1330.26 1330.29 1320.48 1260.61 1206.46 1157.73 1100.03 1106.25 1072.97 1034.93 990.71 991.62 1011.92 786.57 802.37 762.12 749.04 735.86 741.02 736.75 730.22 721.37 714.08 708.00 714.90 725.41 450.08 444.10 471.76 462.84 461.98 451.36 450.05 451.13 452.13 473.91 516.29 523.31 531.42 776.40 765.99 743.12 727.39 724.84 703.29 712.89 697.18 697.07 691.61 684.71 687.56 683.91 197.90 202.45 198.50 199.12 187.80 182.90 184.79 174.78 158.38 147.63 143.14 150.29 171.70 -20.87 -16.11 -25.57 -23.98 -29.55 -33.71 -36.86 -46.31 -48.05 -53.90 -61.34 -77.21 -82.84 -259.67 -260.52 -265.09 -273.79 -275.32 -267.48 -265.38 -270.82 -260.42 -270.55 -279.11 -280.53 -276.93 -282.36 -282.71 -283.59 -290.78 -290.86 -284.33 -280.12 -288.19 -283.67 -286.05 -286.36 -288.87 -293.43 -720.32 -729.15 -728.46 -728.53 -732.76 -728.64 -735.30 -728.51 -729.28 -730.81 -731.72 -724.28 -729.11 -173.24 -168.09 -160.71 -167.15 -152.95 -152.33 -147.15 -147.81 -162.39 -168.77 -168.37 -166.00 -174.05 -174.42 -176.41 -177.61 -193.90 -223.35 -219.82
1249.23 1251.05 1292.92 1234.95 1224.95 1190.72 1163.43 1156.24 1123.23 1050.01 995.71 1015.36 1055.53 831.63 820.43 799.05 756.23 752.65 763.60 768.87 749.01 738.64 709.33 708.60 700.80 708.48 428.81 434.45 449.24 456.17 452.36 451.16 443.13 447.98 446.11 455.27 487.80 517.37 526.03 771.01 756.54 747.13 720.74 713.28 709.84 704.11 702.66 685.77 689.98 698.57 695.36 685.99 206.49 211.11 201.41 195.45 184.85 188.67 188.60 178.96 169.12 154.52 143.03 136.84 153.91 -18.41 -12.68 -20.30 -28.20 -29.32 -36.81 -41.12 -43.90 -44.88 -53.11 -62.92 -71.46 -70.71 -249.68 -249.67 -263.20 -257.79 -264.92 -262.59 -259.16 -254.96 -254.63 -273.77 -277.00 -278.78 -268.67 -283.21 -281.83 -284.48 -283.20 -284.31 -274.10 -278.52 -279.58 -281.16 -281.33 -281.97 -285.85 -291.67 -721.32 -726.77 -727.72 -723.17 -728.57 -731.50 -731.22 -726.48 -724.86 -734.43 -727.89 -722.50 -722.66 -171.19 -174.03 -172.86 -158.05 -147.95 -140.63 -139.49 -146.30 -151.43 -159.62 -170.83 -166.03 -172.57 -179.25 -176.40 -174.75 -189.41 -170.64 -173.03
