591.30 595.93 597.96 558.22 541.18 533.02 524.27 522.50 527.68 522.80 521.95 525.13 520.80 131.22 127.92 128.35 130.52 128.71 121.56 106.94 111.07 122.00 136.46 130.70 121.68 115.71 -153.39 -156.11 -159.83 -163.84 -169.81 -172.61 -176.80 -188.43 -190.50 -191.30 -187.17 -188.40 -186.67 -646.36 -652.02 -659.46 -657.98 -660.46 -665.64 -659.07 -663.02 -661.28 -665.43 -657.21 -663.65 -661.80 -1572.47 -1564.46 -1571.26 -1568.33 -1573.74 -1569.72 -1593.13 -1602.88 -1760.82 -2255.33 -2465.97 -2613.11 -2635.54 -2646.46 -2654.43 -2664.09 -2670.20 -2678.90 -2692.71 -2689.09 -2723.19 -2749.31 -2747.30 -2783.06 -2827.08 -2845.91 -3600.36 -3602.32 -3655.85 -3706.37 -3715.84 -3738.89 -3795.82 -3816.31 -3840.68 -3858.78 -3845.44 -3835.65 -3804.72 -3665.52 -3672.68 -3642.05 -3646.58 -3660.45 -3683.55 -3714.46 -3794.77 -3823.83 -3860.96 -3910.59 -3951.57 -3989.55 -4191.14 -4207.89 -4243.42 -4270.51 -4293.51 -4292.71 -4327.76 -4353.06 -4384.71 -4443.70 -4448.11 -4487.90 -4535.00 -2465.34 -2472.48 -2474.33 -2489.20 -2512.63 -2531.45 -2537.45 -2537.39 -2543.20 -2546.51 -2548.72 -2553.53 -2562.14 -2556.97 -2553.60 -2552.82 -2551.73 -2550.80 -2553.56
596.89 599.48 601.08 550.15 544.78 532.35 524.63 526.98 527.61 536.58 532.55 529.62 527.36 134.11 125.26 122.90 120.74 120.32 119.02 108.68 117.03 128.12 128.26 134.73 126.14 110.70 -148.52 -157.98 -164.49 -171.69 -171.97 -174.14 -177.93 -195.74 -197.78 -195.57 -191.75 -190.63 -184.62 -654.70 -658.39 -653.25 -655.87 -662.83 -658.50 -660.31 -657.90 -668.34 -666.65 -657.43 -658.42 -654.85 -1567.60 -1567.81 -1567.49 -1569.38 -1568.34 -1566.89 -1580.88 -1592.99 -1609.82 -1924.29 -2257.87 -2354.77 -2599.23 -2581.50 -2626.16 -2613.85 -2619.74 -2632.69 -2642.42 -2660.04 -2690.55 -2707.93 -2713.29 -2737.97 -2789.79 -2818.71 -3554.73 -3562.94 -3620.38 -3647.99 -3645.56 -3696.83 -3695.45 -3740.85 -3752.73 -3789.65 -3801.17 -3805.10 -3796.26 -3652.86 -3656.92 -3635.73 -3622.19 -3629.53 -3639.47 -3683.95 -3742.27 -3805.24 -3852.11 -3896.31 -3923.19 -3939.80 -4149.36 -4176.90 -4186.61 -4219.33 -4223.04 -4233.44 -4249.28 -4303.37 -4339.05 -4359.65 -4416.05 -4453.42 -4500.18 -2415.34 -2439.85 -2455.26 -2469.98 -2511.61 -2513.73 -2519.51 -2514.20 -2535.01 -2542.97 -2534.03 -2541.53 -2555.81 -2537.46 -2547.98 -2548.07 -2558.52 -2551.49 -2556.88
602.15 607.48 578.88 557.84 536.04 540.16 531.19 533.91 540.62 543.20 533.53 527.57 522.52 137.06 127.72 122.62 119.77 118.05 119.68 108.23 119.20 126.87 126.06 126.05 125.16 117.61 -154.03 -145.47 -161.47 -179.90 -179.41 -183.04 -193.47 -198.92 -202.58 -197.05 -196.60 -196.36 -190.82 -655.29 -655.75 -657.58 -661.85 -658.60 -660.72 -663.71 -661.52 -658.80 -658.08 -661.51 -665.07 -665.82 -1568.48 -1565.84 -1570.90 -1565.93 -1563.77 -1567.62 -1572.77 -1594.08 -1600.84 -1752.82 -1863.65 -2071.10 -2452.51 -2504.72 -2533.68 -2598.12 -2573.30 -2570.46 -2579.56 -2594.56 -2642.82 -2643.64 -2673.74 -2705.06 -2754.81 -2767.95 -3532.99 -3550.20 -3526.94 -3611.99 -3593.01 -3631.79 -3660.23 -3665.06 -3729.80 -3736.74 -3789.63 -3778.42 -3777.39 -3603.48 -3601.42 -3576.64 -3590.51 -3586.68 -3605.48 -3643.30 -3732.73 -3785.21 -3820.19 -3837.24 -3896.09 -3903.17 -4096.95 -4124.57 -4113.58 -4112.04 -4140.96 -4161.50 -4184.78 -4231.13 -4270.15 -4317.01 -4369.57 -4384.74 -4450.20 -2364.66 -2417.65 -2445.92 -2454.07 -2479.11 -2509.07 -2503.26 -2513.99 -2520.01 -2520.95 -2530.86 -2529.81 -2536.15 -2540.52 -2550.80 -2551.75 -2548.62 -2558.23 -2555.13
568.46 569.91 567.96 554.33 540.28 537.34 531.53 529.08 541.15 539.51 531.60 522.06 514.41 123.16 128.41 118.42 124.10 121.77 119.51 125.08 127.92 133.79 133.45 119.29 122.30 103.13 -155.37 -161.68 -177.01 -181.03 -192.16 -192.68 -194.27 -202.93 -198.40 -192.21 -193.17 -198.62 -191.01 -653.03 -656.15 -655.84 -665.38 -662.40 -662.92 -659.47 -659.27 -663.58 -658.34 -663.29 -661.13 -661.35 -1561.85 -1569.98 -1573.41 -1564.06 -1565.94 -1566.27 -1570.02 -1571.88 -1590.82 -1642.70 -1837.17 -1904.48 -2177.71 -2482.83 -2478.35 -2476.71 -2536.28 -2530.01 -2549.71 -2553.01 -2574.53 -2613.08 -2631.16 -2683.87 -2726.28 -2728.81 -3491.29 -3488.73 -3514.05 -3509.40 -3562.46 -3581.22 -3602.38 -3617.35 -3637.49 -3681.78 -3705.86 -3716.92 -3742.01 -3591.02 -3575.43 -3570.60 -3564.04 -3567.90 -3584.21 -3590.89 -3654.44 -3740.38 -3802.13 -3821.58 -3827.32 -3880.57 -4074.70 -4066.30 -4067.35 -4087.56 -4094.41 -4106.05 -4149.69 -4184.86 -4248.27 -4269.25 -4294.10 -4348.91 -4397.94 -2357.61 -2386.48 -2402.65 -2439.45 -2442.29 -2471.43 -2499.43 -2495.29 -2502.40 -2509.17 -2510.21 -2523.29 -2521.56 -2530.04 -2536.76 -2538.45 -2549.68 -2554.34 -2551.40
580.12 585.00 578.27 568.19 554.67 541.00 547.94 548.28 552.94 550.33 535.40 517.63 515.00 125.05 129.09 122.93 128.63 140.09 132.81 133.93 131.64 133.42 127.90 118.72 108.13 104.87 -167.17 -165.95 -169.34 -180.46 -195.17 -200.44 -197.66 -200.04 -195.74 -189.18 -193.47 -196.05 -200.27 -659.88 -660.33 -668.99 -656.32 -658.21 -661.17 -653.91 -662.08 -663.57 -660.70 -652.81 -654.22 -661.37 -1565.11 -1569.07 -1566.34 -1571.27 -1569.72 -1563.69 -1573.96 -1566.77 -1593.14 -1627.37 -1664.30 -1745.60 -1912.08 -2032.20 -2345.98 -2434.58 -2337.65 -2406.35 -2438.41 -2453.15 -2491.36 -2566.62 -2614.00 -2586.49 -2591.33 -2705.37 -3422.02 -3441.61 -3442.21 -3488.27 -3457.26 -3517.93 -3541.14 -3548.22 -3552.52 -3575.44 -3644.21 -3673.29 -3709.67 -3580.09 -3558.86 -3550.71 -3531.17 -3538.90 -3576.26 -3571.80 -3592.75 -3645.87 -3724.46 -3752.80 -3810.93 -3830.50 -4041.57 -4041.15 -4048.27 -4050.87 -4087.90 -4079.14 -4082.75 -4108.35 -4136.33 -4185.98 -4237.35 -4294.30 -4299.96 -2297.07 -2329.65 -2385.10 -2406.35 -2435.02 -2441.21 -2472.01 -2457.38 -2479.35 -2487.25 -2490.95 -2505.93 -2512.32 -2513.10 -2522.62 -2539.45 -2552.28 -2546.96 -2548.03
595.32 596.59 585.89 579.97 576.76 560.78 567.08 562.92 560.48 549.49 540.35 534.74 512.25 129.81 131.96 138.23 140.91 141.49 137.88 130.63 128.68 135.23 129.94 127.40 108.97 83.67 -184.61 -183.02 -180.21 -196.74 -197.13 -198.51 -193.72 -191.63 -194.36 -188.80 -190.51 -196.05 -199.79 -661.89 -663.62 -664.25 -659.32 -653.23 -659.76 -658.86 -660.73 -652.05 -666.90 -659.51 -661.36 -664.10 -1572.98 -1568.54 -1564.91 -1569.59 -1570.51 -1565.57 -1571.16 -1572.74 -1570.75 -1589.50 -1676.38 -1727.58 -1889.44 -2037.55 -2151.14 -2282.35 -2253.36 -2252.75 -2258.35 -2344.86 -2356.46 -2384.38 -2368.11 -2405.33 -2519.21 -2484.34 -3328.85 -3337.56 -3401.76 -3414.87 -3428.26 -3467.60 -3476.29 -3495.38 -3543.15 -3568.52 -3628.65 -3668.21 -3668.25 -3540.89 -3545.98 -3519.02 -3517.67 -3523.68 -3538.69 -3561.49 -3569.43 -3636.14 -3671.45 -3746.32 -3801.09 -3809.96 -4012.15 -4018.53 -4021.81 -4019.48 -4045.03 -4069.25 -4067.80 -4088.34 -4107.74 -4148.24 -4215.27 -4209.72 -4255.84 -2186.81 -2255.25 -2321.56 -2366.00 -2424.77 -2433.90 -2441.15 -2459.71 -2463.94 -2476.72 -2475.48 -2476.36 -2492.26 -2493.61 -2512.81 -2516.72 -2545.62 -2546.12 -2546.07
633.52 640.55 632.54 632.93 613.02 595.95 594.08 587.02 577.40 576.80 561.72 551.68 543.09 125.77 127.94 130.56 136.34 129.34 128.12 126.39 117.96 116.43 116.38 106.37 94.36 83.36 -181.65 -188.94 -199.62 -196.73 -193.18 -198.09 -188.08 -184.11 -181.21 -186.00 -192.71 -197.97 -198.96 -695.67 -699.22 -701.39 -698.38 -691.51 -686.68 -694.66 -692.68 -691.18 -691.32 -698.52 -699.19 -700.32 -1468.22 -1468.28 -1463.68 -1463.59 -1464.82 -1467.59 -1465.13 -1467.20 -1468.80 -1476.10 -1545.00 -1638.08 -1705.87 -2255.85 -2538.73 -2534.83 -2456.28 -2501.95 -2560.72 -2620.66 -2747.90 -2742.07 -2677.25 -2734.72 -2708.94 -2865.32 -3488.48 -3496.92 -3610.67 -3669.32 -3748.80 -3748.52 -3787.68 -3792.03 -3822.48 -3830.30 -3951.11 -3956.26 -3987.05 -4003.32 -4032.09 -4032.57 -4016.76 -4023.27 -4027.90 -4078.35 -4084.94 -4107.71 -4170.59 -4205.50 -4266.62 -4302.42 -4290.69 -4301.68 -4304.31 -4308.52 -4327.30 -4345.59 -4340.36 -4360.02 -4375.61 -4408.15 -4430.41 -4475.04 -4475.99 -2145.52 -2221.15 -2241.63 -2331.25 -2368.52 -2398.05 -2428.20 -2448.73 -2438.96 -2454.21 -2457.58 -2471.07 -2473.66 -2479.56 -2496.56 -2501.78 -2525.60 -2540.37 -2535.42
662.09 662.28 679.92 659.96 641.64 600.35 594.46 592.35 585.21 561.93 547.01 548.30 541.82 125.97 125.25 134.66 135.25 128.89 125.71 118.01 111.09 116.22 110.66 100.10 93.83 78.96 -185.51 -197.56 -187.91 -194.41 -175.91 -184.77 -178.08 -176.18 -170.93 -190.63 -199.47 -202.55 -202.31 -703.23 -702.77 -699.75 -698.88 -689.71 -691.57 -688.06 -695.68 -693.89 -702.64 -696.58 -695.81 -702.93 -1462.42 -1472.08 -1463.12 -1464.56 -1461.60 -1460.66 -1468.29 -1468.75 -1468.06 -1483.17 -1550.93 -1640.86 -1739.06 -2278.25 -2371.44 -2345.24 -2429.06 -2473.74 -2463.51 -2557.82 -2604.61 -2593.00 -2631.68 -2607.42 -2652.33 -2722.68 -3334.50 -3330.16 -3439.65 -3500.52 -3504.93 -3581.59 -3643.10 -3682.60 -3666.76 -3681.99 -3739.97 -3901.80 -3923.26 -3986.83 -4008.99 -4006.08 -4000.04 -3978.05 -3984.91 -3994.40 -4030.31 -4078.14 -4129.65 -4188.32 -4217.95 -4263.17 -4257.24 -4267.08 -4264.06 -4286.70 -4279.80 -4310.81 -4324.83 -4344.67 -4359.31 -4359.94 -4395.81 -4412.06 -4470.11 -2071.26 -2143.22 -2196.94 -2284.27 -2309.10 -2385.62 -2389.54 -2403.70 -2422.59 -2427.12 -2430.15 -2448.79 -2468.03 -2469.41 -2479.44 -2486.68 -2516.06 -2521.19 -2520.92
740.06 741.95 757.13 670.48 648.83 611.30 589.84 580.72 572.29 548.45 548.07 546.73 540.10 120.76 126.03 130.58 132.72 124.65 115.60 107.10 101.06 91.60 92.59 81.81 75.28 74.77 -195.86 -196.64 -182.48 -180.19 -172.88 -181.62 -172.92 -173.22 -177.64 -188.37 -197.83 -199.27 -197.97 -695.94 -698.98 -699.88 -686.58 -694.22 -686.98 -684.25 -693.05 -689.88 -694.52 -695.36 -693.14 -699.02 -1466.56 -1462.43 -1465.54 -1465.12 -1467.67 -1462.59 -1465.60 -1468.13 -1478.03 -1491.55 -1519.18 -1611.50 -1653.21 -2238.85 -2249.20 -2290.01 -2287.35 -2329.66 -2377.02 -2306.14 -2468.98 -2487.62 -2483.53 -2439.60 -2517.96 -2571.91 -3288.37 -3277.15 -3300.47 -3432.05 -3440.04 -3439.86 -3424.96 -3558.23 -3615.29 -3628.68 -3724.76 -3864.73 -3900.57 -3953.32 -3974.21 -3967.89 -3948.25 -3945.14 -3955.69 -3989.09 -4021.45 -4045.13 -4105.13 -4170.59 -4183.69 -4212.59 -4239.05 -4248.02 -4259.78 -4255.94 -4284.79 -4296.33 -4299.76 -4316.00 -4326.31 -4354.79 -4367.39 -4397.63 -4405.53 -2038.79 -2124.04 -2180.20 -2202.23 -2290.26 -2327.18 -2372.19 -2366.26 -2399.60 -2393.66 -2415.38 -2423.20 -2441.04 -2455.14 -2474.54 -2482.63 -2501.17 -2503.89 -2502.31
888.01 883.62 798.16 708.85 655.71 614.82 579.58 564.30 557.54 553.66 553.98 555.87 547.26 122.52 126.12 135.68 126.68 120.79 102.21 87.90 79.31 71.65 71.54 64.14 63.45 58.13 -200.06 -182.24 -186.50 -168.25 -161.85 -168.61 -168.55 -177.52 -184.18 -189.54 -194.22 -197.54 -197.77 -682.28 -694.15 -688.71 -693.36 -685.38 -685.38 -687.98 -688.11 -681.72 -691.16 -689.64 -695.06 -694.61 -1466.16 -1466.75 -1466.86 -1463.70 -1456.85 -1472.67 -1461.11 -1468.92 -1502.67 -1515.06 -1564.78 -1600.22 -1607.86 -2161.63 -2170.62 -2124.98 -2150.13 -2198.80 -2202.81 -2267.41 -2292.80 -2370.20 -2369.96 -2423.47 -2393.65 -2499.32 -3128.68 -3132.29 -3252.19 -3296.74 -3296.95 -3314.81 -3360.07 -3341.74 -3419.53 -3657.76 -3702.07 -3793.59 -3815.71 -3864.99 -3902.06 -3917.71 -3943.22 -3941.18 -3942.28 -3961.55 -3987.12 -4038.53 -4069.45 -4133.80 -4143.81 -4206.29 -4185.14 -4228.12 -4242.61 -4249.05 -4252.04 -4270.65 -4285.33 -4305.80 -4319.18 -4324.36 -4355.64 -4368.26 -4386.28 -1997.87 -2054.00 -2106.76 -2149.02 -2224.36 -2272.68 -2301.62 -2326.90 -2359.67 -2371.86 -2389.68 -2408.58 -2412.88 -2450.31 -2459.93 -2458.18 -2473.15 -2490.78 -2477.74
873.39 880.62 889.66 658.72 663.54 609.45 585.56 565.60 562.44 562.14 565.97 556.18 543.37 123.38 129.59 136.41 132.04 127.40 107.22 93.45 62.62 65.19 69.12 66.28 63.09 63.81 -185.18 -178.17 -164.89 -159.99 -151.01 -163.36 -173.59 -181.90 -188.23 -194.32 -194.13 -197.34 -191.60 -687.21 -684.94 -689.25 -692.19 -685.87 -680.46 -679.44 -689.96 -689.13 -694.56 -685.55 -691.20 -695.34 -1462.65 -1468.69 -1463.20 -1457.03 -1460.71 -1461.18 -1463.73 -1468.75 -1500.50 -1528.72 -1533.39 -1542.52 -1532.30 -2036.92 -2030.38 -2052.16 -2032.09 -2081.33 -2130.74 -2208.88 -2249.13 -2276.97 -2280.72 -2354.48 -2377.16 -2405.13 -3011.44 -3031.58 -3155.46 -3176.83 -3209.95 -3181.98 -3121.80 -3105.33 -3139.34 -3241.79 -3543.33 -3636.65 -3605.79 -3830.67 -3858.72 -3892.45 -3909.46 -3925.56 -3932.64 -3943.14 -3963.00 -4009.82 -4068.48 -4098.34 -4137.12 -4183.67 -4175.02 -4179.89 -4214.65 -4216.58 -4237.10 -4258.30 -4274.94 -4279.78 -4291.09 -4311.04 -4329.60 -4339.31 -4372.65 -1980.62 -2046.24 -2102.51 -2130.05 -2187.38 -2223.61 -2277.05 -2305.23 -2314.63 -2339.90 -2336.65 -2357.86 -2362.70 -2377.60 -2383.45 -2416.67 -2439.39 -2457.90 -2452.22
899.69 899.90 811.06 685.56 629.83 614.69 569.10 571.71 563.06 557.33 555.61 549.74 542.76 132.26 143.35 137.57 131.12 119.58 105.61 83.36 75.65 69.56 67.08 78.21 71.48 65.38 -182.22 -170.47 -162.72 -155.74 -156.87 -176.34 -178.33 -182.54 -191.98 -198.15 -195.53 -188.79 -190.73 -685.73 -681.88 -686.76 -684.45 -680.00 -677.82 -674.25 -683.66 -689.70 -684.23 -694.98 -691.43 -701.28 -1469.29 -1471.60 -1462.54 -1457.52 -1461.96 -1464.55 -1466.08 -1461.76 -1488.97 -1524.55 -1518.74 -1525.69 -1496.30 -2009.03 -1985.53 -1998.47 -1997.28 -2025.90 -2049.06 -2132.93 -2197.50 -2224.47 -2261.93 -2258.20 -2268.82 -2315.49 -2973.91 -2960.57 -3008.47 -3068.99 -3013.84 -2999.64 -2988.06 -3000.65 -3016.99 -3173.90 -3240.83 -3379.23 -3486.27 -3531.34 -3625.22 -3760.24 -3882.82 -3887.44 -3914.20 -3939.65 -3965.45 -4014.11 -4030.04 -4069.88 -4127.44 -4143.70 -4149.25 -4163.61 -4187.52 -4197.17 -4228.75 -4236.68 -4268.70 -4275.59 -4295.91 -4295.58 -4313.96 -4333.49 -4334.84 -1954.99 -2013.79 -2052.35 -2112.25 -2110.96 -2214.17 -2229.15 -2228.85 -2301.72 -2311.89 -2311.92 -2311.80 -2353.92 -2340.03 -2367.75 -2385.84 -2422.90 -2426.02 -2422.98
906.13 915.92 813.00 688.05 623.65 579.77 567.88 564.86 560.36 549.07 544.79 546.04 549.63 133.41 146.02 146.21 129.53 110.43 93.43 75.61 75.01 72.21 72.15 79.73 69.78 66.92 -172.77 -157.00 -152.84 -145.04 -151.21 -176.06 -185.73 -193.06 -185.16 -180.06 -168.02 -181.06 -174.98 -674.51 -672.71 -683.44 -679.45 -679.20 -674.76 -681.59 -696.98 -693.85 -693.25 -694.03 -696.12 -703.44 -1464.40 -1469.38 -1464.73 -1449.60 -1457.84 -1457.85 -1460.69 -1462.64 -1483.77 -1494.06 -1496.00 -1484.20 -1466.90 -1971.04 -1971.11 -1973.58 -1965.60 -2002.30 -2038.76 -2077.74 -2122.94 -2144.43 -2161.67 -2203.68 -2207.36 -2236.57 -2897.33 -2880.49 -2940.14 -2943.66 -2963.96 -2948.87 -2950.88 -2907.15 -2955.25 -3003.95 -3059.71 -3083.15 -3168.87 -3428.48 -3537.82 -3730.80 -3804.39 -3879.90 -3903.83 -3927.39 -3949.88 -3999.88 -4021.26 -4050.15 -4098.69 -4123.32 -4121.16 -4156.03 -4172.12 -4191.33 -4212.09 -4230.31 -4265.89 -4276.71 -4285.73 -4288.01 -4297.37 -4308.13 -4320.57 -1921.52 -1977.74 -2031.93 -2090.99 -2108.75 -2176.90 -2190.36 -2190.02 -2192.85 -2248.61 -2256.31 -2290.06 -2294.48 -2323.40 -2344.51 -2358.90 -2395.95 -2395.26 -2395.77
912.01 912.84 824.44 684.16 605.20 582.84 574.13 556.68 553.66 554.42 544.66 555.48 571.00 146.23 142.19 145.19 122.90 100.26 79.47 71.62 80.53 81.47 94.41 80.40 77.44 83.39 -169.74 -158.61 -153.82 -154.03 -160.59 -176.75 -179.88 -185.51 -175.40 -166.83 -168.56 -172.76 -175.50 -671.21 -666.87 -667.40 -670.82 -678.19 -677.55 -682.42 -688.81 -701.68 -693.80 -702.95 -701.02 -698.34 -1462.16 -1464.05 -1465.39 -1453.33 -1456.99 -1461.66 -1459.18 -1459.38 -1463.57 -1459.57 -1466.98 -1460.99 -1466.78 -1975.26 -1973.35 -1978.42 -1969.15 -1988.61 -2004.28 -2038.95 -2075.67 -2127.45 -2140.27 -2160.15 -2179.85 -2210.45 -2855.62 -2865.98 -2861.77 -2909.44 -2873.41 -2875.90 -2853.14 -2873.92 -2867.80 -2868.12 -2919.99 -2987.32 -3057.53 -3297.15 -3406.61 -3519.24 -3584.88 -3708.01 -3885.35 -3927.09 -3939.66 -3974.60 -4008.43 -4044.15 -4080.02 -4105.08 -4092.24 -4135.08 -4175.25 -4179.69 -4205.01 -4234.06 -4264.42 -4269.90 -4281.54 -4290.46 -4290.54 -4298.20 -4320.34 -1908.94 -1952.36 -2004.10 -2029.41 -2081.40 -2138.64 -2181.16 -2161.57 -2154.82 -2182.19 -2235.23 -2249.58 -2286.52 -2288.31 -2291.13 -2302.06 -2320.18 -2358.42 -2359.30
915.43 917.97 826.36 650.85 599.30 576.44 561.91 556.49 559.79 560.65 557.63 574.44 572.76 156.68 139.39 128.51 118.13 86.78 77.89 72.78 81.77 113.93 98.39 95.93 91.81 101.77 -150.54 -150.98 -149.38 -147.31 -163.18 -165.51 -174.64 -174.11 -164.54 -159.50 -154.74 -162.43 -162.09 -659.23 -668.18 -656.97 -670.36 -669.72 -674.29 -681.43 -690.19 -691.52 -692.87 -698.69 -694.40 -697.43 -1456.67 -1463.46 -1454.55 -1455.09 -1448.60 -1463.31 -1464.73 -1463.87 -1467.28 -1465.40 -1466.84 -1470.84 -1466.71 -1964.78 -1973.92 -1968.39 -1966.27 -1986.98 -2013.01 -2033.80 -2054.69 -2092.00 -2097.67 -2151.12 -2155.24 -2168.88 -2802.52 -2819.58 -2837.63 -2828.98 -2832.10 -2826.18 -2834.56 -2816.59 -2817.39 -2809.29 -2868.17 -2904.45 -3026.97 -3205.10 -3181.72 -3269.78 -3345.07 -3608.95 -3861.53 -3884.78 -3927.95 -3977.45 -3996.81 -4021.38 -4077.30 -4120.15 -4092.31 -4128.89 -4168.67 -4185.63 -4204.61 -4239.75 -4260.35 -4264.64 -4277.94 -4282.92 -4287.50 -4292.63 -4299.19 -1899.70 -1938.15 -1952.63 -2001.40 -2025.52 -2058.67 -2125.33 -2149.70 -2152.51 -2171.54 -2180.37 -2227.08 -2224.72 -2234.27 -2259.08 -2261.19 -2319.03 -2320.34 -2314.98
930.35 930.12 823.60 670.36 626.09 586.80 564.06 560.69 567.81 576.86 570.23 576.85 589.95 162.39 140.88 119.17 97.21 81.22 92.73 83.64 104.77 123.02 121.16 103.20 100.27 119.28 -131.01 -134.19 -138.42 -140.67 -141.54 -154.93 -160.15 -161.65 -152.99 -153.44 -157.75 -156.60 -171.44 -663.42 -666.67 -663.69 -671.63 -670.31 -675.37 -686.97 -690.13 -694.63 -702.98 -698.46 -698.03 -687.80 -1462.08 -1457.92 -1456.43 -1453.03 -1461.27 -1462.48 -1459.68 -1459.67 -1466.00 -1461.44 -1464.42 -1462.67 -1469.80 -1971.68 -1969.57 -1973.63 -1975.28 -1975.71 -1994.09 -1999.60 -2010.10 -2051.61 -2047.48 -2053.07 -2097.10 -2105.47 -2765.81 -2762.96 -2785.54 -2796.78 -2781.35 -2793.02 -2806.79 -2788.60 -2782.05 -2766.47 -2771.22 -2868.25 -2945.29 -3020.31 -3073.41 -3100.38 -3255.47 -3440.73 -3701.98 -3830.08 -3860.13 -3980.05 -3997.63 -4010.89 -4048.14 -4106.78 -4115.74 -4133.06 -4171.61 -4191.07 -4216.56 -4245.14 -4258.09 -4270.13 -4278.32 -4287.24 -4280.88 -4294.58 -4301.30 -1900.49 -1929.89 -1956.11 -1991.62 -1998.31 -2010.58 -2057.07 -2080.89 -2090.90 -2101.46 -2128.98 -2158.87 -2171.79 -2179.77 -2207.39 -2247.49 -2269.33 -2281.47 -2279.31
934.86 936.81 819.36 707.94 636.41 595.98 567.14 563.98 582.61 600.67 605.67 600.17 594.01 170.31 144.56 123.08 106.82 91.03 94.21 115.92 140.26 138.88 135.00 112.05 113.87 122.30 -126.03 -121.97 -134.75 -135.48 -144.55 -145.98 -153.82 -158.82 -148.35 -159.74 -170.63 -169.41 -180.13 -675.45 -675.24 -669.79 -670.90 -680.81 -680.18 -698.28 -680.23 -700.79 -701.87 -693.25 -696.38 -697.36 -1454.27 -1452.69 -1455.75 -1453.60 -1456.00 -1457.43 -1459.68 -1467.81 -1462.43 -1467.45 -1461.18 -1464.23 -1466.68 -1976.92 -1969.58 -1971.59 -1965.79 -1974.96 -1969.30 -1978.17 -1989.68 -2001.61 -2006.49 -2029.26 -2064.01 -2095.59 -2719.39 -2736.31 -2759.53 -2746.84 -2761.30 -2754.32 -2757.11 -2765.67 -2754.61 -2750.43 -2745.28 -2739.86 -2803.30 -2887.53 -2971.94 -3006.26 -3139.40 -3395.57 -3639.72 -3687.54 -3841.03 -3924.90 -3991.33 -4000.25 -4042.65 -4100.21 -4127.36 -4140.33 -4170.15 -4225.89 -4244.66 -4267.17 -4267.81 -4278.28 -4281.51 -4284.65 -4291.27 -4301.23 -4312.10 -1904.71 -1930.19 -1953.85 -1976.85 -1992.60 -2006.75 -2022.89 -2035.32 -2051.73 -2059.09 -2098.89 -2114.46 -2132.03 -2159.53 -2179.39 -2189.86 -2243.24 -2246.93 -2246.22
914.39 914.28 939.04 651.35 625.79 591.48 586.81 591.70 632.13 618.35 612.41 620.08 600.03 160.53 149.55 135.20 117.62 93.96 90.83 112.84 143.96 152.26 130.69 108.51 117.78 119.72 -114.46 -122.74 -117.62 -131.17 -146.60 -149.29 -151.88 -158.27 -160.81 -167.59 -183.96 -185.48 -189.02 -692.41 -688.71 -680.51 -679.36 -682.67 -692.78 -697.01 -698.31 -690.60 -697.88 -688.92 -689.25 -683.60 -1459.20 -1443.61 -1456.80 -1461.07 -1457.46 -1464.78 -1461.77 -1464.80 -1464.13 -1459.90 -1469.09 -1471.68 -1465.38 -1969.77 -1972.64 -1967.16 -1969.96 -1971.87 -1970.31 -1968.12 -1984.03 -1980.68 -2004.86 -2012.84 -2034.36 -2055.41 -2698.94 -2709.14 -2698.89 -2697.34 -2711.05 -2735.36 -2718.95 -2737.98 -2734.38 -2716.40 -2704.62 -2717.13 -2700.24 -2733.12 -2780.57 -2896.70 -3039.84 -3320.17 -3604.18 -3783.00 -3867.93 -3935.84 -3954.68 -4004.61 -4041.24 -4094.01 -4114.27 -4153.68 -4177.06 -4238.87 -4265.35 -4275.87 -4278.14 -4283.15 -4283.69 -4292.21 -4307.23 -4302.91 -4319.00 -1909.22 -1930.55 -1951.78 -1962.41 -1973.65 -1994.61 -2013.53 -2014.52 -2032.15 -2045.31 -2046.97 -2090.75 -2112.92 -2138.47 -2129.66 -2168.45 -2176.12 -2213.85 -2217.87
4289.70 4290.43 4173.95 4020.68 3942.57 3919.46 3915.58 3949.66 3958.14 3969.43 3942.34 3928.06 3902.29 3780.40 3764.04 3767.40 3745.17 3733.39 3729.18 3756.43 3783.48 3789.45 3786.20 3763.11 3769.32 3784.69 -95.68 -95.25 -108.02 -117.36 -124.23 -143.81 -152.41 -154.53 -159.02 -159.67 -167.87 -172.22 -171.27 -545.52 -559.36 -543.96 -554.68 -556.67 -559.46 -559.59 -555.31 -562.73 -548.25 -544.35 -542.16 -550.65 -850.18 -844.76 -858.41 -853.33 -863.81 -860.16 -858.60 -862.55 -862.29 -873.27 -864.19 -863.70 -865.35 -1317.71 -1325.85 -1321.16 -1318.95 -1324.74 -1322.24 -1321.91 -1322.61 -1322.54 -1337.30 -1354.98 -1362.95 -1379.05 -1497.74 -1513.70 -1516.51 -1527.38 -1520.45 -1509.94 -1532.93 -1507.31 -1489.51 -1510.65 -1509.16 -1519.55 -1505.69 -1549.08 -1590.90 -1608.74 -1782.69 -1960.68 -2274.92 -2484.74 -2713.73 -2747.25 -2794.64 -2844.94 -2852.43 -2969.99 -4228.98 -4281.32 -4339.04 -4378.04 -4385.41 -4399.16 -4393.06 -4405.73 -4396.75 -4409.89 -4417.60 -4425.42 -4447.46 -1924.74 -1937.61 -1948.69 -1952.34 -1965.87 -1989.08 -2002.58 -2010.33 -2006.47 -2021.90 -2032.60 -2040.96 -2072.49 -2102.81 -2122.96 -2129.95 -2177.43 -2186.78 -2183.43
4267.49 4264.41 4169.04 4054.93 3999.10 3919.54 3931.79 3945.85 3969.41 3954.70 3935.03 3910.80 3899.84 3775.99 3769.08 3757.46 3735.90 3735.53 3741.05 3754.54 3776.76 3787.26 3780.37 3770.38 3778.68 3789.18 -91.10 -89.22 -115.11 -120.59 -137.37 -138.84 -143.52 -150.69 -146.55 -147.14 -154.33 -158.02 -155.04 -535.42 -539.16 -540.57 -559.81 -556.02 -553.06 -557.43 -547.46 -554.64 -540.60 -544.52 -546.22 -545.99 -849.29 -851.65 -859.34 -857.49 -863.85 -866.20 -863.88 -866.17 -866.37 -866.96 -866.29 -864.85 -862.19 -1327.98 -1325.10 -1317.18 -1314.63 -1318.76 -1319.70 -1320.57 -1321.17 -1323.67 -1324.30 -1337.53 -1336.47 -1359.89 -1472.69 -1493.52 -1503.34 -1505.57 -1505.21 -1508.93 -1482.04 -1480.90 -1483.20 -1473.06 -1484.53 -1492.34 -1490.40 -1535.06 -1579.70 -1619.49 -1764.97 -1938.68 -2102.39 -2139.44 -2369.88 -2620.00 -2720.26 -2724.49 -2867.17 -2945.56 -4243.52 -4287.82 -4358.80 -4401.14 -4404.56 -4410.64 -4419.42 -4425.55 -4424.49 -4417.87 -4431.35 -4436.27 -4445.87 -1940.75 -1942.23 -1953.32 -1966.56 -1974.32 -1983.78 -1991.71 -1991.11 -2000.30 -2005.09 -2024.15 -2034.12 -2036.16 -2061.71 -2087.34 -2110.36 -2164.73 -2152.89 -2154.90
4486.93 4489.65 4374.80 4116.12 4106.22 3984.14 3934.92 3941.89 3983.88 3967.17 3956.21 3914.46 3920.28 3811.53 3808.42 3776.54 3766.18 3743.67 3741.46 3767.33 3774.18 3807.50 3794.50 3780.93 3787.04 3793.95 -84.33 -86.18 -113.32 -110.97 -120.63 -118.87 -123.51 -132.56 -133.47 -127.84 -137.50 -145.67 -145.30 -530.22 -525.04 -540.82 -546.50 -553.37 -557.07 -550.78 -550.15 -546.33 -538.44 -535.45 -533.97 -541.44 -851.10 -854.19 -860.75 -861.62 -861.47 -855.86 -860.89 -859.88 -859.85 -858.18 -866.11 -861.84 -862.64 -1320.53 -1318.04 -1317.14 -1321.72 -1316.86 -1320.04 -1323.48 -1324.56 -1317.39 -1323.11 -1322.01 -1325.05 -1339.83 -1452.26 -1478.71 -1485.85 -1487.20 -1493.24 -1473.74 -1472.76 -1473.61 -1472.15 -1462.42 -1471.59 -1470.06 -1466.27 -1512.86 -1554.93 -1569.06 -1601.33 -1809.61 -1866.46 -1973.36 -2336.99 -2328.66 -2553.16 -2707.22 -2929.74 -2973.11 -4271.32 -4325.65 -4359.24 -4403.32 -4431.71 -4440.15 -4451.93 -4437.61 -4450.76 -4446.24 -4458.95 -4457.37 -4453.93 -1944.91 -1953.66 -1975.30 -1978.33 -1979.23 -1986.10 -1988.04 -1990.92 -1996.97 -2001.81 -2017.19 -2024.85 -2036.11 -2054.17 -2068.89 -2086.19 -2122.62 -2129.43 -2136.84
4616.68 4619.79 4432.47 4240.52 4122.60 4038.52 3987.42 4039.89 4002.48 4036.86 4019.52 3989.37 3977.68 3829.76 3813.61 3794.34 3769.76 3741.85 3743.24 3764.81 3798.38 3810.64 3807.81 3797.16 3790.74 3800.12 -77.93 -94.99 -114.37 -113.16 -103.06 -109.17 -117.97 -123.44 -126.23 -122.89 -126.07 -134.91 -141.04 -523.50 -531.57 -540.83 -550.37 -556.54 -548.87 -542.65 -542.24 -552.87 -541.14 -532.73 -527.77 -536.05 -846.87 -854.04 -854.55 -857.91 -856.89 -855.51 -858.50 -857.43 -853.38 -861.07 -858.05 -858.88 -859.22 -1320.38 -1316.23 -1314.82 -1317.23 -1320.74 -1322.46 -1323.65 -1324.76 -1321.52 -1317.72 -1321.40 -1327.44 -1323.74 -1438.39 -1459.79 -1450.80 -1467.62 -1467.81 -1467.95 -1458.65 -1456.62 -1448.56 -1454.92 -1458.03 -1455.53 -1465.62 -1497.71 -1514.57 -1536.78 -1550.67 -1590.28 -1683.10 -1753.32 -1980.70 -2260.02 -2339.02 -2668.62 -2892.76 -2974.33 -4287.14 -4321.16 -4397.70 -4418.93 -4442.95 -4462.33 -4459.21 -4471.12 -4461.11 -4468.08 -4461.88 -4473.94 -4479.32 -1960.31 -1978.76 -1980.98 -1995.82 -1999.72 -1999.15 -2002.42 -2001.31 -2010.93 -2010.41 -2015.52 -2027.10 -2031.35 -2045.39 -2064.43 -2080.63 -2110.75 -2122.09 -2118.84
4688.65 4694.03 4653.42 4193.02 4156.34 4054.58 4062.71 4118.20 4070.53 4077.47 4048.65 4047.67 3999.50 3826.40 3806.83 3791.11 3775.17 3769.26 3752.61 3759.80 3795.68 3821.67 3815.06 3809.47 3811.16 3810.67 -70.21 -100.57 -99.75 -110.71 -104.70 -101.34 -119.98 -125.86 -132.67 -131.78 -119.87 -133.34 -156.62 -528.21 -545.33 -550.82 -549.55 -553.12 -545.91 -538.58 -538.84 -541.18 -531.99 -528.91 -529.29 -535.52 -843.16 -850.18 -851.57 -851.75 -846.42 -848.24 -847.38 -850.56 -852.51 -852.25 -865.20 -861.18 -865.19 -1314.95 -1314.70 -1317.52 -1319.29 -1311.73 -1316.82 -1316.95 -1321.24 -1323.35 -1322.15 -1327.29 -1322.35 -1323.65 -1430.61 -1443.13 -1452.39 -1457.17 -1459.46 -1449.22 -1449.97 -1449.00 -1449.37 -1442.01 -1454.24 -1453.29 -1459.98 -1497.63 -1500.80 -1509.90 -1542.66 -1578.04 -1610.56 -1710.97 -1928.59 -2179.17 -2402.91 -2808.10 -2889.47 -2993.36 -4295.28 -4355.52 -4411.41 -4428.57 -4459.70 -4473.06 -4487.21 -4484.05 -4483.31 -4486.76 -4480.43 -4487.61 -4494.93 -1974.30 -1983.09 -1989.34 -2011.18 -2008.11 -2027.20 -2024.20 -2014.36 -2008.76 -2010.58 -2023.45 -2021.88 -2028.65 -2044.99 -2062.64 -2077.38 -2094.66 -2104.95 -2108.82
4644.84 4643.52 4538.92 4318.10 4182.72 4120.79 4144.25 4189.85 4182.02 4108.94 4074.52 4063.19 4016.52 3835.99 3824.53 3822.76 3800.40 3792.08 3772.24 3769.19 3804.29 3829.47 3833.47 3825.07 3822.31 3827.36 -72.42 -84.97 -101.74 -102.44 -100.81 -107.42 -118.40 -139.91 -137.62 -138.96 -133.13 -152.43 -163.57 -541.25 -548.68 -551.27 -550.97 -552.48 -539.75 -532.86 -527.65 -529.07 -530.44 -523.08 -525.58 -529.08 -844.32 -846.42 -853.55 -853.01 -839.07 -842.47 -849.71 -843.07 -855.31 -856.43 -860.04 -853.71 -863.65 -1313.46 -1310.27 -1316.54 -1308.98 -1320.00 -1314.41 -1319.16 -1320.04 -1328.41 -1323.03 -1321.75 -1331.67 -1324.49 -1432.93 -1447.69 -1447.93 -1453.12 -1439.81 -1438.33 -1437.17 -1442.08 -1439.58 -1434.41 -1439.25 -1445.13 -1457.11 -1489.64 -1490.39 -1497.55 -1509.63 -1537.04 -1603.06 -1663.75 -1842.28 -2075.43 -2201.92 -2599.74 -2887.72 -2985.54 -4311.30 -4374.32 -4426.04 -4423.97 -4460.52 -4482.65 -4494.21 -4486.92 -4491.18 -4494.42 -4485.87 -4498.85 -4504.93 -1994.31 -2001.88 -2011.36 -2018.28 -2031.85 -2031.57 -2027.65 -2025.49 -2023.33 -2017.64 -2024.92 -2026.67 -2033.43 -2048.71 -2057.03 -2062.60 -2087.70 -2090.51 -2093.80
4566.42 4567.96 4452.57 4332.28 4286.14 4206.98 4198.81 4252.28 4219.11 4211.17 4169.59 4076.07 3997.68 3855.10 3862.98 3841.41 3816.37 3783.71 3769.45 3780.13 3824.33 3830.85 3843.99 3843.94 3844.71 3834.05 -60.37 -65.26 -82.89 -96.73 -105.88 -104.90 -129.32 -139.21 -162.25 -139.95 -156.67 -167.80 -168.04 -543.37 -554.93 -557.29 -549.51 -546.21 -541.79 -533.38 -516.46 -520.35 -527.30 -527.67 -526.45 -536.36 -838.29 -849.14 -854.22 -848.62 -844.40 -836.94 -838.90 -844.48 -852.84 -849.56 -860.53 -853.91 -861.88 -1317.53 -1314.74 -1313.41 -1314.31 -1323.07 -1318.68 -1315.32 -1319.21 -1317.77 -1325.08 -1322.18 -1321.81 -1320.71 -1428.45 -1444.09 -1452.83 -1443.99 -1436.94 -1437.18 -1439.44 -1435.52 -1435.42 -1439.07 -1431.45 -1441.75 -1441.32 -1480.27 -1472.69 -1486.35 -1498.21 -1541.00 -1555.85 -1657.85 -1824.81 -1913.21 -2013.07 -2536.79 -2893.88 -2968.54 -4309.47 -4365.18 -4395.02 -4440.43 -4467.56 -4492.01 -4504.17 -4503.42 -4501.88 -4501.77 -4511.26 -4517.68 -4520.39 -2002.73 -2017.39 -2029.77 -2034.70 -2036.49 -2042.74 -2039.24 -2039.29 -2030.00 -2020.33 -2032.45 -2030.98 -2040.05 -2042.05 -2051.49 -2059.34 -2087.68 -2084.40 -2093.26
4506.65 4503.13 4432.19 4334.90 4291.43 4289.17 4285.72 4261.28 4278.88 4251.71 4219.13 4092.31 4036.93 3896.00 3895.89 3866.33 3841.44 3782.36 3772.36 3813.59 3831.41 3861.88 3867.65 3865.47 3852.60 3834.73 -51.51 -60.37 -75.00 -93.83 -99.11 -119.63 -140.76 -163.31 -163.03 -169.68 -173.53 -176.05 -172.31 -546.77 -562.01 -555.31 -556.64 -547.64 -539.82 -523.46 -509.17 -511.62 -510.00 -514.41 -534.68 -531.86 -840.67 -845.46 -848.52 -832.90 -830.29 -834.54 -835.81 -834.92 -841.20 -845.90 -848.72 -846.95 -859.12 -1311.08 -1309.52 -1313.40 -1312.64 -1318.32 -1318.83 -1316.73 -1324.87 -1321.72 -1321.43 -1324.60 -1316.74 -1321.87 -1435.20 -1438.81 -1440.32 -1436.33 -1428.04 -1431.83 -1439.20 -1430.17 -1432.06 -1427.62 -1427.57 -1432.01 -1432.45 -1465.34 -1470.65 -1481.93 -1490.05 -1497.53 -1516.65 -1545.81 -1635.00 -1815.96 -2083.61 -2233.87 -2928.24 -2952.15 -4264.46 -4346.89 -4387.90 -4439.29 -4469.54 -4498.38 -4499.64 -4510.29 -4516.44 -4516.69 -4521.60 -4522.40 -4529.90 -2009.47 -2035.16 -2041.93 -2043.65 -2042.04 -2045.15 -2038.23 -2033.18 -2031.03 -2024.67 -2031.22 -2031.30 -2036.37 -2049.57 -2051.62 -2063.74 -2073.54 -2085.59 -2077.74
4488.39 4491.50 4433.97 4329.04 4296.02 4296.13 4301.12 4296.09 4292.99 4259.95 4202.63 4158.06 4059.42 3921.09 3894.86 3846.93 3823.84 3788.21 3796.11 3839.25 3864.07 3869.44 3877.51 3861.43 3848.98 3826.70 -49.09 -58.38 -77.12 -86.75 -102.77 -101.19 -140.52 -165.60 -166.84 -181.65 -180.74 -184.35 -189.28 -557.05 -555.35 -564.39 -552.83 -545.32 -540.25 -524.60 -508.39 -504.09 -502.15 -515.71 -525.72 -526.66 -832.67 -832.80 -832.06 -830.25 -826.40 -828.01 -827.42 -832.03 -828.62 -841.17 -841.61 -851.28 -846.32 -1308.49 -1308.23 -1311.85 -1311.15 -1319.08 -1318.39 -1312.42 -1317.32 -1319.37 -1317.88 -1319.96 -1321.58 -1319.07 -1431.50 -1436.66 -1436.35 -1428.62 -1430.02 -1430.51 -1431.60 -1432.82 -1433.64 -1427.24 -1429.30 -1424.95 -1432.76 -1460.58 -1463.78 -1470.61 -1479.63 -1492.66 -1504.99 -1518.82 -1622.98 -1774.98 -1868.29 -2219.20 -2556.86 -2957.53 -4252.10 -4330.52 -4378.00 -4405.36 -4463.09 -4490.53 -4501.75 -4512.34 -4514.48 -4515.95 -4518.92 -4535.62 -4535.56 -2034.73 -2042.41 -2042.02 -2043.72 -2048.16 -2042.89 -2037.93 -2032.35 -2035.24 -2035.74 -2028.96 -2031.76 -2036.48 -2041.73 -2049.21 -2063.93 -2075.75 -2080.58 -2084.67
4463.82 4464.52 4465.37 4270.61 4270.95 4294.15 4292.83 4300.09 4303.16 4279.14 4257.16 4193.81 4124.40 3934.53 3881.63 3831.98 3811.45 3800.37 3822.03 3855.29 3873.26 3858.00 3866.04 3850.23 3831.06 3820.30 -51.85 -56.49 -64.95 -76.62 -99.12 -110.05 -141.46 -142.78 -155.95 -170.31 -184.34 -177.08 -171.63 -547.22 -548.78 -553.91 -549.43 -551.86 -531.11 -519.80 -505.51 -500.15 -498.29 -507.71 -519.16 -526.73 -829.19 -838.09 -831.09 -834.82 -825.66 -830.50 -823.58 -832.04 -836.98 -838.58 -840.94 -844.14 -843.86 -1299.11 -1308.04 -1305.56 -1314.38 -1314.18 -1315.88 -1318.71 -1313.95 -1326.12 -1318.61 -1319.05 -1318.78 -1324.98 -1431.18 -1432.09 -1430.84 -1432.32 -1428.89 -1429.21 -1427.85 -1427.72 -1427.72 -1426.07 -1426.82 -1432.32 -1432.84 -1461.96 -1464.89 -1469.45 -1469.01 -1471.17 -1496.40 -1519.06 -1553.01 -1658.92 -1851.12 -2165.87 -2305.79 -2708.94 -4258.49 -4314.63 -4351.65 -4415.13 -4434.24 -4471.37 -4498.99 -4506.26 -4516.34 -4519.78 -4517.34 -4534.76 -4541.61 -2027.52 -2044.60 -2040.03 -2049.36 -2050.33 -2049.71 -2042.29 -2040.77 -2039.47 -2040.57 -2033.90 -2030.68 -2040.47 -2044.67 -2050.93 -2063.50 -2081.49 -2085.84 -2082.14
4443.02 4441.28 4367.81 4286.16 4261.00 4279.68 4290.20 4294.07 4294.24 4306.91 4303.82 4254.57 4130.22 3932.96 3892.84 3839.33 3811.98 3824.52 3870.01 3880.56 3876.23 3864.96 3846.46 3821.41 3811.22 3797.85 -63.48 -65.49 -61.77 -77.74 -111.50 -109.08 -123.74 -131.76 -145.20 -167.83 -180.48 -169.36 -170.68 -538.55 -533.71 -534.34 -547.17 -540.54 -541.79 -520.31 -501.66 -513.76 -508.49 -518.59 -516.72 -522.87 -832.53 -835.72 -844.32 -842.86 -845.78 -828.50 -828.63 -832.88 -834.27 -839.43 -844.64 -836.50 -845.91 -1294.75 -1302.54 -1303.03 -1306.52 -1312.14 -1310.99 -1312.81 -1318.94 -1321.17 -1321.33 -1314.87 -1321.74 -1324.99 -1421.36 -1426.35 -1423.89 -1427.68 -1427.69 -1429.35 -1424.01 -1433.64 -1429.62 -1433.22 -1426.90 -1429.43 -1430.54 -1460.71 -1460.62 -1460.64 -1467.17 -1467.10 -1479.66 -1489.75 -1513.48 -1624.90 -1801.73 -1923.84 -2256.63 -2477.28 -4087.23 -4301.80 -4322.18 -4377.37 -4428.34 -4463.10 -4482.86 -4500.42 -4503.89 -4516.89 -4517.31 -4528.17 -4541.16 -2024.88 -2029.85 -2039.98 -2050.37 -2051.46 -2047.56 -2047.12 -2043.43 -2042.46 -2036.31 -2034.83 -2033.13 -2037.97 -2038.32 -2056.64 -2063.36 -2072.75 -2082.79 -2081.64
4439.76 4444.69 4351.61 4300.92 4207.62 4183.21 4231.26 4248.22 4285.56 4292.89 4310.26 4239.99 4166.05 3942.37 3912.83 3865.24 3866.93 3876.35 3896.91 3871.26 3868.22 3853.87 3838.49 3808.36 3786.47 3786.86 -84.26 -80.71 -81.36 -94.99 -117.56 -112.46 -117.43 -133.43 -143.65 -153.07 -179.58 -177.75 -152.58 -526.55 -512.33 -522.72 -536.70 -537.70 -526.34 -527.87 -527.36 -526.77 -524.39 -529.34 -520.43 -526.92 -833.28 -839.11 -846.21 -854.48 -845.83 -835.66 -830.69 -830.79 -840.63 -841.26 -843.71 -843.59 -837.33 -1299.17 -1304.40 -1307.18 -1305.46 -1312.52 -1309.45 -1312.98 -1316.77 -1318.53 -1313.48 -1316.06 -1317.25 -1322.53 -1431.54 -1429.56 -1428.37 -1429.85 -1424.31 -1425.04 -1431.62 -1432.37 -1432.73 -1425.07 -1432.97 -1428.91 -1425.52 -1461.13 -1458.58 -1461.66 -1461.54 -1460.46 -1468.15 -1479.56 -1507.61 -1532.69 -1674.90 -1768.64 -2078.64 -2385.50 -3961.76 -4164.79 -4296.67 -4322.66 -4398.35 -4427.00 -4477.31 -4503.63 -4507.94 -4514.88 -4524.61 -4528.53 -4532.07 -2026.67 -2027.26 -2037.87 -2042.78 -2047.53 -2041.21 -2046.67 -2041.57 -2037.39 -2041.53 -2039.16 -2033.83 -2041.71 -2048.44 -2061.43 -2062.70 -2072.83 -2088.14 -2083.00
1759.06 1761.36 1779.08 1576.39 1557.00 1546.57 1603.83 1649.52 1674.24 1689.29 1706.00 1647.49 1580.25 2735.47 2641.33 2678.87 2636.44 2618.50 2603.64 2564.44 2554.77 2536.21 2528.54 2483.12 2486.69 2480.96 -100.37 -80.32 -81.13 -110.74 -121.50 -121.19 -128.36 -132.62 -154.90 -160.28 -176.36 -169.38 -154.18 -528.60 -527.70 -526.54 -527.81 -537.20 -540.06 -541.75 -549.24 -543.18 -554.32 -552.52 -551.54 -547.54 -800.70 -810.86 -828.68 -820.60 -813.35 -812.73 -806.44 -807.39 -802.77 -807.03 -812.79 -813.31 -809.05 -1272.19 -1274.65 -1273.58 -1272.98 -1282.74 -1285.01 -1283.81 -1283.74 -1282.45 -1285.43 -1288.18 -1289.90 -1287.91 -1428.50 -1423.65 -1429.65 -1427.41 -1423.30 -1427.45 -1432.51 -1427.05 -1425.77 -1429.71 -1432.99 -1424.15 -1427.49 -1576.08 -1572.85 -1573.21 -1576.53 -1579.95 -1579.94 -1592.57 -1609.70 -1622.52 -1679.42 -1816.76 -2076.65 -2295.10 -3808.60 -3987.90 -4027.28 -4135.13 -4167.63 -4222.67 -4239.27 -4286.00 -4312.94 -4317.48 -4319.99 -4323.54 -4332.28 -2012.36 -2016.53 -2022.10 -2028.21 -2028.83 -2031.82 -2038.93 -2038.31 -2039.79 -2032.56 -2034.90 -2037.30 -2042.08 -2041.84 -2048.77 -2063.87 -2084.64 -2087.85 -2082.90
1728.00 1726.59 1640.74 1554.43 1500.27 1540.29 1594.71 1639.10 1664.02 1672.07 1679.92 1691.41 1653.91 2822.53 2753.47 2708.20 2692.87 2666.00 2588.23 2543.42 2549.92 2525.23 2495.73 2485.92 2479.72 2474.00 -112.74 -99.55 -104.55 -109.15 -140.80 -136.92 -148.20 -172.83 -164.60 -166.57 -165.02 -157.21 -151.69 -531.99 -517.99 -521.06 -536.98 -530.90 -528.06 -539.71 -554.33 -560.45 -564.26 -561.38 -554.19 -556.83 -805.99 -813.78 -826.32 -824.51 -823.15 -816.21 -806.97 -812.55 -810.88 -817.78 -822.62 -818.21 -813.50 -1279.21 -1283.50 -1280.05 -1282.96 -1283.66 -1290.59 -1281.27 -1277.26 -1289.20 -1286.99 -1281.08 -1286.03 -1288.66 -1422.01 -1425.70 -1426.79 -1427.15 -1433.42 -1431.75 -1426.54 -1431.16 -1430.65 -1425.13 -1428.04 -1430.37 -1432.05 -1572.14 -1571.58 -1575.01 -1575.18 -1575.00 -1574.96 -1585.22 -1588.00 -1646.99 -1701.00 -1744.72 -1960.42 -2337.35 -3658.57 -3872.06 -3937.99 -4045.16 -4163.00 -4181.70 -4225.85 -4246.52 -4286.46 -4297.04 -4320.69 -4314.40 -4322.90 -2002.88 -2004.81 -2012.13 -2024.15 -2020.33 -2031.12 -2031.92 -2033.22 -2034.73 -2036.23 -2038.57 -2040.35 -2034.21 -2047.65 -2055.72 -2068.64 -2094.41 -2088.16 -2087.60
1716.06 1712.79 1624.16 1533.46 1499.24 1548.98 1589.09 1637.44 1638.70 1654.86 1668.12 1658.64 1682.86 2901.68 2800.91 2778.54 2709.74 2652.08 2573.50 2568.68 2568.12 2536.46 2531.23 2508.52 2495.59 2467.39 -119.96 -125.39 -128.54 -140.97 -151.70 -157.42 -168.41 -168.59 -179.45 -165.77 -163.28 -151.35 -142.11 -521.13 -509.52 -510.49 -519.76 -523.34 -534.15 -553.01 -553.13 -569.51 -566.98 -569.78 -559.81 -567.94 -815.37 -816.92 -822.67 -829.17 -825.81 -824.18 -820.13 -814.95 -818.40 -816.34 -828.30 -832.30 -829.49 -1280.85 -1285.25 -1285.05 -1284.13 -1277.82 -1289.53 -1288.51 -1287.52 -1285.26 -1288.77 -1286.75 -1287.10 -1288.86 -1419.31 -1430.50 -1426.12 -1426.32 -1427.92 -1430.04 -1431.30 -1429.67 -1430.03 -1426.81 -1427.19 -1427.42 -1429.39 -1574.05 -1566.47 -1571.27 -1569.24 -1575.53 -1577.01 -1579.77 -1586.07 -1621.98 -1694.15 -1763.88 -1983.09 -2304.17 -3582.64 -3662.62 -3828.60 -3914.10 -4090.74 -4149.60 -4193.87 -4243.99 -4263.57 -4275.76 -4284.89 -4304.03 -4301.89 -1994.20 -2005.81 -2009.81 -2014.77 -2016.91 -2029.43 -2027.79 -2032.54 -2035.37 -2035.31 -2038.40 -2039.79 -2041.25 -2052.39 -2066.08 -2069.24 -2082.63 -2095.35 -2092.02
1641.87 1643.71 1652.48 1457.46 1434.17 1490.74 1549.49 1571.29 1596.94 1601.47 1627.70 1654.43 1663.31 2877.24 2832.98 2803.90 2731.02 2670.77 2606.17 2606.61 2573.68 2546.77 2530.75 2514.01 2497.64 2471.59 -144.84 -139.97 -133.91 -140.73 -160.76 -162.93 -174.87 -175.76 -166.34 -154.54 -143.07 -134.80 -136.08 -500.48 -504.25 -503.45 -514.40 -521.17 -535.08 -536.92 -571.03 -574.46 -576.84 -568.99 -571.78 -573.50 -829.19 -822.13 -821.66 -825.58 -822.89 -825.22 -828.26 -822.20 -822.15 -828.03 -823.74 -833.34 -831.86 -1288.25 -1285.27 -1280.10 -1283.46 -1282.30 -1292.33 -1289.03 -1289.79 -1290.83 -1289.29 -1282.64 -1282.85 -1292.92 -1426.41 -1427.19 -1433.29 -1424.55 -1423.24 -1426.66 -1432.05 -1425.54 -1428.35 -1427.98 -1428.73 -1424.38 -1431.75 -1573.60 -1572.06 -1578.45 -1572.75 -1569.38 -1580.46 -1567.71 -1578.94 -1633.69 -1667.22 -1744.97 -1899.21 -1923.40 -3260.21 -3672.54 -3739.83 -3814.79 -3978.69 -4105.78 -4121.72 -4190.81 -4236.02 -4247.16 -4278.88 -4281.76 -4296.38 -1990.59 -1990.81 -2001.70 -2016.89 -2016.78 -2028.04 -2031.92 -2038.43 -2045.70 -2036.02 -2039.32 -2046.13 -2057.86 -2057.60 -2078.81 -2076.95 -2095.66 -2097.73 -2099.44
1610.87 1616.21 1550.17 1445.27 1426.40 1430.03 1472.41 1504.43 1555.15 1581.61 1600.61 1604.10 1625.78 2822.53 2755.16 2744.49 2763.40 2698.25 2681.60 2627.79 2578.88 2521.81 2510.77 2499.14 2496.28 2468.33 -143.61 -146.74 -148.81 -150.30 -142.69 -153.21 -172.12 -177.18 -157.86 -139.15 -134.34 -122.88 -120.69 -501.84 -499.89 -495.11 -510.92 -524.39 -545.85 -552.59 -572.92 -571.51 -573.21 -563.24 -571.34 -570.75 -827.58 -824.05 -824.41 -818.04 -824.64 -823.02 -829.63 -827.44 -826.77 -820.44 -826.38 -824.81 -828.74 -1286.62 -1286.14 -1283.55 -1292.39 -1288.40 -1287.91 -1290.61 -1290.85 -1292.83 -1295.06 -1293.01 -1291.53 -1286.89 -1431.57 -1428.79 -1428.06 -1427.53 -1423.50 -1426.03 -1426.71 -1425.41 -1427.74 -1423.70 -1432.22 -1428.20 -1429.91 -1576.27 -1573.25 -1571.74 -1577.56 -1573.86 -1575.65 -1575.77 -1570.43 -1585.08 -1636.82 -1702.72 -1740.49 -2007.52 -3297.66 -3590.32 -3647.34 -3824.40 -3937.25 -3979.55 -4073.74 -4153.95 -4178.77 -4227.69 -4242.43 -4250.51 -4280.23 -1984.68 -1987.13 -2001.26 -2004.05 -2016.69 -2027.89 -2030.42 -2040.04 -2048.08 -2047.26 -2052.85 -2055.27 -2062.59 -2073.47 -2072.18 -2081.98 -2104.19 -2109.35 -2119.24
1614.78 1620.55 1564.05 1460.68 1435.08 1402.38 1419.71 1442.80 1483.21 1505.78 1510.06 1505.68 1493.29 2701.69 2658.50 2718.64 2747.19 2737.74 2692.05 2638.81 2567.46 2547.38 2510.16 2486.30 2476.81 2469.15 -143.40 -135.25 -133.90 -125.35 -128.81 -150.84 -174.58 -159.05 -139.50 -122.29 -122.69 -112.18 -110.84 -507.26 -506.13 -504.90 -510.42 -545.95 -549.50 -562.89 -576.45 -577.21 -571.52 -559.57 -560.08 -574.65 -830.94 -822.74 -819.95 -808.19 -811.84 -817.54 -831.31 -824.80 -828.02 -824.29 -822.72 -820.97 -824.43 -1283.80 -1283.65 -1288.88 -1287.97 -1294.25 -1291.89 -1283.84 -1289.90 -1292.09 -1288.40 -1291.54 -1290.51 -1289.47 -1423.59 -1426.79 -1426.48 -1427.79 -1425.96 -1429.52 -1425.48 -1431.50 -1425.29 -1427.47 -1420.38 -1424.90 -1426.26 -1577.92 -1575.01 -1580.12 -1575.89 -1571.60 -1578.98 -1574.97 -1579.18 -1588.66 -1609.96 -1656.43 -1736.35 -2075.92 -3260.88 -3533.60 -3680.24 -3832.23 -3880.27 -3950.85 -4013.41 -4076.12 -4109.13 -4193.94 -4227.38 -4235.16 -4280.29 -1965.69 -1982.33 -1998.91 -2015.50 -2023.02 -2024.65 -2035.54 -2040.51 -2049.00 -2046.82 -2051.92 -2057.12 -2070.76 -2077.54 -2090.04 -2088.44 -2110.08 -2122.35 -2124.98
1686.84 1687.20 1599.96 1492.42 1482.43 1416.11 1391.14 1422.97 1436.81 1445.22 1428.42 1424.54 1423.25 2621.52 2605.66 2658.36 2735.70 2723.09 2682.31 2638.60 2577.58 2537.72 2510.61 2495.40 2477.08 2468.45 -117.97 -121.81 -110.81 -123.31 -130.61 -152.00 -155.10 -148.22 -140.53 -119.42 -121.47 -108.05 -121.81 -517.01 -525.98 -525.14 -545.77 -541.59 -551.86 -566.41 -572.82 -570.41 -566.42 -553.68 -556.44 -548.79 -809.72 -806.75 -807.58 -803.36 -810.95 -820.31 -822.00 -824.75 -825.07 -823.10 -821.44 -822.46 -824.60 -1287.91 -1291.17 -1285.27 -1294.47 -1288.28 -1290.76 -1284.48 -1278.86 -1291.09 -1291.43 -1286.87 -1291.32 -1292.00 -1428.50 -1428.00 -1427.30 -1429.62 -1428.07 -1430.17 -1431.31 -1430.64 -1421.57 -1431.86 -1424.52 -1431.36 -1425.34 -1571.46 -1567.75 -1575.08 -1576.41 -1573.19 -1581.24 -1580.49 -1585.84 -1597.91 -1640.52 -1700.98 -1730.78 -1905.70 -3167.06 -3518.91 -3625.34 -3756.73 -3796.06 -3874.78 -3936.77 -3986.88 -4099.25 -4152.00 -4186.29 -4245.69 -4280.70 -1966.38 -1985.22 -1996.91 -2022.97 -2033.41 -2037.30 -2042.89 -2043.48 -2048.70 -2060.55 -2065.61 -2073.92 -2075.81 -2091.11 -2100.06 -2106.57 -2119.59 -2134.27 -2127.14
1691.85 1690.08 1619.69 1543.81 1479.92 1418.75 1388.21 1408.63 1411.39 1427.04 1424.58 1396.27 1382.94 2579.96 2595.66 2646.96 2700.67 2714.19 2683.85 2632.83 2610.49 2551.39 2512.72 2509.69 2496.98 2486.75 -113.53 -105.95 -104.81 -115.83 -147.31 -146.80 -139.81 -134.37 -114.02 -119.43 -111.09 -127.73 -132.43 -547.79 -546.27 -537.99 -547.05 -550.81 -556.06 -569.59 -575.86 -567.81 -559.63 -552.68 -551.67 -550.04 -798.11 -804.98 -799.04 -795.95 -792.65 -808.44 -817.98 -817.56 -821.39 -819.83 -825.91 -827.59 -832.27 -1287.04 -1291.11 -1291.11 -1285.27 -1291.54 -1287.63 -1280.53 -1283.07 -1287.49 -1291.30 -1286.47 -1290.32 -1286.72 -1430.16 -1431.82 -1424.74 -1422.63 -1424.25 -1424.76 -1432.84 -1425.82 -1427.62 -1433.67 -1428.08 -1426.56 -1427.57 -1573.08 -1574.07 -1571.70 -1578.17 -1569.20 -1576.67 -1575.33 -1598.69 -1626.16 -1666.65 -1720.77 -1735.30 -1871.24 -3092.47 -3291.87 -3497.93 -3601.47 -3749.78 -3793.83 -3876.31 -3960.91 -4042.64 -4117.49 -4169.96 -4250.73 -4285.11 -1970.17 -1991.07 -2004.67 -2030.99 -2026.02 -2035.90 -2045.71 -2055.04 -2056.87 -2071.26 -2068.89 -2080.44 -2095.28 -2089.69 -2102.94 -2104.94 -2126.37 -2144.69 -2141.73
1683.98 1683.78 1686.39 1500.72 1486.13 1433.36 1389.42 1387.72 1385.29 1421.23 1421.35 1399.97 1385.74 2556.78 2564.62 2611.28 2681.59 2702.19 2671.49 2648.73 2624.57 2535.24 2520.00 2503.25 2507.42 2503.07 -93.96 -108.98 -117.86 -134.87 -143.50 -133.91 -127.16 -110.11 -112.16 -108.94 -120.27 -123.73 -141.54 -549.05 -552.66 -557.01 -561.83 -562.21 -572.47 -580.00 -564.78 -551.65 -554.29 -549.93 -546.08 -535.34 -791.51 -792.79 -796.53 -794.70 -789.13 -796.67 -807.38 -813.82 -818.94 -830.61 -825.85 -821.80 -821.40 -1287.49 -1289.60 -1291.37 -1289.85 -1283.35 -1287.17 -1283.79 -1283.06 -1291.65 -1293.69 -1288.48 -1287.91 -1292.36 -1428.43 -1420.06 -1424.24 -1431.69 -1425.75 -1421.05 -1429.37 -1429.76 -1429.55 -1426.86 -1434.05 -1432.62 -1426.96 -1571.47 -1574.89 -1572.87 -1576.45 -1570.60 -1575.19 -1581.60 -1594.28 -1616.49 -1649.35 -1657.61 -1696.60 -1885.87 -3138.57 -3346.66 -3522.08 -3558.88 -3602.74 -3715.51 -3785.16 -3879.99 -3930.64 -4095.08 -4119.44 -4223.75 -4269.37 -1967.35 -2004.56 -2007.16 -2023.11 -2032.46 -2033.71 -2044.25 -2050.97 -2061.24 -2071.19 -2075.51 -2083.60 -2092.70 -2093.78 -2104.72 -2119.97 -2146.34 -2153.80 -2153.75
1680.26 1687.60 1611.71 1507.65 1465.41 1426.46 1387.44 1355.70 1372.81 1378.86 1410.94 1397.25 1365.88 2543.16 2553.73 2612.62 2627.11 2662.47 2671.63 2617.77 2584.67 2529.63 2524.15 2497.26 2498.20 2492.77 -100.70 -121.96 -139.12 -135.93 -124.79 -114.15 -106.43 -113.43 -95.16 -103.09 -127.65 -130.88 -156.31 -558.00 -573.57 -567.68 -569.62 -572.99 -571.24 -570.04 -556.87 -547.29 -544.02 -546.63 -537.80 -527.72 -783.15 -782.89 -788.94 -791.42 -793.85 -803.47 -802.41 -810.21 -820.50 -826.02 -830.49 -826.06 -826.66 -1286.35 -1285.96 -1281.74 -1284.75 -1286.58 -1286.46 -1286.63 -1281.31 -1286.25 -1283.26 -1291.79 -1285.82 -1288.18 -1424.24 -1420.26 -1426.85 -1429.55 -1430.86 -1429.20 -1431.06 -1422.55 -1426.37 -1425.78 -1430.53 -1430.77 -1426.24 -1575.10 -1576.56 -1572.24 -1576.17 -1568.62 -1579.10 -1588.95 -1586.54 -1601.84 -1638.40 -1651.31 -1655.12 -1879.08 -3134.86 -3285.08 -3421.11 -3544.27 -3564.81 -3637.59 -3735.46 -3765.02 -3929.41 -4024.03 -4127.65 -4172.90 -4229.68 -1969.92 -2006.43 -2014.20 -2029.52 -2032.84 -2033.18 -2043.61 -2050.33 -2057.01 -2055.28 -2072.45 -2082.36 -2096.07 -2100.49 -2115.06 -2124.77 -2146.74 -2156.54 -2152.57
1693.66 1691.04 1613.97 1499.19 1434.56 1392.24 1358.72 1350.24 1350.59 1369.63 1387.33 1368.47 1352.33 2524.41 2549.99 2583.93 2624.62 2647.96 2649.27 2615.11 2558.89 2546.03 2516.57 2508.16 2492.30 2479.06 -108.35 -128.56 -127.18 -120.78 -115.51 -100.43 -96.70 -99.79 -98.70 -104.42 -124.88 -153.85 -158.25 -551.91 -561.04 -560.20 -564.66 -569.12 -567.78 -558.46 -549.29 -534.77 -528.79 -532.35 -527.55 -537.43 -786.33 -785.92 -791.27 -792.00 -804.06 -807.84 -813.52 -819.60 -829.77 -829.05 -825.56 -822.52 -819.14 -1275.30 -1276.18 -1281.75 -1286.30 -1283.88 -1284.84 -1282.88 -1285.92 -1286.67 -1288.21 -1280.49 -1287.72 -1288.39 -1420.88 -1429.50 -1431.49 -1424.31 -1425.47 -1427.42 -1430.25 -1430.34 -1431.46 -1426.82 -1426.55 -1424.65 -1425.63 -1570.05 -1573.28 -1569.90 -1579.32 -1568.50 -1573.20 -1572.84 -1574.74 -1581.78 -1586.81 -1635.41 -1660.07 -1836.16 -3052.93 -3320.35 -3358.88 -3474.54 -3543.68 -3602.79 -3639.91 -3792.14 -3836.61 -4021.09 -4106.31 -4140.10 -4202.89 -1995.32 -2007.57 -2020.26 -2020.99 -2023.12 -2030.68 -2035.84 -2039.65 -2050.99 -2061.10 -2071.64 -2081.25 -2085.54 -2098.99 -2105.42 -2118.99 -2136.08 -2152.92 -2150.56
1681.51 1675.78 1592.50 1499.65 1431.37 1347.89 1344.24 1339.88 1365.83 1370.18 1356.42 1361.18 1328.85 2524.13 2532.85 2605.32 2622.74 2649.10 2644.61 2621.11 2600.07 2554.77 2543.70 2522.33 2512.89 2488.59 -113.50 -110.88 -115.57 -109.72 -94.31 -86.17 -83.37 -79.76 -90.02 -101.53 -123.23 -125.20 -142.55 -540.33 -546.57 -548.93 -552.09 -561.14 -559.65 -556.51 -541.07 -530.35 -522.58 -517.39 -523.59 -529.94 -800.81 -799.12 -803.97 -792.45 -805.04 -811.60 -817.35 -823.46 -817.66 -825.33 -818.05 -820.40 -812.50 -1272.37 -1275.36 -1283.33 -1290.30 -1296.98 -1286.90 -1283.63 -1278.42 -1280.05 -1274.22 -1279.95 -1282.37 -1290.39 -1428.90 -1424.80 -1427.91 -1429.57 -1428.78 -1426.30 -1424.77 -1427.20 -1429.90 -1423.35 -1429.06 -1431.41 -1433.51 -1575.85 -1574.75 -1569.35 -1575.56 -1575.42 -1576.48 -1573.82 -1571.80 -1577.30 -1603.27 -1625.54 -1689.48 -1724.53 -2856.41 -3116.16 -3396.45 -3418.73 -3509.82 -3525.34 -3583.88 -3751.12 -3824.01 -4014.02 -4085.69 -4127.37 -4158.93 -1948.02 -1981.79 -1993.10 -1995.59 -2016.25 -2014.93 -2032.28 -2029.96 -2036.78 -2054.17 -2071.43 -2083.65 -2082.57 -2098.21 -2112.85 -2119.72 -2138.11 -2148.81 -2149.09
3969.35 3967.90 3896.60 3778.60 3744.43 3698.33 3674.47 3649.60 3682.14 3671.64 3680.52 3665.45 3650.27 4093.04 4120.87 4183.94 4211.23 4241.18 4230.76 4204.91 4202.74 4170.97 4148.68 4138.04 4111.30 4093.89 1566.80 1554.25 1551.30 1543.32 1561.57 1586.33 1579.27 1576.73 1570.33 1554.80 1536.20 1546.77 1528.34 -144.65 -156.78 -165.49 -168.47 -176.57 -184.14 -176.17 -161.64 -152.15 -129.92 -128.06 -135.89 -143.19 -405.58 -404.80 -418.34 -411.52 -421.87 -418.75 -430.49 -429.42 -420.22 -416.85 -418.35 -410.47 -428.09 -626.36 -633.51 -636.05 -642.57 -633.30 -641.00 -627.21 -622.75 -621.73 -618.03 -626.99 -632.53 -636.32 -775.30 -781.47 -785.25 -781.98 -790.48 -784.45 -785.38 -783.06 -784.42 -783.42 -784.45 -783.45 -783.46 -1412.11 -1403.31 -1407.69 -1403.90 -1406.52 -1409.12 -1401.18 -1408.51 -1413.08 -1407.18 -1452.09 -1531.64 -1547.75 -2788.01 -2998.62 -3137.86 -3240.53 -3425.02 -3465.35 -3492.93 -3585.53 -3826.97 -3939.93 -3992.01 -4067.80 -4114.06 -1899.44 -1944.26 -1959.08 -1962.83 -1984.66 -2005.37 -2017.76 -2020.85 -2031.77 -2039.85 -2061.89 -2073.04 -2083.15 -2089.59 -2101.85 -2114.44 -2123.66 -2142.73 -2143.89
3933.49 3931.92 3842.19 3734.69 3712.15 3710.88 3673.44 3665.04 3640.26 3652.39 3638.43 3652.12 3651.93 4099.76 4115.24 4144.58 4184.75 4189.67 4220.56 4203.70 4200.04 4197.53 4185.95 4157.18 4134.07 4103.01 1570.31 1570.11 1567.20 1565.16 1566.90 1577.67 1574.14 1577.01 1567.99 1545.05 1538.18 1535.15 1514.10 -146.21 -165.66 -170.00 -176.69 -175.78 -178.13 -173.05 -173.81 -157.90 -141.10 -141.02 -138.54 -140.26 -389.65 -403.53 -400.43 -404.21 -411.26 -414.35 -427.54 -414.57 -408.40 -406.77 -408.82 -419.70 -420.22 -634.60 -640.49 -632.24 -633.84 -626.53 -622.54 -631.18 -623.77 -622.82 -620.53 -625.31 -637.54 -636.45 -782.83 -781.46 -784.70 -786.76 -785.48 -788.26 -787.14 -786.07 -782.46 -777.53 -787.44 -778.54 -780.09 -1405.78 -1407.06 -1411.55 -1409.15 -1401.91 -1404.14 -1407.98 -1402.14 -1410.62 -1411.39 -1412.40 -1478.26 -1537.36 -2677.31 -2935.48 -2995.00 -3139.55 -3197.89 -3325.20 -3469.09 -3575.37 -3730.80 -3872.35 -3962.67 -4024.38 -4066.03 -1851.20 -1900.69 -1907.74 -1950.07 -1932.80 -1957.63 -1963.50 -1995.28 -2000.01 -2013.25 -2048.46 -2064.09 -2069.84 -2092.30 -2095.03 -2105.75 -2126.95 -2134.40 -2127.78
3935.58 3932.26 3841.09 3710.37 3698.22 3683.31 3681.05 3660.43 3650.05 3641.35 3633.73 3626.25 3624.98 4074.75 4089.52 4100.34 4118.75 4176.54 4174.06 4188.66 4198.71 4200.21 4192.10 4174.10 4149.63 4112.01 1569.83 1570.79 1572.88 1584.52 1586.07 1580.63 1568.76 1566.16 1549.29 1529.60 1512.86 1514.86 1514.30 -164.75 -179.18 -180.16 -180.37 -171.31 -159.19 -158.82 -166.72 -161.25 -142.61 -128.65 -135.90 -134.71 -386.18 -384.30 -393.37 -398.31 -398.53 -404.32 -417.98 -399.46 -398.31 -399.62 -404.66 -414.91 -420.57 -630.39 -629.68 -628.90 -622.70 -623.03 -618.65 -622.07 -623.10 -612.42 -616.31 -632.36 -631.25 -634.16 -780.88 -776.88 -778.75 -790.81 -780.84 -783.96 -779.80 -783.58 -790.72 -792.88 -788.51 -784.04 -784.62 -1405.70 -1403.92 -1400.85 -1412.13 -1404.80 -1411.56 -1407.37 -1404.41 -1407.97 -1408.53 -1411.62 -1411.20 -1459.23 -2559.08 -2704.58 -2842.54 -2858.56 -3076.05 -3235.43 -3373.16 -3458.88 -3645.93 -3789.86 -3923.06 -3964.91 -4043.93 -1777.31 -1824.21 -1853.43 -1852.47 -1843.60 -1856.20 -1883.79 -1890.23 -1943.79 -1988.74 -2009.17 -2044.79 -2048.01 -2064.46 -2080.82 -2085.83 -2105.86 -2114.27 -2117.48
4017.17 4012.90 3881.78 3721.08 3697.79 3684.12 3681.25 3672.50 3654.32 3645.02 3641.40 3628.58 3634.60 4091.82 4080.99 4092.08 4080.86 4114.47 4128.55 4173.93 4180.52 4187.49 4182.78 4172.37 4179.12 4141.37 1607.00 1594.91 1593.93 1596.67 1590.53 1577.17 1558.64 1556.48 1534.51 1516.45 1500.31 1507.05 1496.59 -164.13 -175.09 -184.07 -176.64 -169.54 -156.93 -151.75 -149.66 -139.57 -137.23 -132.64 -127.50 -132.98 -381.29 -385.70 -380.07 -388.27 -392.05 -392.21 -396.64 -391.21 -385.07 -386.77 -400.93 -407.40 -410.22 -629.42 -630.10 -613.61 -608.49 -619.12 -621.85 -609.44 -615.91 -617.78 -626.00 -625.52 -630.39 -625.10 -772.29 -773.58 -777.65 -781.59 -784.29 -780.05 -782.81 -780.49 -779.58 -785.19 -785.02 -785.03 -787.42 -1409.02 -1404.89 -1406.30 -1400.33 -1403.64 -1404.82 -1408.38 -1405.83 -1407.71 -1405.71 -1413.32 -1404.82 -1422.17 -2517.14 -2521.23 -2708.79 -2784.20 -2894.98 -3068.45 -3160.92 -3306.43 -3598.77 -3693.28 -3791.66 -3855.67 -3970.14 -1726.67 -1763.00 -1764.93 -1770.12 -1821.36 -1834.71 -1869.42 -1875.04 -1896.49 -1931.33 -1955.31 -2012.63 -2040.09 -2051.83 -2064.97 -2085.45 -2099.86 -2097.45 -2102.27
3967.33 3963.10 3888.20 3728.40 3713.68 3705.68 3721.86 3681.79 3690.86 3662.85 3663.85 3648.47 3638.90 4107.20 4098.14 4078.20 4068.18 4094.42 4122.09 4101.05 4148.81 4162.14 4188.74 4182.75 4188.22 4165.35 1612.91 1599.63 1598.73 1587.74 1568.86 1562.27 1555.21 1537.71 1526.61 1512.27 1495.44 1498.90 1482.24 -172.96 -170.95 -168.50 -179.11 -176.40 -164.71 -147.39 -136.54 -124.51 -122.54 -123.01 -110.34 -126.88 -374.18 -376.09 -372.21 -372.49 -381.75 -381.20 -389.89 -387.88 -382.75 -383.58 -385.56 -400.81 -412.45 -619.49 -621.10 -617.49 -607.82 -605.44 -609.20 -607.95 -610.20 -608.48 -617.89 -624.86 -619.45 -628.03 -770.35 -772.91 -772.94 -776.46 -777.90 -784.85 -776.96 -781.18 -785.70 -785.68 -786.40 -784.05 -786.69 -1404.64 -1406.13 -1410.75 -1413.87 -1407.44 -1409.75 -1406.63 -1404.07 -1408.82 -1399.19 -1406.56 -1413.71 -1424.83 -2519.41 -2520.76 -2522.12 -2631.63 -2812.79 -2874.47 -3072.73 -3314.08 -3409.90 -3620.75 -3751.84 -3795.93 -3846.51 -1543.99 -1652.48 -1739.54 -1720.29 -1750.44 -1727.62 -1787.66 -1815.83 -1866.93 -1864.77 -1910.55 -1997.24 -2014.12 -2011.86 -2043.12 -2052.23 -2071.90 -2076.13 -2072.38
4054.95 4054.67 4013.89 3734.55 3737.44 3751.76 3763.43 3744.50 3696.61 3692.00 3693.72 3663.77 3667.74 4139.76 4123.90 4079.92 4064.28 4092.60 4103.40 4095.78 4098.19 4126.54 4154.69 4173.02 4179.86 4176.20 1645.23 1614.93 1600.87 1586.59 1562.51 1536.44 1529.43 1531.16 1504.46 1499.52 1479.36 1477.75 1484.79 -168.51 -149.48 -161.76 -171.73 -176.25 -168.00 -149.05 -116.23 -113.51 -110.63 -111.20 -109.81 -110.50 -360.89 -367.24 -360.81 -371.01 -365.08 -380.31 -377.10 -382.75 -377.34 -378.07 -386.43 -392.54 -396.57 -611.32 -607.92 -612.48 -602.12 -608.74 -603.45 -608.31 -597.58 -607.21 -609.70 -612.05 -615.57 -621.40 -763.62 -765.33 -772.51 -776.97 -777.71 -777.72 -776.42 -781.86 -781.56 -781.53 -779.88 -779.16 -786.10 -1400.54 -1409.15 -1402.14 -1407.33 -1412.30 -1402.37 -1405.13 -1412.27 -1405.85 -1403.39 -1412.43 -1412.71 -1414.30 -2516.89 -2509.42 -2523.65 -2523.29 -2628.46 -2858.29 -3013.46 -3321.96 -3459.84 -3516.14 -3683.71 -3744.45 -3763.97 -1505.75 -1535.06 -1605.96 -1627.03 -1636.75 -1659.76 -1708.67 -1715.32 -1773.51 -1820.99 -1824.81 -1925.67 -1976.07 -2004.81 -2023.32 -2015.70 -2037.83 -2044.34 -2044.00
3985.50 3987.77 3893.60 3773.43 3748.62 3782.60 3829.29 3819.42 3757.27 3721.40 3697.93 3694.83 3685.13 4135.81 4118.75 4082.84 4066.34 4070.95 4081.68 4075.75 4085.67 4126.62 4138.96 4153.35 4159.58 4179.82 1658.26 1631.79 1604.77 1589.74 1569.36 1543.25 1525.16 1515.59 1505.85 1488.59 1477.51 1489.26 1493.53 -149.94 -149.97 -145.40 -161.42 -166.52 -160.80 -155.12 -112.67 -91.96 -102.16 -97.78 -104.51 -109.61 -364.99 -363.81 -361.40 -374.86 -374.14 -375.58 -380.29 -386.32 -379.62 -376.19 -383.24 -385.74 -386.70 -595.69 -603.48 -598.78 -609.83 -604.51 -608.51 -604.58 -611.96 -602.43 -615.94 -609.86 -619.33 -616.43 -750.61 -760.26 -777.02 -776.68 -773.16 -776.22 -769.11 -776.62 -775.65 -775.13 -785.14 -786.29 -786.46 -1402.79 -1408.46 -1408.04 -1406.95 -1407.54 -1409.08 -1409.94 -1406.77 -1404.83 -1408.48 -1403.32 -1409.07 -1413.69 -2506.99 -2510.94 -2508.48 -2519.61 -2614.53 -2703.96 -3104.65 -3302.73 -3456.71 -3471.87 -3572.94 -3687.80 -3695.33 -1392.58 -1394.38 -1392.10 -1471.02 -1505.92 -1542.42 -1601.74 -1645.68 -1712.79 -1740.52 -1799.25 -1844.82 -1900.08 -1926.89 -1937.17 -1974.74 -2008.72 -1999.53 -1994.42
3988.56 3992.84 3878.06 3751.29 3792.49 3845.59 3875.95 3880.92 3804.79 3776.27 3724.92 3715.62 3709.66 4138.40 4138.80 4113.45 4077.15 4063.59 4058.15 4053.31 4063.87 4087.22 4111.21 4126.98 4156.54 4170.56 1666.83 1638.29 1639.30 1613.67 1583.42 1536.57 1529.05 1518.83 1498.42 1487.13 1477.28 1491.29 1502.82 -134.06 -127.28 -138.60 -155.13 -164.34 -160.41 -137.63 -108.08 -90.79 -99.60 -98.70 -106.25 -107.55 -372.31 -378.18 -369.54 -381.67 -388.68 -391.75 -395.50 -383.95 -382.23 -385.48 -381.46 -386.61 -382.25 -598.63 -591.29 -602.00 -596.31 -606.03 -605.11 -605.42 -602.44 -608.88 -611.97 -624.62 -628.99 -621.09 -770.06 -763.44 -774.93 -771.27 -769.14 -770.30 -778.56 -774.70 -771.76 -777.64 -774.26 -780.66 -775.84 -1399.52 -1405.31 -1408.99 -1406.31 -1405.39 -1408.91 -1405.94 -1411.18 -1408.68 -1406.12 -1405.42 -1409.27 -1411.27 -2499.54 -2507.86 -2504.19 -2503.66 -2514.97 -2656.17 -2837.27 -3191.62 -3303.75 -3403.58 -3544.41 -3614.88 -3608.89 -1332.41 -1322.03 -1369.47 -1391.06 -1426.65 -1489.11 -1496.83 -1517.23 -1604.47 -1695.51 -1723.73 -1753.26 -1769.36 -1825.10 -1891.88 -1900.81 -1950.85 -1954.31 -1952.02
4113.92 4103.71 3960.01 3796.17 3867.74 3921.16 3905.95 3912.11 3864.34 3787.09 3754.12 3745.06 3721.59 4154.21 4128.47 4125.74 4114.88 4099.31 4066.07 4065.70 4047.96 4065.74 4084.00 4118.08 4129.96 4161.18 1644.43 1646.40 1619.88 1605.21 1601.97 1566.17 1535.60 1522.51 1505.14 1490.55 1479.33 1483.06 1498.87 -129.20 -118.46 -123.86 -140.27 -148.17 -148.26 -118.76 -104.32 -93.52 -98.95 -109.41 -113.18 -122.95 -370.37 -380.12 -389.07 -390.25 -398.35 -405.35 -398.08 -391.24 -389.07 -386.66 -392.13 -381.57 -389.10 -595.92 -598.43 -601.99 -594.53 -609.21 -616.40 -616.00 -622.54 -621.63 -621.64 -634.47 -639.53 -634.75 -768.50 -770.44 -775.79 -774.71 -773.53 -778.33 -768.95 -773.71 -778.57 -773.74 -774.16 -777.46 -784.95 -1403.76 -1408.63 -1407.29 -1401.58 -1407.50 -1405.96 -1411.71 -1404.23 -1406.82 -1408.23 -1402.37 -1405.40 -1411.68 -2505.68 -2502.89 -2502.89 -2505.92 -2511.31 -2605.88 -2758.63 -3024.21 -3130.64 -3260.95 -3383.07 -3471.71 -3588.30 -1264.92 -1285.48 -1310.54 -1353.25 -1359.99 -1386.85 -1407.23 -1467.19 -1469.63 -1522.29 -1559.19 -1612.43 -1725.56 -1784.35 -1830.49 -1850.26 -1852.12 -1902.15 -1894.02
4083.23 4083.98 3958.41 3866.78 3857.43 3942.48 3944.49 3951.22 3890.50 3822.90 3769.93 3774.69 3745.23 4141.72 4121.67 4130.82 4121.48 4102.96 4092.06 4072.65 4046.84 4064.48 4055.99 4096.66 4109.47 4129.34 1618.00 1620.75 1621.40 1599.85 1592.94 1570.29 1523.21 1519.75 1504.06 1486.01 1474.27 1482.23 1497.26 -133.98 -110.67 -117.82 -129.70 -132.71 -120.89 -111.80 -101.63 -90.38 -95.57 -106.89 -114.14 -132.64 -384.32 -400.22 -401.62 -399.69 -404.43 -417.02 -409.07 -398.58 -400.51 -396.46 -402.67 -410.66 -414.66 -619.06 -612.50 -605.55 -612.19 -624.16 -633.15 -636.01 -628.09 -621.92 -640.68 -637.62 -637.83 -637.51 -776.26 -780.79 -776.90 -778.31 -771.83 -774.85 -769.35 -771.46 -769.84 -778.41 -779.13 -781.72 -781.44 -1406.87 -1404.89 -1408.71 -1404.28 -1408.93 -1406.19 -1405.67 -1402.15 -1411.88 -1408.81 -1402.43 -1410.66 -1408.80 -2498.91 -2500.93 -2503.62 -2507.13 -2518.09 -2524.08 -2674.34 -2857.34 -2925.98 -3083.56 -3312.41 -3451.99 -3544.71 -1227.60 -1205.68 -1244.89 -1246.63 -1269.58 -1275.11 -1318.75 -1328.31 -1372.69 -1447.48 -1468.95 -1576.04 -1606.45 -1683.12 -1790.51 -1794.89 -1845.77 -1827.60 -1830.27
4122.08 4114.70 4176.50 3873.80 3924.14 3960.60 4012.31 3999.97 3952.32 3836.74 3773.10 3752.85 3728.20 4138.01 4112.85 4103.91 4113.10 4120.27 4108.52 4088.10 4080.38 4054.96 4055.22 4064.41 4100.76 4107.14 1596.63 1618.21 1589.94 1584.12 1566.13 1567.87 1514.74 1485.40 1488.50 1473.65 1485.37 1483.41 1507.69 -137.69 -116.24 -105.61 -113.04 -115.04 -109.96 -102.81 -89.92 -90.72 -93.75 -119.10 -132.11 -145.76 -391.52 -403.32 -394.89 -389.02 -392.27 -408.64 -419.99 -408.80 -401.95 -409.08 -417.27 -421.12 -427.31 -628.09 -626.83 -621.77 -624.66 -631.90 -631.80 -634.84 -641.80 -636.75 -634.07 -639.34 -640.23 -645.36 -778.27 -786.18 -779.89 -781.16 -776.34 -776.77 -778.36 -772.27 -785.17 -781.47 -780.64 -780.24 -786.19 -1403.14 -1408.85 -1404.91 -1400.55 -1404.15 -1400.11 -1407.91 -1406.12 -1405.72 -1402.67 -1405.90 -1403.60 -1409.15 -2502.63 -2501.92 -2495.31 -2503.38 -2511.10 -2516.28 -2550.88 -2758.29 -2873.89 -3120.21 -3318.62 -3481.38 -3503.41 -1154.13 -1155.09 -1169.24 -1178.84 -1160.97 -1164.40 -1225.49 -1204.33 -1251.03 -1319.37 -1366.62 -1488.56 -1522.34 -1570.95 -1635.51 -1703.13 -1742.08 -1763.00 -1761.91
4370.60 4369.50 4164.09 4013.60 3969.09 4021.55 4053.95 4042.41 3987.67 3887.97 3791.95 3773.28 3699.77 4121.74 4104.05 4092.23 4092.41 4100.08 4105.88 4099.18 4072.59 4050.34 4042.35 4051.25 4065.72 4093.44 1588.11 1591.39 1558.55 1558.29 1541.76 1507.03 1497.01 1476.87 1483.70 1480.75 1492.00 1499.27 1515.23 -129.73 -117.31 -99.89 -104.47 -90.24 -84.67 -85.09 -89.03 -91.31 -104.38 -114.14 -128.86 -136.70 -393.38 -391.26 -379.61 -387.29 -400.53 -404.59 -415.39 -415.02 -415.73 -415.65 -415.01 -417.04 -435.74 -638.32 -630.86 -616.36 -625.21 -627.35 -638.13 -633.75 -638.55 -635.81 -641.83 -643.67 -638.51 -646.04 -781.18 -789.62 -790.61 -785.64 -784.58 -786.52 -787.92 -783.29 -780.08 -785.39 -786.55 -792.32 -786.25 -1409.20 -1404.77 -1405.71 -1399.47 -1405.19 -1402.77 -1402.98 -1409.38 -1410.89 -1407.02 -1405.58 -1402.95 -1409.03 -2501.51 -2495.78 -2501.26 -2502.15 -2505.74 -2516.40 -2629.20 -2726.74 -2959.89 -3160.44 -3350.66 -3466.05 -3459.06 -1141.29 -1110.12 -1085.80 -1086.31 -1116.98 -1073.50 -1104.88 -1168.43 -1169.23 -1181.31 -1289.42 -1341.35 -1401.40 -1493.01 -1521.85 -1604.68 -1692.21 -1682.47 -1675.96
2097.06 2096.32 1996.10 1764.65 1720.52 1750.70 1773.95 1761.56 1695.83 1575.27 1505.92 1427.90 1358.86 94.45 73.76 50.05 53.61 54.95 49.62 40.57 41.46 25.34 14.75 15.40 33.01 52.29 899.83 898.03 885.88 861.64 845.53 830.53 823.84 826.26 822.08 825.57 846.72 859.11 871.55 998.57 1029.96 1049.90 1042.37 1045.68 1056.14 1049.10 1044.70 1040.09 1029.54 1015.58 998.33 988.49 -188.90 -180.15 -175.20 -189.25 -196.22 -213.05 -211.41 -208.01 -217.53 -214.23 -208.35 -218.60 -230.48 -292.79 -290.23 -291.99 -282.99 -286.92 -282.54 -294.69 -296.90 -290.73 -290.29 -284.02 -285.24 -294.07 -869.98 -862.78 -864.68 -868.96 -869.62 -861.82 -868.03 -868.44 -868.86 -865.56 -868.96 -868.96 -867.76 -1572.44 -1570.81 -1571.35 -1564.25 -1560.82 -1563.16 -1564.12 -1567.28 -1567.27 -1567.50 -1562.42 -1564.12 -1563.70 -2126.48 -2129.25 -2127.89 -2130.16 -2132.34 -2148.17 -2283.70 -2427.07 -2664.18 -2809.91 -2971.99 -3047.45 -3059.05 -1099.31 -1056.35 -1049.39 -1034.33 -1025.25 -1039.50 -1044.99 -1040.28 -1027.50 -1028.01 -1114.37 -1199.45 -1248.39 -1341.99 -1463.04 -1466.46 -1599.49 -1598.46 -1597.79
2271.71 2269.32 2069.74 1806.01 1804.25 1840.91 1807.72 1745.88 1649.46 1611.97 1493.59 1415.89 1356.32 85.85 77.47 62.36 48.55 40.12 30.18 26.98 23.90 4.49 -2.01 9.66 26.98 31.40 891.83 885.18 871.34 853.97 841.66 820.47 826.70 833.38 838.20 845.77 855.36 874.03 894.67 1045.42 1037.82 1054.32 1051.66 1055.61 1057.76 1055.26 1039.58 1039.91 1034.41 1018.08 995.15 998.70 -185.49 -171.82 -169.88 -180.86 -193.35 -192.29 -204.62 -197.11 -214.82 -213.58 -201.49 -207.19 -222.74 -289.04 -291.91 -294.28 -297.79 -292.89 -287.30 -293.93 -290.28 -288.64 -283.34 -283.64 -280.76 -295.39 -855.44 -863.84 -862.05 -867.54 -867.77 -864.44 -860.44 -859.84 -866.13 -854.18 -867.13 -869.76 -869.65 -1562.92 -1567.41 -1566.70 -1563.89 -1558.78 -1565.19 -1566.59 -1564.86 -1569.60 -1567.66 -1566.95 -1566.19 -1565.82 -2127.42 -2130.71 -2127.31 -2130.31 -2139.31 -2142.31 -2264.78 -2505.05 -2736.04 -2774.34 -2925.40 -2963.70 -3026.46 -1055.65 -1040.97 -1029.10 -1035.11 -995.13 -974.89 -966.90 -970.86 -999.44 -1008.17 -1001.81 -1044.58 -1162.75 -1278.26 -1343.31 -1406.22 -1432.87 -1513.71 -1510.94
2256.15 2260.62 2044.44 1933.49 1879.72 1871.58 1821.00 1729.96 1676.49 1539.46 1474.42 1387.44 1387.95 98.68 73.00 71.32 52.38 48.70 24.59 17.65 10.24 13.95 6.34 -3.21 -0.83 8.54 871.15 863.35 860.14 837.79 834.09 831.50 839.97 847.61 840.38 882.49 880.62 906.71 921.34 1061.12 1060.91 1070.63 1056.87 1055.13 1057.77 1053.24 1037.87 1028.48 1022.02 1017.22 1008.44 991.82 -176.69 -176.77 -170.56 -180.30 -187.55 -183.34 -176.41 -190.58 -200.43 -204.81 -198.78 -201.12 -216.39 -285.39 -276.62 -283.43 -289.90 -292.14 -303.10 -294.29 -286.45 -281.33 -275.89 -280.27 -274.24 -273.18 -852.47 -852.84 -854.04 -863.48 -858.35 -859.26 -865.63 -866.18 -862.89 -863.03 -862.61 -864.12 -868.72 -1564.41 -1565.35 -1562.96 -1568.81 -1554.97 -1562.96 -1558.53 -1565.33 -1568.75 -1559.52 -1574.14 -1566.23 -1571.57 -2125.57 -2134.27 -2128.39 -2132.48 -2137.35 -2152.10 -2153.02 -2467.95 -2695.88 -2751.20 -2861.04 -2988.62 -3001.63 -1047.17 -1021.60 -994.44 -985.87 -980.17 -930.66 -937.01 -894.71 -912.61 -917.78 -940.86 -1006.42 -1032.99 -1124.99 -1326.56 -1327.59 -1425.80 -1435.25 -1433.08
2161.44 2160.95 2173.03 1833.81 1859.01 1801.07 1690.42 1667.79 1630.81 1600.48 1479.76 1472.25 1411.94 162.33 123.98 96.53 82.59 54.80 41.11 27.51 29.83 11.60 3.53 3.07 -3.98 3.61 851.20 848.22 842.45 833.63 827.38 830.09 853.69 875.70 891.18 910.89 894.10 922.36 947.27 1094.29 1076.85 1058.84 1057.45 1051.46 1046.90 1038.82 1016.03 1016.11 1016.38 1017.95 1013.07 1003.77 -178.40 -163.26 -166.59 -164.57 -175.01 -179.82 -171.83 -181.11 -188.85 -198.06 -195.54 -191.15 -196.85 -260.62 -271.06 -278.20 -281.49 -292.46 -299.21 -292.19 -287.89 -276.32 -278.59 -271.86 -261.19 -269.42 -843.11 -845.98 -854.61 -853.95 -856.69 -863.37 -855.04 -864.10 -863.36 -864.26 -860.11 -865.90 -865.96 -1566.78 -1560.84 -1567.74 -1560.20 -1563.20 -1564.92 -1564.27 -1575.08 -1563.44 -1567.96 -1565.14 -1561.41 -1568.59 -2133.17 -2128.98 -2127.59 -2135.53 -2142.06 -2149.74 -2170.40 -2532.76 -2761.05 -2779.79 -2843.50 -2969.65 -2982.96 -1013.45 -999.58 -979.53 -935.19 -897.51 -871.94 -879.32 -853.73 -843.87 -850.05 -850.79 -923.81 -955.01 -1024.01 -1137.38 -1236.07 -1311.03 -1363.75 -1359.86
2103.40 2105.96 1969.39 1808.07 1744.18 1708.71 1591.89 1629.36 1684.39 1688.52 1622.21 1505.31 1489.66 189.28 167.77 135.04 122.66 81.65 64.09 48.88 27.92 30.15 29.14 -0.75 -5.08 -5.23 833.93 839.45 829.06 830.92 832.92 843.50 860.15 888.36 892.54 930.44 927.97 941.23 952.45 1091.45 1067.09 1056.25 1050.38 1049.67 1039.90 1021.55 1017.23 1016.74 1012.83 1019.38 1020.47 1017.40 -170.73 -163.01 -149.40 -158.82 -164.28 -168.19 -159.73 -171.26 -183.87 -188.62 -199.32 -193.26 -195.83 -259.42 -257.55 -268.14 -276.66 -289.23 -294.96 -292.37 -280.54 -282.84 -265.36 -267.27 -265.59 -271.02 -840.51 -841.72 -846.27 -852.14 -860.74 -858.04 -862.18 -871.83 -865.02 -868.77 -862.86 -862.45 -865.87 -1564.58 -1571.93 -1562.93 -1561.60 -1568.63 -1569.76 -1567.49 -1570.22 -1567.41 -1568.89 -1567.34 -1568.79 -1566.16 -2127.88 -2137.91 -2132.56 -2139.35 -2149.03 -2157.46 -2184.60 -2419.86 -2668.51 -2778.99 -2892.35 -2947.18 -2957.32 -1001.91 -999.30 -934.70 -907.04 -887.18 -862.20 -815.85 -804.02 -808.09 -809.85 -834.83 -871.45 -886.10 -917.50 -1031.32 -1150.82 -1267.13 -1296.26 -1301.11
2092.04 2098.71 1916.92 1746.64 1625.54 1563.28 1585.68 1605.72 1686.89 1687.01 1623.13 1548.06 1509.94 202.17 161.96 141.18 143.35 125.98 108.35 69.09 54.63 54.78 46.65 27.13 4.63 -5.04 842.37 833.91 839.79 830.06 834.21 844.67 867.74 879.28 918.25 937.76 962.66 967.02 965.04 1084.94 1059.44 1052.82 1051.95 1035.31 1028.06 1021.78 1019.83 1019.00 1020.23 1031.21 1031.75 1025.77 -176.02 -161.93 -154.26 -153.71 -158.08 -163.27 -169.82 -173.87 -177.86 -191.10 -196.45 -198.00 -202.33 -261.66 -260.62 -273.65 -285.51 -293.52 -296.73 -279.14 -264.09 -267.82 -261.34 -260.17 -262.95 -267.47 -837.33 -841.34 -838.50 -855.23 -857.54 -870.70 -866.87 -866.36 -868.10 -865.51 -867.86 -868.38 -863.29 -1566.05 -1570.25 -1564.55 -1562.73 -1563.69 -1569.70 -1559.94 -1568.57 -1565.82 -1566.45 -1569.03 -1565.55 -1572.55 -2128.63 -2139.27 -2140.74 -2145.32 -2144.19 -2178.26 -2207.58 -2337.46 -2579.43 -2820.84 -2901.21 -2914.45 -2948.03 -975.12 -956.66 -910.44 -886.52 -868.25 -819.74 -779.11 -754.45 -747.60 -763.35 -767.84 -812.90 -835.94 -902.71 -989.08 -1053.06 -1253.54 -1249.60 -1248.12
1908.90 1913.47 1951.89 1630.36 1612.58 1553.11 1519.19 1570.43 1651.57 1655.64 1599.52 1587.44 1567.88 252.87 223.59 173.89 186.96 168.84 130.75 106.34 92.25 89.71 53.86 30.12 15.64 22.14 850.46 840.23 845.96 846.87 848.82 858.44 882.60 884.57 918.08 952.69 974.33 966.64 962.59 1079.51 1057.67 1045.03 1042.42 1035.64 1026.85 1024.28 1032.29 1033.06 1044.34 1043.85 1036.23 1029.37 -163.96 -162.76 -150.59 -148.10 -162.88 -167.72 -165.62 -180.91 -191.17 -193.44 -213.90 -215.74 -214.58 -275.65 -278.45 -275.07 -283.42 -281.94 -282.56 -279.91 -266.68 -261.38 -263.55 -255.11 -260.50 -264.88 -830.79 -846.46 -847.10 -856.16 -853.25 -862.00 -866.27 -869.63 -867.02 -868.37 -863.38 -870.06 -866.95 -1560.37 -1569.22 -1568.93 -1571.18 -1565.62 -1573.79 -1568.69 -1571.93 -1568.21 -1564.85 -1559.84 -1568.71 -1573.70 -2122.62 -2129.85 -2135.95 -2148.84 -2143.57 -2177.84 -2207.00 -2374.03 -2485.42 -2709.92 -2856.16 -2885.73 -2909.09 -962.12 -941.12 -898.24 -863.04 -848.35 -814.51 -763.63 -740.95 -735.14 -731.00 -719.45 -751.66 -795.59 -866.76 -961.91 -1047.25 -1144.70 -1203.67 -1203.55
1856.63 1859.78 1720.13 1635.36 1573.92 1520.23 1495.71 1555.02 1591.95 1579.00 1571.40 1580.73 1592.16 284.92 241.91 190.66 196.84 190.46 129.94 104.21 92.68 57.91 45.49 15.58 28.63 33.90 867.49 871.82 865.86 861.19 864.91 868.01 887.16 893.66 926.69 959.24 966.90 969.33 953.80 1064.90 1049.46 1042.52 1035.83 1026.68 1025.57 1034.17 1047.41 1055.58 1057.57 1054.90 1049.88 1034.34 -159.96 -147.81 -151.71 -153.35 -165.54 -174.42 -181.71 -191.89 -195.66 -209.90 -210.45 -211.48 -216.19 -269.42 -276.88 -278.76 -269.64 -274.29 -274.53 -264.54 -270.86 -262.28 -254.04 -259.32 -268.63 -269.73 -845.36 -850.08 -855.30 -854.28 -865.42 -866.74 -865.15 -863.61 -865.01 -864.08 -862.08 -867.22 -866.81 -1567.27 -1566.24 -1569.60 -1565.32 -1568.42 -1562.34 -1566.02 -1564.71 -1565.69 -1567.04 -1562.83 -1574.83 -1573.96 -2132.86 -2131.42 -2124.01 -2141.11 -2141.97 -2168.02 -2264.38 -2309.67 -2491.11 -2672.41 -2844.12 -2868.00 -2898.65 -955.48 -910.41 -875.68 -831.65 -814.19 -757.10 -710.35 -712.49 -688.20 -691.83 -716.71 -753.37 -788.57 -809.50 -933.92 -986.02 -1119.62 -1164.41 -1160.72
1846.80 1844.41 1724.93 1596.63 1528.24 1474.34 1493.56 1535.71 1562.84 1550.67 1524.58 1549.23 1566.46 321.21 286.49 233.04 204.19 180.80 114.08 64.46 62.56 40.65 34.78 30.60 49.61 65.22 884.99 871.94 878.18 886.49 879.26 880.89 893.73 909.19 927.41 952.92 970.19 963.02 942.94 1057.60 1048.36 1044.89 1035.42 1029.13 1036.20 1044.46 1053.32 1063.98 1080.95 1064.53 1058.30 1046.09 -144.82 -145.65 -155.99 -160.16 -169.64 -173.88 -182.49 -199.08 -203.14 -200.83 -195.56 -198.83 -200.69 -268.04 -274.96 -276.07 -262.14 -269.83 -260.92 -271.16 -265.74 -263.60 -262.37 -265.24 -269.87 -275.74 -851.17 -853.40 -860.59 -856.72 -866.60 -870.51 -869.96 -860.57 -860.48 -859.03 -853.39 -856.04 -864.19 -1566.81 -1573.55 -1562.09 -1566.66 -1567.93 -1557.58 -1562.93 -1563.82 -1563.18 -1569.03 -1570.88 -1570.16 -1568.40 -2126.56 -2128.55 -2132.79 -2140.69 -2143.61 -2153.41 -2243.53 -2394.06 -2514.81 -2601.28 -2802.31 -2831.09 -2867.07 -912.32 -875.35 -832.62 -804.32 -790.37 -721.70 -709.42 -672.43 -674.67 -673.91 -676.40 -721.25 -744.21 -786.89 -876.42 -909.30 -1122.00 -1118.32 -1121.09
1898.98 1903.79 1773.27 1612.50 1538.65 1469.31 1462.10 1477.51 1504.06 1497.28 1497.82 1510.68 1555.30 307.43 280.81 223.16 216.88 186.86 118.27 48.73 52.66 47.72 53.74 45.98 57.79 53.47 898.91 885.42 899.59 911.43 915.90 910.36 897.99 920.03 942.52 964.79 972.76 963.21 949.12 1063.61 1050.33 1038.65 1039.38 1043.31 1053.47 1053.27 1066.80 1087.11 1083.26 1076.14 1059.11 1056.44 -136.19 -142.77 -150.82 -164.17 -169.73 -191.66 -192.77 -190.42 -196.51 -188.38 -189.04 -180.84 -195.75 -260.74 -258.94 -259.19 -248.39 -261.50 -265.62 -266.86 -270.50 -261.30 -268.92 -259.47 -272.47 -281.70 -858.26 -857.94 -855.96 -867.96 -869.15 -865.54 -866.85 -864.38 -854.53 -848.07 -845.01 -859.75 -865.43 -1569.07 -1567.90 -1566.85 -1558.01 -1552.13 -1554.45 -1562.46 -1563.74 -1560.22 -1567.62 -1564.80 -1569.10 -1571.70 -2125.64 -2126.66 -2132.93 -2130.00 -2145.06 -2155.10 -2217.56 -2368.65 -2438.06 -2571.68 -2698.60 -2727.34 -2790.93 -882.60 -858.58 -795.26 -773.61 -727.10 -681.48 -628.25 -637.52 -644.01 -637.09 -641.16 -678.76 -699.20 -756.64 -796.69 -886.50 -972.35 -1065.86 -1067.29
1860.89 1863.86 1747.50 1614.11 1579.12 1487.88 1432.16 1434.61 1415.28 1438.73 1478.40 1517.79 1557.22 311.76 278.46 221.61 187.47 132.34 95.43 71.29 75.16 61.88 85.56 75.20 92.78 68.35 907.46 891.89 905.74 928.60 942.65 941.43 926.94 938.20 962.73 981.68 972.57 956.16 951.69 1055.07 1055.10 1051.27 1053.13 1053.48 1059.32 1071.42 1078.44 1100.99 1100.45 1094.50 1080.60 1063.71 -139.98 -143.55 -148.99 -162.14 -155.92 -165.75 -182.26 -189.46 -183.39 -187.33 -173.59 -183.73 -183.62 -246.81 -249.15 -253.11 -257.00 -257.01 -268.08 -280.87 -276.36 -284.21 -273.44 -273.86 -275.25 -277.57 -857.95 -864.18 -861.53 -860.90 -867.60 -866.33 -871.18 -863.91 -847.91 -838.89 -845.70 -853.44 -864.72 -1557.90 -1560.17 -1555.96 -1554.09 -1554.61 -1551.34 -1559.65 -1559.52 -1566.54 -1567.11 -1567.43 -1568.27 -1564.08 -2125.06 -2129.71 -2126.03 -2129.54 -2138.67 -2153.88 -2161.99 -2247.22 -2309.32 -2499.95 -2548.65 -2624.96 -2720.00 -773.83 -773.37 -780.69 -723.92 -697.73 -644.40 -625.88 -590.32 -607.69 -610.68 -631.29 -656.60 -698.73 -708.54 -744.45 -836.27 -966.67 -1000.64 -1003.83
1819.46 1819.14 1732.82 1610.25 1587.55 1507.15 1438.86 1422.64 1411.22 1437.79 1473.24 1538.43 1555.38 316.39 309.10 242.62 179.57 126.40 131.01 100.95 101.26 88.87 103.22 106.51 100.00 93.45 923.77 909.68 919.06 922.87 950.97 951.79 950.21 966.61 993.26 996.04 984.24 964.60 956.89 1071.91 1068.88 1061.77 1059.82 1075.75 1083.63 1077.15 1090.35 1108.94 1122.04 1096.58 1083.05 1057.37 -136.47 -147.99 -143.95 -161.52 -153.56 -163.89 -179.78 -184.46 -182.46 -175.82 -175.53 -178.96 -179.24 -247.41 -245.97 -252.13 -261.22 -258.18 -276.18 -281.99 -286.61 -279.52 -280.09 -280.74 -277.17 -281.31 -852.20 -865.06 -863.14 -866.79 -856.23 -855.56 -861.39 -855.02 -850.70 -841.94 -844.56 -846.09 -854.78 -1557.87 -1553.62 -1553.51 -1555.35 -1555.44 -1555.43 -1557.71 -1562.74 -1555.06 -1570.58 -1569.92 -1561.81 -1566.08 -2124.67 -2123.26 -2127.82 -2129.80 -2138.38 -2142.58 -2151.64 -2155.69 -2164.03 -2253.13 -2310.32 -2354.86 -2514.00 -706.06 -734.30 -718.94 -686.53 -630.45 -604.09 -585.36 -579.72 -557.51 -571.89 -589.66 -587.56 -626.82 -655.98 -711.74 -729.86 -933.78 -930.49 -926.28
4625.96 4621.50 4531.56 4396.04 4341.73 4329.62 4280.91 4237.19 4218.93 4254.98 4278.50 4349.57 4403.37 4098.28 4084.39 4047.44 3977.57 3926.81 3898.23 3884.38 3872.44 3873.45 3877.88 3905.02 3897.38 3879.75 889.90 862.61 863.07 882.25 899.64 918.29 919.23 946.04 957.37 953.62 932.15 925.80 904.40 947.76 935.48 921.74 921.12 940.91 958.28 959.95 967.59 975.04 977.87 959.55 918.10 900.05 179.05 169.41 156.94 165.61 162.39 156.76 140.24 125.47 120.60 136.95 143.19 141.94 134.39 -32.90 -34.43 -39.30 -36.42 -49.41 -61.87 -67.47 -71.42 -72.26 -69.31 -67.02 -75.45 -79.84 -310.12 -315.29 -300.58 -301.21 -302.54 -301.48 -296.67 -297.08 -285.59 -287.92 -289.44 -287.42 -292.59 -284.45 -286.43 -290.77 -293.01 -290.07 -294.28 -296.83 -303.11 -307.60 -307.60 -303.13 -306.59 -309.31 -302.43 -304.07 -304.27 -308.13 -311.05 -301.98 -318.44 -317.62 -326.59 -334.56 -345.43 -441.47 -508.72 -578.85 -667.37 -673.72 -617.97 -589.27 -550.99 -519.03 -517.42 -512.22 -514.80 -539.48 -523.90 -563.59 -582.28 -648.35 -712.27 -792.45 -848.88 -850.91
4544.98 4545.89 4543.51 4385.47 4313.27 4293.08 4253.36 4235.13 4216.40 4245.88 4291.27 4349.97 4366.39 4097.74 4074.95 4052.98 4018.84 3977.96 3964.12 3921.80 3910.63 3913.63 3906.98 3921.08 3935.12 3916.16 910.40 874.70 872.04 888.06 913.48 949.74 957.52 969.59 981.18 958.08 933.83 918.36 923.88 957.52 948.21 933.20 938.57 963.55 973.87 967.44 977.90 977.92 970.82 929.86 899.38 890.40 165.76 157.23 145.38 147.11 152.79 149.85 141.19 118.75 116.06 115.61 121.59 132.72 125.26 -47.96 -47.51 -39.95 -43.90 -45.79 -60.34 -70.72 -69.22 -73.07 -78.78 -73.40 -79.47 -78.97 -305.12 -300.39 -298.38 -293.66 -293.00 -293.46 -287.17 -287.42 -288.19 -286.39 -279.26 -291.60 -294.86 -289.56 -286.92 -292.64 -295.78 -293.37 -297.13 -306.18 -297.40 -299.30 -304.41 -297.65 -309.06 -303.00 -300.96 -299.24 -298.33 -298.94 -306.84 -310.89 -303.87 -307.68 -307.83 -316.84 -346.80 -363.39 -468.01 -377.71 -635.39 -597.06 -590.27 -519.27 -494.67 -484.46 -469.35 -461.52 -480.65 -478.75 -503.13 -500.29 -553.68 -610.41 -645.76 -757.25 -778.85 -772.38
4452.30 4449.08 4467.77 4308.13 4278.53 4274.05 4243.61 4202.93 4210.18 4238.51 4284.01 4324.29 4362.28 4049.58 4059.71 4053.55 4039.70 4019.92 3991.35 3962.19 3974.06 3986.54 3966.02 3961.77 3933.91 3928.19 931.01 909.55 883.79 902.34 953.64 990.85 997.52 992.62 971.48 935.27 918.40 911.29 931.94 978.85 960.95 963.21 961.75 965.41 965.58 957.02 961.98 954.85 945.43 921.31 890.17 887.82 147.44 147.16 136.97 143.54 153.29 152.57 133.78 118.30 109.24 111.58 122.56 119.28 108.37 -65.85 -62.64 -59.02 -48.56 -53.82 -62.98 -70.89 -69.34 -64.39 -70.67 -71.64 -73.51 -69.71 -310.14 -304.72 -286.48 -288.58 -284.16 -282.67 -279.24 -282.27 -276.51 -282.11 -279.62 -285.57 -288.39 -284.78 -289.22 -288.74 -296.18 -295.86 -302.52 -302.11 -301.63 -301.06 -308.35 -302.70 -299.65 -309.57 -304.75 -303.12 -306.33 -303.03 -304.96 -308.22 -306.54 -303.72 -307.78 -307.03 -328.86 -345.91 -364.09 -316.18 -421.40 -508.64 -514.31 -500.27 -481.23 -445.67 -454.99 -441.64 -433.37 -438.75 -460.71 -473.29 -492.88 -521.73 -577.57 -630.04 -701.44 -703.47
4417.52 4422.88 4353.17 4270.01 4256.56 4254.34 4228.68 4210.07 4204.49 4220.44 4272.00 4304.85 4328.06 4035.64 4049.94 4060.92 4045.37 4031.56 4059.33 4062.76 4065.04 4021.61 4022.17 3990.24 3964.32 3961.63 972.98 945.03 959.96 975.16 1030.23 1025.60 1019.71 989.61 956.94 909.16 899.46 910.48 922.03 968.82 956.01 953.42 954.68 947.95 957.16 949.59 939.68 918.00 913.00 898.32 888.78 873.48 151.62 139.90 130.95 140.94 131.60 127.67 125.97 114.34 111.18 110.16 104.79 106.16 96.33 -66.69 -71.26 -67.31 -64.99 -59.72 -65.23 -69.00 -65.67 -62.88 -62.79 -59.69 -67.10 -71.53 -304.80 -294.53 -286.61 -281.88 -274.40 -270.71 -278.96 -277.47 -279.74 -277.55 -279.67 -283.12 -288.15 -281.09 -293.42 -293.27 -297.79 -304.50 -298.19 -299.29 -302.45 -304.62 -309.39 -302.36 -301.72 -310.20 -299.46 -307.90 -307.36 -304.18 -309.15 -304.89 -307.27 -304.50 -304.48 -300.74 -301.57 -329.17 -359.46 -312.29 -371.21 -501.45 -480.78 -453.12 -432.22 -425.79 -420.15 -416.54 -423.47 -421.45 -445.65 -463.22 -468.37 -510.92 -556.51 -630.29 -636.52 -634.25
4416.83 4422.02 4353.96 4262.88 4241.95 4227.39 4215.82 4204.69 4191.36 4213.53 4247.70 4306.01 4319.63 4016.80 4007.86 4016.60 4044.91 4071.06 4092.88 4111.93 4084.42 4026.03 4022.76 4004.57 3992.99 3994.88 1014.28 996.58 992.69 1053.85 1045.87 1042.36 997.68 983.23 932.24 888.20 878.68 886.26 914.07 954.32 941.66 937.35 921.52 937.60 940.23 944.08 923.16 903.35 886.50 884.95 880.29 871.55 144.94 141.41 133.74 121.70 113.72 114.38 106.56 111.17 107.68 110.72 111.79 100.66 93.88 -63.90 -76.87 -70.62 -67.21 -68.49 -69.99 -63.94 -63.62 -48.14 -46.85 -51.44 -58.65 -53.65 -292.24 -287.64 -281.89 -277.00 -278.49 -274.16 -270.98 -271.95 -276.48 -282.60 -289.06 -292.12 -291.01 -287.95 -288.95 -298.44 -297.65 -298.01 -298.18 -294.37 -298.72 -299.05 -307.31 -312.10 -307.89 -305.39 -299.85 -305.03 -300.40 -305.30 -305.99 -301.29 -306.89 -308.03 -307.34 -302.18 -304.67 -319.47 -346.10 -231.70 -362.24 -405.74 -453.32 -419.86 -409.05 -385.19 -393.05 -391.68 -404.77 -420.06 -424.21 -440.38 -456.01 -499.35 -524.03 -573.81 -592.77 -589.46
4407.51 4403.61 4331.73 4230.01 4230.91 4198.29 4191.53 4190.66 4198.59 4226.23 4237.35 4280.03 4291.14 3975.54 3982.65 3979.48 4048.85 4088.04 4098.16 4109.76 4074.13 4045.44 4026.31 3986.10 3977.53 3999.88 1019.80 1024.64 1045.28 1064.76 1080.41 1029.89 959.31 945.16 902.88 868.98 864.05 865.70 862.14 918.71 904.16 908.90 894.49 910.81 918.76 913.74 901.04 875.95 870.10 863.63 864.68 859.67 147.79 138.76 131.62 121.33 121.49 111.81 103.85 112.58 120.15 107.23 104.06 94.01 104.95 -52.84 -57.88 -66.60 -58.28 -52.11 -53.37 -58.48 -49.98 -41.86 -42.81 -39.00 -51.51 -41.63 -277.16 -282.31 -278.64 -275.41 -277.71 -276.29 -277.00 -283.66 -283.83 -285.79 -289.61 -296.89 -296.15 -299.45 -296.06 -296.20 -296.88 -292.89 -297.44 -300.87 -295.37 -303.84 -303.92 -305.06 -308.01 -306.97 -302.92 -296.78 -301.16 -298.87 -306.63 -303.20 -304.67 -299.28 -302.92 -306.41 -300.69 -315.15 -328.42 -232.87 -278.66 -330.76 -417.97 -381.07 -376.51 -365.18 -362.23 -366.59 -373.66 -403.27 -411.21 -432.26 -453.75 -479.56 -498.10 -533.50 -557.26 -556.26
4408.25 4412.85 4344.62 4227.04 4195.39 4194.46 4189.81 4177.14 4187.61 4214.45 4224.49 4238.52 4232.85 3943.64 3945.66 3979.40 4003.81 4070.39 4081.10 4063.87 4042.25 4021.93 3986.76 3968.49 3949.72 3965.30 1015.20 1019.27 1037.07 1069.48 1082.58 1064.82 1013.29 926.78 903.58 868.09 858.63 848.69 861.19 906.19 904.67 893.41 895.15 893.77 905.91 888.43 877.75 875.63 861.59 855.06 853.74 856.77 144.68 132.35 121.60 129.49 125.99 122.37 115.31 123.48 122.41 116.04 112.00 106.95 109.18 -40.42 -55.35 -59.23 -44.95 -40.07 -43.03 -37.41 -31.66 -34.12 -35.11 -34.10 -33.76 -41.62 -271.77 -273.65 -280.54 -274.67 -279.39 -275.18 -278.81 -283.68 -287.28 -287.75 -295.33 -299.33 -307.75 -296.10 -298.29 -300.60 -292.87 -293.93 -301.13 -294.89 -299.17 -304.70 -303.15 -304.87 -310.77 -303.39 -302.56 -296.53 -304.17 -304.67 -304.04 -307.33 -305.44 -306.30 -310.70 -297.66 -307.58 -308.75 -326.44 -221.07 -276.57 -319.75 -362.28 -353.38 -329.21 -331.70 -343.76 -352.47 -375.00 -384.01 -406.72 -426.58 -457.09 -480.37 -508.47 -564.75 -546.02 -545.82
4468.36 4464.19 4351.23 4227.58 4217.45 4204.09 4206.68 4205.73 4193.46 4175.48 4188.17 4198.91 4207.88 3899.41 3929.22 3956.33 3990.15 4006.49 3992.35 3979.70 3968.40 3967.33 3939.75 3924.18 3912.79 3947.90 986.59 1007.50 1025.92 1046.45 1086.43 1055.45 986.89 929.91 906.90 872.23 862.03 851.27 850.03 891.00 882.48 872.52 875.70 881.64 883.19 879.27 865.78 855.57 860.82 852.47 853.82 856.10 130.81 125.19 128.40 140.22 148.13 144.50 133.73 122.67 139.39 127.37 120.27 131.18 127.51 -46.53 -51.94 -50.03 -43.32 -38.71 -21.56 -32.67 -32.22 -37.20 -30.12 -34.42 -37.01 -40.71 -272.76 -278.02 -274.61 -278.26 -280.94 -285.23 -284.93 -290.31 -288.73 -290.89 -299.22 -304.62 -309.49 -302.97 -298.52 -296.78 -298.33 -297.17 -295.73 -297.50 -308.32 -307.98 -312.97 -305.53 -306.56 -307.59 -300.54 -305.03 -306.80 -303.18 -304.16 -307.84 -305.62 -307.07 -301.71 -309.98 -303.41 -304.13 -307.98 -215.09 -241.79 -270.97 -306.61 -301.14 -313.20 -293.63 -298.18 -306.34 -322.96 -370.03 -387.67 -434.62 -448.92 -487.58 -533.68 -583.55 -579.39 -582.45
4429.04 4418.70 4349.85 4233.58 4227.82 4238.93 4254.32 4228.16 4202.00 4189.79 4175.27 4183.35 4181.46 3885.48 3916.94 3933.25 3945.66 3941.54 3944.67 3948.52 3949.24 3937.61 3900.13 3892.85 3895.91 3918.68 978.07 992.06 980.10 1016.27 1052.83 1036.26 992.23 931.07 905.35 882.63 886.90 850.85 851.56 897.43 892.39 879.75 876.52 876.81 866.77 864.29 861.40 855.32 853.99 853.86 851.27 860.76 131.98 130.12 134.52 138.87 153.77 147.63 146.60 139.96 150.70 145.16 143.48 141.55 131.03 -34.92 -42.12 -39.52 -31.13 -22.76 -23.58 -16.08 -23.92 -35.35 -32.44 -31.07 -39.87 -45.12 -273.70 -275.30 -281.66 -276.99 -280.55 -293.58 -294.89 -289.61 -292.13 -289.75 -290.84 -306.12 -310.41 -304.27 -304.79 -297.61 -302.69 -305.64 -308.47 -307.87 -302.64 -308.98 -307.14 -301.52 -305.86 -306.80 -306.89 -303.67 -303.67 -298.00 -309.69 -305.60 -306.26 -304.56 -303.04 -312.31 -305.95 -306.16 -306.13 -193.79 -233.63 -269.33 -296.81 -290.31 -262.09 -280.70 -267.65 -285.26 -305.87 -321.11 -387.32 -410.75 -441.47 -539.67 -547.14 -587.77 -637.85 -634.83
4458.14 4453.29 4475.93 4292.98 4271.35 4285.39 4271.47 4261.12 4210.29 4186.51 4184.44 4173.71 4179.36 3876.61 3912.34 3917.42 3928.19 3927.87 3920.33 3931.76 3962.74 3949.04 3910.52 3891.47 3875.51 3894.72 945.39 944.37 942.47 986.75 1036.19 1006.88 1007.07 958.72 918.05 925.29 951.76 912.49 890.47 930.01 927.20 911.10 891.15 890.48 879.22 876.04 875.16 869.57 865.60 862.80 881.65 872.93 148.60 135.25 143.15 148.92 155.98 163.76 168.00 158.75 145.90 155.24 157.77 153.68 136.85 -27.89 -35.45 -31.66 -32.32 -16.76 -16.60 -12.10 -18.41 -31.35 -32.53 -36.17 -44.33 -45.78 -286.31 -281.59 -285.61 -287.54 -290.04 -297.12 -303.97 -301.65 -293.40 -285.59 -294.58 -298.13 -313.82 -305.68 -299.09 -301.02 -308.87 -304.24 -306.63 -309.53 -307.11 -302.25 -306.73 -306.71 -308.50 -305.02 -303.19 -300.04 -307.27 -303.70 -303.75 -304.39 -302.42 -304.76 -309.43 -304.20 -305.81 -303.45 -307.19 -188.52 -226.27 -255.03 -265.33 -235.22 -247.54 -231.90 -258.37 -248.95 -281.68 -312.81 -366.97 -403.42 -474.47 -541.62 -596.20 -621.61 -651.09 -648.11
4526.01 4525.78 4517.50 4335.78 4290.05 4306.52 4298.74 4252.34 4207.68 4195.46 4170.79 4159.20 4164.58 3867.69 3885.70 3881.74 3897.42 3901.83 3916.38 3946.21 3969.75 3974.50 3924.64 3885.93 3874.50 3866.02 916.68 922.18 925.62 971.78 1008.80 1025.07 1000.81 975.89 953.35 953.32 960.22 951.83 936.43 962.50 958.83 931.46 908.78 895.15 885.97 881.50 886.19 881.60 877.58 875.33 886.11 900.67 177.11 172.90 172.55 167.05 170.70 182.18 181.22 166.37 157.65 156.60 172.84 169.00 137.89 -19.49 -11.23 -8.31 -18.26 -8.80 -17.73 -13.68 -24.11 -27.88 -37.42 -47.46 -49.73 -51.57 -288.33 -292.22 -281.61 -292.90 -298.21 -306.95 -303.75 -297.79 -300.81 -296.46 -294.73 -302.89 -308.66 -306.67 -301.45 -302.46 -304.89 -302.77 -304.18 -302.03 -306.24 -300.38 -297.65 -299.66 -303.67 -305.47 -301.63 -301.34 -301.68 -297.03 -301.27 -302.46 -304.69 -310.49 -301.07 -303.45 -302.80 -305.56 -304.95 -183.13 -201.14 -213.17 -203.63 -205.71 -216.30 -225.86 -224.13 -226.84 -249.80 -278.54 -336.64 -386.12 -476.49 -523.86 -585.24 -625.07 -636.93 -629.05
4560.26 4562.48 4464.35 4349.83 4361.91 4304.35 4291.27 4239.91 4208.82 4181.76 4158.55 4155.62 4154.98 3858.68 3871.63 3869.64 3861.75 3892.55 3909.65 3937.33 3963.93 3964.91 3953.44 3914.93 3883.29 3861.23 902.77 908.98 922.35 964.99 997.00 1019.91 1015.20 1003.93 1004.66 1002.46 1007.10 983.07 958.24 982.60 975.48 943.01 902.89 894.58 898.19 904.84 893.25 892.34 887.40 885.67 897.19 908.03 201.96 198.33 180.90 174.78 187.90 184.44 189.65 179.87 176.12 179.70 178.42 168.85 167.25 -5.76 -9.40 -14.40 -12.03 -18.71 -15.27 -16.57 -24.55 -33.87 -38.82 -48.26 -47.07 -43.44 -290.92 -295.25 -302.66 -298.15 -307.41 -309.43 -307.91 -315.35 -303.74 -306.10 -299.31 -311.07 -311.46 -305.82 -299.37 -299.19 -299.80 -296.00 -297.77 -300.94 -300.53 -304.04 -299.89 -302.59 -299.03 -302.18 -299.79 -298.42 -297.52 -311.18 -306.12 -305.13 -308.37 -303.37 -304.29 -302.27 -306.19 -307.41 -300.45 -170.84 -167.99 -193.41 -185.45 -180.26 -188.61 -189.51 -193.63 -197.05 -220.37 -257.23 -301.05 -334.95 -425.27 -513.79 -533.17 -593.22 -599.45 -598.76
1469.20 1466.82 1363.49 1329.54 1321.18 1258.72 1198.43 1157.53 1117.85 1111.42 1087.68 1073.14 1058.83 783.45 774.28 774.84 782.25 803.79 829.76 862.60 865.49 885.14 853.23 837.52 806.13 796.75 522.34 535.53 574.02 602.54 612.66 619.50 610.76 606.62 619.11 638.13 635.00 623.38 614.62 879.62 844.54 810.70 790.10 777.82 777.25 786.84 776.58 766.47 750.56 749.32 758.19 768.91 224.41 226.31 219.97 223.72 217.91 219.84 225.00 220.36 221.63 214.92 214.92 203.37 203.13 -24.82 -22.54 -31.69 -35.22 -34.43 -45.32 -38.19 -51.61 -58.22 -61.49 -72.62 -70.53 -63.97 -282.00 -285.77 -283.15 -297.81 -299.44 -310.65 -307.62 -309.09 -299.80 -303.57 -301.88 -307.09 -305.58 -305.94 -301.91 -298.61 -307.72 -304.35 -308.26 -310.93 -313.62 -313.53 -310.41 -313.06 -311.76 -316.66 -861.11 -853.24 -862.77 -861.09 -863.72 -863.88 -863.95 -861.01 -865.96 -861.82 -859.00 -861.26 -861.04 -177.22 -176.21 -176.17 -173.17 -174.40 -173.27 -174.53 -174.89 -181.57 -201.57 -235.48 -248.01 -283.01 -384.38 -481.02 -512.91 -540.75 -546.31 -554.60
1519.92 1524.09 1493.33 1367.19 1383.10 1315.88 1256.00 1193.99 1151.13 1126.01 1107.17 1092.72 1068.52 788.15 783.02 774.68 767.62 778.14 805.52 836.91 848.01 849.31 836.15 802.53 797.38 789.65 520.19 561.55 567.21 593.45 608.92 595.79 587.18 582.51 590.79 625.78 634.45 629.41 625.65 897.25 880.26 835.54 810.48 792.02 810.77 820.58 808.38 789.68 778.22 777.99 761.17 775.77 224.00 234.32 221.82 213.69 222.74 216.42 215.63 212.36 217.30 222.48 225.17 227.68 210.72 -7.13 -8.44 -27.06 -26.13 -40.09 -36.65 -39.80 -41.58 -48.49 -57.87 -66.41 -68.44 -66.47 -276.61 -278.26 -288.82 -282.05 -296.26 -298.55 -309.59 -310.68 -309.24 -310.10 -311.00 -298.72 -302.44 -298.02 -299.38 -308.38 -315.39 -311.70 -310.76 -313.64 -309.29 -321.17 -315.26 -314.81 -309.78 -313.65 -865.62 -866.09 -868.59 -860.94 -868.73 -864.09 -869.54 -869.63 -863.28 -857.65 -865.28 -869.43 -864.34 -171.73 -174.62 -177.80 -175.50 -174.58 -175.77 -178.77 -172.26 -178.99 -180.93 -207.39 -240.23 -272.00 -366.08 -434.28 -434.90 -486.89 -494.70 -494.15
1632.21 1621.88 1521.20 1418.90 1400.39 1329.32 1269.57 1216.73 1165.19 1144.61 1141.70 1117.41 1101.34 800.22 780.29 765.47 770.32 779.75 807.00 812.07 815.50 806.49 817.91 796.26 789.14 776.57 526.81 550.48 565.46 569.16 568.91 571.75 564.75 569.28 584.59 599.01 602.35 611.66 620.60 904.49 894.57 856.19 817.70 816.22 814.57 828.80 824.41 809.95 793.86 799.37 776.33 783.04 234.79 229.33 222.90 213.63 224.16 211.46 213.32 208.18 204.16 221.02 225.19 234.40 221.86 1.60 -7.18 -20.31 -24.03 -36.59 -38.27 -41.22 -53.11 -46.49 -66.82 -73.86 -73.45 -69.39 -275.18 -280.59 -288.57 -294.66 -293.01 -297.27 -305.49 -305.05 -304.27 -302.60 -299.26 -296.47 -294.55 -297.13 -302.92 -309.80 -312.35 -305.60 -307.11 -310.80 -315.24 -310.79 -314.07 -313.27 -312.16 -309.64 -864.62 -868.79 -859.79 -863.65 -860.79 -869.65 -863.18 -862.65 -866.68 -870.02 -861.60 -860.02 -869.94 -173.97 -169.02 -168.50 -171.54 -176.03 -170.25 -174.48 -175.01 -170.96 -174.90 -190.84 -201.70 -268.69 -299.57 -392.36 -391.32 -430.59 -445.28 -445.47
1598.67 1603.40 1602.83 1429.89 1414.99 1368.81 1287.41 1244.96 1205.32 1175.54 1155.75 1122.96 1103.70 796.38 779.76 767.04 764.72 785.92 794.73 808.95 804.22 792.24 786.46 780.51 776.61 781.06 521.14 562.19 558.52 567.39 558.12 534.15 533.07 561.89 556.61 556.52 559.34 576.12 606.06 898.16 909.33 875.00 851.22 840.55 830.39 834.63 829.21 814.95 815.36 798.02 797.31 780.87 227.19 220.14 211.85 216.23 215.86 209.19 203.89 193.94 190.03 195.31 208.75 219.05 218.13 0.14 -9.27 -30.45 -30.19 -37.78 -43.51 -48.70 -49.99 -56.59 -67.01 -65.45 -74.48 -78.46 -290.75 -288.25 -283.77 -300.12 -295.03 -296.37 -292.45 -300.76 -305.78 -297.92 -293.72 -302.71 -299.13 -304.42 -309.95 -307.18 -306.45 -306.24 -300.54 -314.66 -312.13 -308.37 -314.39 -306.90 -315.44 -307.07 -860.43 -859.10 -864.64 -863.87 -865.51 -858.58 -864.75 -862.51 -863.21 -866.82 -865.92 -863.45 -866.36 -176.56 -175.76 -170.15 -168.68 -172.66 -173.00 -169.55 -171.63 -171.84 -170.65 -174.81 -189.70 -204.70 -231.30 -329.29 -341.21 -393.65 -383.50 -393.59
1578.19 1579.31 1498.10 1453.40 1410.11 1349.18 1259.80 1206.17 1191.50 1168.41 1141.55 1128.26 1106.77 805.39 787.01 780.80 778.89 770.96 782.66 787.06 774.84 780.98 781.70 769.11 775.97 788.63 533.74 557.60 572.33 552.10 532.70 521.61 525.82 542.64 542.25 533.81 538.12 548.28 598.25 897.86 911.02 881.05 857.93 842.70 831.06 826.98 814.49 811.34 805.95 796.89 787.67 781.65 212.29 212.17 206.49 199.49 200.72 195.30 188.01 189.80 193.30 188.05 208.96 209.27 208.57 -1.27 -24.10 -30.28 -45.29 -35.93 -47.45 -56.03 -54.00 -50.85 -53.57 -64.77 -71.59 -83.59 -290.55 -289.49 -302.55 -304.57 -300.46 -299.82 -295.02 -300.71 -297.59 -289.93 -297.24 -300.04 -303.27 -309.76 -307.67 -305.82 -304.00 -302.11 -302.27 -308.65 -314.28 -314.70 -308.37 -312.66 -303.84 -312.56 -860.68 -862.24 -862.59 -864.31 -864.89 -865.01 -866.39 -860.97 -870.94 -866.91 -866.09 -862.96 -866.42 -176.77 -171.88 -164.71 -168.06 -168.14 -166.22 -164.25 -167.37 -174.43 -175.84 -168.31 -179.57 -176.78 -179.49 -244.21 -274.10 -307.86 -340.52 -334.36
1573.62 1568.46 1491.49 1400.81 1384.57 1300.27 1199.45 1161.50 1134.19 1133.36 1131.75 1098.66 1097.99 785.41 806.66 780.21 771.88 763.58 762.83 760.27 766.29 767.31 769.11 764.06 782.44 781.05 538.54 552.09 556.82 550.34 531.40 500.83 505.43 520.06 518.74 523.13 546.38 551.08 589.52 902.90 895.32 883.85 847.14 836.92 826.42 821.45 812.98 802.67 799.94 787.26 783.49 767.75 210.37 207.03 209.59 200.14 206.84 199.53 199.06 194.87 186.87 178.06 193.27 210.30 209.23 -3.69 -14.39 -31.18 -33.09 -47.78 -45.72 -46.74 -46.97 -58.91 -48.86 -64.49 -72.56 -78.36 -298.68 -288.61 -296.37 -298.31 -303.34 -302.69 -302.41 -300.27 -292.94 -297.63 -291.16 -292.73 -305.66 -310.18 -308.49 -307.95 -304.56 -299.06 -311.34 -308.45 -310.66 -308.40 -310.62 -309.62 -302.73 -304.17 -852.46 -860.51 -864.18 -863.68 -862.22 -858.67 -863.95 -870.30 -866.78 -860.99 -858.04 -863.00 -864.83 -165.68 -169.01 -162.25 -157.18 -162.82 -165.72 -159.14 -161.57 -165.85 -169.30 -178.07 -172.78 -174.76 -177.70 -195.07 -205.46 -242.85 -271.21 -271.15
1492.64 1496.44 1443.05 1347.99 1282.17 1238.44 1179.89 1150.65 1133.24 1103.62 1081.40 1084.00 1088.94 820.60 819.23 806.56 782.65 766.59 762.42 764.62 767.38 759.86 747.99 762.56 771.01 777.71 501.91 537.44 529.15 530.92 511.37 505.34 495.62 505.58 510.20 534.30 550.70 585.13 589.43 882.22 879.76 847.92 836.41 823.22 811.17 804.23 791.70 793.94 794.10 787.73 770.53 761.91 213.21 217.24 213.81 217.17 214.23 220.83 209.38 203.77 185.40 178.76 182.67 197.74 207.20 -6.06 -5.00 -17.69 -31.59 -33.33 -37.15 -35.60 -39.05 -36.64 -46.23 -61.63 -76.42 -77.14 -287.84 -297.88 -297.75 -293.48 -305.17 -303.55 -298.02 -296.76 -293.78 -296.06 -297.46 -304.45 -304.68 -300.08 -293.88 -302.21 -302.04 -310.16 -308.56 -303.78 -307.57 -307.37 -299.32 -302.91 -303.48 -309.85 -855.78 -858.01 -869.71 -858.00 -867.11 -869.73 -860.94 -862.49 -867.90 -866.68 -863.19 -864.19 -861.82 -172.95 -171.95 -161.48 -157.84 -149.95 -154.34 -155.34 -159.91 -164.01 -161.60 -170.56 -178.42 -169.48 -177.33 -190.59 -183.50 -216.69 -221.50 -221.06
1413.55 1413.58 1403.77 1343.90 1289.75 1241.02 1183.32 1189.54 1156.26 1118.22 1074.00 1074.91 1095.21 835.64 851.43 811.19 798.11 784.93 790.08 785.82 779.28 770.44 763.15 757.06 763.97 774.48 491.90 485.91 513.58 504.66 503.80 493.18 491.87 492.95 493.94 515.72 558.11 565.13 573.23 867.71 857.29 834.42 818.69 816.15 794.59 804.19 788.48 788.38 782.91 776.01 778.87 775.22 231.42 235.98 232.03 232.64 221.33 216.43 218.32 208.30 191.91 181.16 176.67 183.82 205.23 -15.06 -10.30 -19.76 -18.17 -23.74 -27.90 -31.05 -40.50 -42.24 -48.09 -55.53 -71.40 -77.03 -282.16 -283.02 -287.59 -296.29 -297.82 -289.97 -287.87 -293.32 -282.92 -293.05 -301.61 -303.03 -299.43 -294.47 -294.82 -295.70 -302.89 -302.97 -296.44 -292.23 -300.30 -295.78 -298.16 -298.47 -300.98 -305.54 -854.87 -863.71 -863.02 -863.08 -867.32 -863.19 -869.86 -863.06 -863.83 -865.36 -866.27 -858.83 -863.67 -173.24 -168.09 -160.71 -167.15 -152.95 -152.33 -147.15 -147.81 -162.39 -168.77 -168.37 -166.00 -174.05 -174.42 -176.41 -177.61 -193.90 -223.35 -219.82
