491.38 484.52 472.39 460.51 452.07 447.60 445.79 445.03 442.20 435.98 428.22 407.96 335.91 219.68 148.01 128.76 121.98 115.23 109.85 105.03 99.25 91.13 83.52 78.28 62.23 0.94 -97.38 -155.84 -168.83 -171.60 -173.92 -176.46 -180.83 -186.27 -189.81 -191.80 -194.79 -216.86 -311.27 -466.53 -562.44 -582.93 -580.71 -577.71 -576.32 -576.54 -578.07 -578.55 -577.61 -580.22 -621.66 -806.93 -1114.51 -1316.89 -1406.05 -1497.45 -1616.96 -1750.31 -1918.05 -2137.98 -2360.32 -2498.84 -2554.27 -2576.88 -2591.94 -2605.88 -2619.95 -2631.34 -2641.13 -2650.75 -2661.60 -2672.02 -2678.80 -2685.71 -2694.56 -2709.34 -2753.76 -2890.38 -3108.05 -3263.62 -3341.19 -3404.06 -3469.71 -3528.87 -3572.39 -3600.38 -3608.88 -3600.04 -3578.77 -3543.73 -3488.15 -3419.67 -3378.02 -3370.72 -3384.34 -3408.62 -3437.49 -3471.21 -3510.38 -3553.30 -3599.05 -3645.67 -3693.20 -3757.07 -3836.42 -3896.48 -3933.89 -3960.91 -3982.64 -4003.07 -4025.13 -4049.05 -4073.42 -4097.07 -4107.79 -4030.82 -3647.80 -3018.36 -2730.85 -3087.41 -3807.12 -4245.79 -4341.23 -4344.95 -4339.10 -4332.27 -4325.80 -4320.64 -4316.96 -4314.08 -4311.17 -4307.75 -4303.61 -4298.36 -4293.99 -4292.51
484.90 478.30 464.51 448.60 437.45 431.97 429.60 428.43 425.58 420.62 414.30 395.28 323.93 208.03 136.90 118.38 113.09 107.38 100.70 93.42 86.33 79.23 73.30 69.04 55.42 -1.01 -95.66 -155.99 -172.35 -176.43 -179.52 -181.67 -183.43 -186.04 -187.99 -188.71 -191.25 -213.69 -308.03 -461.85 -556.17 -577.43 -577.85 -576.97 -576.36 -576.69 -577.97 -577.83 -576.37 -578.89 -620.26 -805.15 -1111.27 -1306.11 -1370.49 -1412.19 -1473.41 -1567.46 -1716.29 -1946.37 -2221.54 -2419.37 -2507.46 -2544.33 -2564.77 -2576.64 -2586.04 -2594.27 -2601.41 -2609.36 -2618.61 -2627.11 -2635.78 -2647.37 -2659.97 -2676.93 -2724.09 -2865.02 -3084.67 -3239.15 -3313.28 -3369.27 -3428.44 -3482.25 -3520.19 -3544.91 -3555.24 -3549.08 -3531.68 -3503.25 -3452.03 -3385.27 -3345.07 -3338.39 -3351.26 -3373.22 -3397.41 -3426.18 -3464.23 -3509.91 -3557.74 -3604.49 -3651.89 -3717.65 -3801.32 -3861.30 -3895.12 -3922.91 -3947.83 -3970.63 -3995.97 -4022.16 -4046.79 -4071.89 -4086.74 -4012.96 -3632.87 -3006.73 -2721.30 -3079.24 -3801.00 -4243.05 -4342.86 -4351.30 -4351.07 -4349.88 -4347.75 -4345.59 -4343.51 -4341.02 -4338.18 -4335.02 -4331.01 -4325.35 -4320.84 -4319.57
482.21 475.70 460.87 442.71 429.69 422.15 417.56 415.21 412.66 408.96 403.76 385.33 313.89 197.91 127.59 110.78 107.81 103.71 95.92 86.31 79.17 75.65 74.33 72.61 59.59 3.68 -89.91 -150.26 -167.54 -172.71 -177.33 -180.43 -181.86 -183.70 -185.02 -185.32 -187.68 -210.04 -304.11 -457.40 -551.68 -574.23 -576.37 -576.66 -576.70 -576.96 -577.40 -577.03 -576.06 -578.80 -619.97 -803.93 -1107.41 -1295.42 -1345.27 -1362.38 -1388.54 -1439.49 -1541.22 -1744.97 -2042.39 -2294.37 -2430.46 -2492.46 -2522.98 -2537.84 -2546.30 -2553.41 -2559.38 -2566.06 -2573.57 -2581.00 -2591.95 -2608.29 -2626.25 -2646.90 -2696.46 -2840.95 -3062.30 -3214.26 -3282.52 -3329.95 -3380.18 -3427.09 -3461.35 -3484.74 -3497.85 -3497.19 -3485.36 -3462.49 -3413.54 -3347.06 -3308.05 -3302.02 -3313.67 -3333.83 -3355.73 -3382.06 -3419.13 -3466.17 -3515.27 -3560.70 -3605.86 -3671.61 -3757.42 -3816.95 -3847.52 -3874.29 -3900.65 -3925.06 -3952.48 -3979.96 -4005.14 -4031.97 -4052.34 -3984.95 -3610.00 -2988.62 -2706.37 -3066.76 -3792.13 -4238.30 -4341.92 -4353.66 -4356.77 -4359.27 -4360.69 -4361.29 -4361.20 -4360.27 -4358.00 -4354.88 -4352.00 -4347.71 -4343.26 -4341.41
478.71 473.69 460.31 441.66 426.84 417.26 411.00 408.06 406.35 403.75 399.39 381.40 309.26 192.09 121.30 105.19 103.38 100.39 92.96 83.68 78.95 80.39 83.67 83.44 69.02 10.90 -83.61 -143.77 -160.69 -165.77 -170.45 -174.33 -177.58 -181.17 -183.34 -183.76 -185.32 -206.38 -299.87 -453.39 -548.12 -571.54 -574.78 -575.89 -576.59 -577.00 -577.26 -577.34 -577.05 -579.78 -620.49 -803.39 -1105.09 -1289.69 -1333.78 -1342.01 -1352.33 -1374.76 -1430.10 -1576.23 -1840.08 -2116.83 -2308.59 -2410.00 -2461.34 -2488.59 -2501.90 -2509.93 -2516.57 -2523.21 -2530.29 -2539.50 -2553.78 -2572.06 -2592.46 -2617.85 -2671.25 -2816.86 -3036.76 -3184.46 -3247.22 -3286.36 -3325.42 -3365.57 -3399.43 -3424.50 -3441.16 -3446.85 -3441.03 -3422.52 -3376.69 -3313.48 -3276.18 -3267.79 -3274.07 -3290.24 -3312.84 -3343.31 -3384.44 -3432.14 -3480.14 -3523.99 -3566.67 -3628.32 -3708.38 -3765.73 -3796.66 -3821.42 -3844.13 -3865.13 -3890.91 -3920.46 -3949.96 -3980.38 -4005.26 -3946.18 -3580.16 -2965.57 -2687.34 -3050.47 -3779.94 -4230.94 -4338.13 -4352.14 -4356.77 -4360.75 -4363.78 -4366.04 -4368.14 -4369.44 -4368.09 -4365.17 -4363.31 -4360.89 -4357.73 -4356.17
475.95 473.12 461.56 441.99 425.30 414.77 408.44 406.14 406.02 405.22 402.02 384.10 310.42 190.26 116.80 99.60 97.51 95.08 89.32 83.02 82.33 87.36 92.37 91.84 75.52 15.29 -79.91 -139.73 -156.94 -162.49 -166.72 -170.77 -175.92 -181.74 -184.99 -185.22 -185.77 -205.46 -297.97 -451.76 -546.78 -570.04 -573.65 -575.34 -576.28 -576.57 -577.08 -577.88 -577.75 -579.96 -620.30 -802.93 -1104.17 -1287.37 -1329.37 -1334.43 -1338.13 -1347.41 -1374.79 -1461.45 -1655.70 -1917.33 -2142.84 -2288.50 -2378.30 -2428.98 -2452.20 -2462.90 -2470.14 -2477.62 -2486.40 -2499.21 -2517.63 -2536.69 -2556.45 -2584.92 -2642.22 -2787.35 -3003.43 -3146.17 -3205.75 -3240.57 -3270.07 -3302.37 -3334.26 -3361.14 -3382.28 -3395.16 -3396.58 -3383.17 -3342.66 -3285.60 -3250.20 -3237.66 -3237.45 -3248.71 -3271.35 -3307.59 -3355.43 -3404.60 -3450.36 -3492.47 -3533.60 -3589.39 -3659.13 -3710.24 -3739.72 -3762.26 -3780.83 -3798.22 -3822.60 -3854.54 -3888.82 -3923.11 -3950.81 -3898.72 -3543.13 -2937.23 -2664.66 -3031.21 -3764.42 -4220.48 -4331.10 -4346.16 -4351.22 -4356.37 -4360.44 -4363.34 -4366.89 -4369.68 -4369.18 -4367.72 -4367.43 -4367.04 -4366.11 -4365.83
475.27 472.70 460.96 441.06 424.46 414.70 409.39 408.38 409.99 410.57 407.27 388.07 312.74 190.32 114.37 95.37 92.37 90.40 86.80 83.78 86.06 91.79 95.70 94.39 77.53 16.53 -78.59 -138.19 -156.92 -164.31 -168.86 -172.98 -178.92 -185.51 -188.79 -188.41 -188.43 -207.48 -299.22 -452.96 -547.64 -570.12 -573.62 -575.27 -575.98 -576.14 -576.68 -577.60 -577.45 -579.67 -620.03 -802.60 -1103.69 -1286.55 -1327.81 -1331.42 -1332.47 -1337.12 -1351.54 -1396.29 -1517.01 -1721.15 -1935.66 -2116.25 -2263.17 -2354.76 -2396.18 -2413.37 -2421.28 -2428.45 -2438.93 -2455.35 -2477.00 -2497.24 -2517.89 -2548.66 -2608.13 -2752.90 -2966.72 -3104.88 -3159.33 -3190.77 -3215.27 -3241.56 -3268.90 -3295.43 -3321.12 -3342.40 -3353.91 -3348.36 -3313.60 -3259.56 -3223.70 -3208.63 -3204.99 -3212.43 -3233.35 -3272.19 -3325.19 -3377.96 -3423.14 -3462.41 -3500.72 -3551.08 -3612.94 -3656.73 -3679.61 -3697.21 -3713.48 -3730.89 -3756.51 -3791.32 -3828.94 -3866.36 -3897.38 -3849.75 -3500.78 -2902.32 -2637.66 -3010.20 -3746.91 -4206.23 -4319.21 -4334.97 -4340.55 -4346.88 -4351.88 -4355.15 -4359.21 -4362.77 -4363.93 -4365.28 -4367.32 -4369.01 -4369.99 -4370.59
470.49 467.40 456.20 438.94 424.60 416.50 412.55 412.60 415.05 415.27 410.01 388.43 311.73 189.14 113.19 93.75 90.67 89.45 87.65 86.89 89.99 94.38 95.82 92.89 75.92 15.01 -79.89 -139.48 -159.65 -169.04 -174.82 -179.23 -184.59 -189.74 -191.47 -190.24 -190.58 -210.13 -301.60 -454.69 -548.82 -571.18 -574.62 -575.68 -576.00 -576.05 -576.23 -576.54 -576.40 -579.56 -620.54 -802.95 -1103.55 -1286.47 -1327.57 -1330.19 -1330.08 -1332.88 -1341.34 -1364.43 -1431.27 -1562.92 -1731.07 -1917.26 -2110.67 -2253.16 -2324.36 -2354.19 -2366.06 -2373.90 -2385.45 -2403.57 -2427.51 -2451.50 -2476.63 -2509.92 -2569.56 -2714.37 -2928.40 -3062.68 -3109.47 -3136.57 -3160.04 -3184.49 -3208.62 -3232.97 -3260.57 -3288.09 -3308.93 -3312.36 -3283.86 -3230.70 -3193.07 -3177.82 -3174.16 -3180.16 -3198.72 -3235.36 -3289.26 -3345.75 -3392.05 -3428.54 -3464.47 -3512.80 -3570.16 -3606.83 -3621.78 -3633.96 -3649.22 -3668.25 -3695.67 -3732.42 -3772.44 -3811.74 -3844.39 -3799.05 -3454.71 -2863.95 -2607.85 -2986.84 -3726.30 -4186.50 -4301.84 -4320.40 -4327.17 -4333.55 -4338.99 -4343.35 -4348.03 -4352.39 -4356.12 -4360.42 -4364.47 -4367.92 -4370.25 -4371.04
462.36 460.23 452.34 439.80 428.06 420.82 417.84 418.35 420.27 418.72 410.88 386.75 308.70 186.71 112.53 94.63 93.15 93.37 92.72 92.82 95.02 97.15 95.82 90.15 71.59 10.04 -85.12 -144.58 -164.41 -174.21 -181.22 -185.67 -189.12 -191.65 -191.29 -189.41 -190.67 -211.69 -303.90 -456.66 -550.53 -572.85 -575.54 -575.77 -575.64 -575.40 -575.69 -575.96 -575.63 -578.74 -619.80 -802.34 -1102.88 -1285.99 -1327.14 -1329.66 -1329.19 -1330.58 -1335.45 -1348.35 -1385.46 -1464.35 -1581.68 -1737.34 -1931.48 -2108.98 -2220.40 -2271.03 -2288.93 -2301.16 -2317.41 -2338.43 -2366.24 -2397.09 -2426.25 -2458.17 -2516.92 -2664.75 -2881.25 -3014.84 -3058.03 -3081.16 -3103.88 -3128.79 -3151.68 -3172.49 -3197.35 -3227.43 -3256.30 -3270.54 -3252.34 -3204.80 -3168.15 -3152.92 -3148.82 -3154.48 -3170.46 -3199.15 -3245.68 -3302.23 -3352.54 -3391.08 -3428.14 -3478.16 -3534.45 -3566.78 -3578.10 -3588.59 -3603.04 -3620.45 -3645.00 -3678.76 -3717.63 -3756.96 -3790.27 -3746.08 -3404.43 -2820.57 -2571.91 -2957.46 -3701.43 -4163.01 -4280.23 -4302.01 -4310.14 -4316.82 -4323.15 -4328.91 -4334.93 -4340.38 -4345.88 -4352.45 -4359.29 -4365.23 -4368.45 -4369.10
463.97 462.69 457.26 448.05 437.89 430.50 427.83 427.75 427.35 423.12 413.13 387.18 307.91 186.33 114.06 98.47 98.89 100.12 99.31 98.25 98.39 98.47 95.42 87.62 66.33 2.67 -93.49 -152.28 -170.22 -178.98 -185.81 -189.32 -190.33 -190.36 -188.93 -187.31 -189.66 -212.34 -306.11 -459.35 -553.11 -574.56 -575.35 -574.37 -574.15 -574.15 -574.75 -575.27 -575.13 -577.78 -618.42 -800.06 -1098.34 -1279.29 -1319.72 -1322.96 -1322.73 -1323.12 -1325.83 -1333.27 -1354.85 -1402.77 -1481.67 -1598.19 -1762.97 -1946.26 -2092.13 -2166.27 -2186.94 -2201.32 -2225.31 -2255.55 -2290.00 -2323.45 -2349.81 -2377.83 -2438.96 -2595.64 -2821.60 -2963.01 -3012.44 -3037.39 -3059.76 -3085.13 -3107.95 -3127.26 -3150.48 -3182.95 -3220.34 -3245.01 -3236.29 -3197.16 -3165.08 -3150.14 -3144.89 -3150.46 -3165.20 -3186.58 -3221.48 -3271.60 -3324.26 -3370.08 -3413.44 -3467.29 -3526.94 -3560.94 -3572.43 -3582.77 -3597.04 -3611.17 -3628.17 -3653.42 -3686.71 -3725.56 -3759.72 -3711.81 -3361.36 -2770.57 -2524.15 -2919.48 -3674.33 -4142.63 -4261.78 -4284.69 -4294.28 -4302.28 -4309.73 -4316.15 -4323.06 -4329.75 -4336.51 -4345.24 -4355.54 -4364.73 -4369.14 -4369.91
476.80 475.90 471.54 463.61 453.22 444.06 439.65 437.14 433.30 426.47 415.61 389.46 309.70 188.22 117.20 103.40 104.24 104.52 102.45 99.59 97.73 96.62 93.18 84.61 61.26 -4.67 -102.26 -161.12 -177.56 -183.75 -187.70 -188.90 -187.57 -185.80 -184.65 -184.81 -188.77 -212.60 -307.30 -460.95 -554.53 -575.16 -574.56 -572.30 -571.89 -572.44 -572.95 -573.39 -574.31 -577.83 -617.17 -791.42 -1076.97 -1249.25 -1287.08 -1290.37 -1290.58 -1290.81 -1292.46 -1296.54 -1309.20 -1342.40 -1404.41 -1501.40 -1650.06 -1837.04 -1996.77 -2076.82 -2096.09 -2110.85 -2142.57 -2186.50 -2228.42 -2255.00 -2270.54 -2296.45 -2363.39 -2532.06 -2773.75 -2930.86 -2997.04 -3035.37 -3065.09 -3092.78 -3116.86 -3138.33 -3163.64 -3199.71 -3245.12 -3277.95 -3276.86 -3248.97 -3226.99 -3216.11 -3211.07 -3215.41 -3229.26 -3249.16 -3277.50 -3319.71 -3370.29 -3421.06 -3471.52 -3535.28 -3609.21 -3652.70 -3666.26 -3675.92 -3690.15 -3703.74 -3716.26 -3734.38 -3760.86 -3795.52 -3825.47 -3765.32 -3380.53 -2741.18 -2472.65 -2876.00 -3649.82 -4132.55 -4257.56 -4283.07 -4295.10 -4303.85 -4311.37 -4317.82 -4324.96 -4332.61 -4340.68 -4350.97 -4363.42 -4375.77 -4382.67 -4384.26
499.17 499.33 495.79 485.91 471.04 456.57 447.75 441.93 434.90 425.62 414.38 389.56 310.99 189.80 119.12 105.93 106.08 104.50 101.03 96.82 93.33 91.12 87.32 78.72 55.84 -9.73 -107.95 -167.56 -182.67 -185.05 -185.03 -184.16 -181.58 -179.03 -179.08 -182.46 -188.93 -213.41 -307.90 -461.36 -554.61 -574.75 -573.72 -570.55 -569.34 -570.04 -570.88 -571.65 -573.30 -577.50 -614.33 -775.64 -1039.95 -1199.33 -1233.77 -1236.22 -1236.41 -1236.92 -1238.34 -1241.05 -1249.85 -1277.73 -1335.57 -1428.40 -1580.00 -1782.29 -1943.88 -2013.92 -2033.53 -2054.75 -2092.65 -2145.52 -2194.02 -2215.92 -2222.56 -2242.75 -2310.39 -2488.99 -2742.04 -2909.77 -2991.87 -3046.97 -3087.72 -3121.31 -3151.38 -3177.65 -3203.53 -3241.28 -3296.42 -3344.53 -3359.59 -3349.61 -3342.05 -3337.90 -3333.13 -3333.99 -3345.33 -3365.91 -3393.40 -3431.70 -3479.63 -3530.04 -3584.20 -3664.08 -3763.03 -3821.82 -3839.24 -3848.78 -3862.06 -3876.11 -3888.60 -3903.94 -3924.47 -3950.83 -3972.58 -3897.69 -3461.93 -2741.34 -2427.92 -2833.00 -3626.65 -4125.75 -4260.52 -4291.48 -4306.23 -4315.77 -4323.48 -4331.02 -4339.88 -4349.05 -4358.11 -4368.79 -4381.78 -4395.89 -4404.81 -4407.18
541.63 541.23 533.42 513.64 488.65 465.95 450.93 441.59 431.98 420.67 409.90 387.40 310.61 189.79 119.22 106.07 105.24 101.79 96.32 90.31 85.26 81.80 77.43 69.33 48.48 -14.86 -111.98 -170.15 -182.09 -180.68 -178.05 -176.68 -174.64 -173.07 -175.17 -181.53 -189.88 -214.35 -308.12 -461.09 -553.90 -573.47 -572.26 -569.11 -567.34 -567.68 -569.17 -570.67 -572.51 -576.39 -611.35 -764.92 -1016.53 -1168.54 -1201.49 -1203.47 -1203.32 -1203.86 -1205.65 -1209.10 -1218.16 -1243.60 -1296.65 -1384.58 -1535.21 -1735.54 -1878.35 -1933.91 -1959.56 -1988.53 -2023.94 -2071.41 -2120.76 -2146.77 -2154.29 -2169.58 -2234.66 -2416.50 -2673.71 -2842.75 -2928.06 -2988.79 -3031.03 -3065.35 -3101.52 -3138.12 -3171.88 -3216.31 -3284.32 -3353.49 -3388.55 -3394.70 -3397.45 -3397.67 -3392.87 -3390.78 -3399.33 -3419.69 -3448.90 -3487.74 -3535.42 -3584.20 -3637.27 -3726.56 -3843.27 -3913.58 -3934.70 -3944.80 -3957.28 -3971.65 -3985.39 -4000.12 -4016.69 -4036.33 -4051.49 -3967.15 -3499.48 -2727.03 -2384.50 -2788.91 -3591.68 -4101.00 -4244.58 -4280.41 -4297.61 -4309.83 -4319.29 -4328.90 -4340.57 -4352.51 -4363.59 -4374.90 -4387.75 -4401.54 -4410.23 -4412.48
614.01 607.52 583.80 542.95 503.15 471.68 449.75 436.25 425.60 415.56 407.49 387.06 310.68 189.51 118.95 105.49 103.31 97.64 89.10 80.16 72.79 67.76 63.31 56.52 38.20 -21.92 -115.52 -169.55 -177.50 -173.19 -169.74 -169.35 -169.46 -170.65 -174.91 -181.90 -189.89 -213.59 -306.22 -458.20 -550.87 -570.58 -569.78 -567.22 -565.41 -565.46 -566.95 -568.48 -570.35 -574.28 -609.07 -761.31 -1010.50 -1161.16 -1194.14 -1196.06 -1195.87 -1196.56 -1198.67 -1204.51 -1217.01 -1241.01 -1284.55 -1357.41 -1492.42 -1673.80 -1789.84 -1829.29 -1853.63 -1883.60 -1914.35 -1953.42 -2002.19 -2036.48 -2050.85 -2067.57 -2131.19 -2312.80 -2572.98 -2742.77 -2826.18 -2884.24 -2919.05 -2942.71 -2972.85 -3016.06 -3070.70 -3140.94 -3226.85 -3306.70 -3350.19 -3365.11 -3375.16 -3381.26 -3381.41 -3381.87 -3390.65 -3410.88 -3440.84 -3479.91 -3526.79 -3573.60 -3624.01 -3715.08 -3838.23 -3915.01 -3939.89 -3950.88 -3963.24 -3977.48 -3991.42 -4005.74 -4020.80 -4037.92 -4049.48 -3959.52 -3480.40 -2692.77 -2341.74 -2743.42 -3545.29 -4058.14 -4206.63 -4246.60 -4267.72 -4284.18 -4296.90 -4309.00 -4322.46 -4336.69 -4351.02 -4364.06 -4376.55 -4389.15 -4396.94 -4398.57
689.84 675.64 631.73 566.08 511.56 473.55 446.61 430.17 420.54 414.35 409.39 389.49 312.29 190.57 120.02 105.97 102.26 94.42 82.62 69.95 59.58 53.54 50.16 45.52 29.69 -27.01 -115.79 -165.33 -170.57 -164.78 -161.62 -163.44 -167.06 -171.62 -177.32 -183.23 -189.30 -211.66 -303.00 -453.70 -546.13 -566.82 -567.17 -564.80 -562.88 -563.08 -564.66 -566.13 -567.87 -571.95 -607.25 -759.90 -1009.57 -1160.49 -1193.07 -1194.29 -1194.26 -1195.63 -1198.32 -1207.01 -1224.24 -1247.77 -1279.13 -1329.37 -1439.32 -1597.79 -1693.47 -1719.36 -1736.76 -1765.70 -1800.53 -1842.70 -1890.51 -1928.27 -1951.78 -1976.32 -2037.61 -2211.31 -2466.26 -2637.22 -2721.81 -2773.63 -2797.86 -2807.11 -2818.99 -2849.96 -2916.29 -3018.78 -3129.80 -3215.69 -3263.16 -3291.38 -3317.12 -3338.79 -3353.05 -3361.78 -3372.42 -3391.30 -3420.24 -3458.88 -3503.38 -3547.36 -3597.35 -3688.91 -3812.22 -3891.56 -3920.32 -3933.22 -3946.20 -3961.15 -3975.89 -3989.95 -4004.06 -4019.85 -4029.20 -3935.72 -3452.01 -2658.96 -2303.12 -2701.02 -3499.48 -4010.85 -4160.41 -4204.13 -4230.07 -4250.80 -4266.71 -4280.09 -4293.71 -4308.32 -4323.94 -4338.34 -4352.23 -4366.17 -4374.97 -4376.63
730.72 712.67 656.28 574.08 510.79 470.99 443.53 427.42 419.38 415.30 411.20 390.83 313.69 193.11 123.17 108.11 102.70 93.16 79.28 64.13 52.05 46.13 44.48 42.20 28.09 -26.39 -111.65 -158.32 -162.40 -157.16 -156.17 -161.25 -168.00 -174.36 -180.17 -184.47 -188.18 -208.91 -299.61 -449.82 -541.84 -563.21 -564.37 -561.91 -559.72 -560.36 -563.21 -565.55 -567.08 -571.04 -606.74 -759.95 -1010.04 -1160.83 -1192.25 -1192.57 -1192.74 -1194.58 -1197.70 -1207.33 -1226.37 -1247.74 -1266.60 -1296.19 -1383.80 -1522.91 -1606.82 -1627.69 -1641.08 -1669.03 -1710.40 -1760.60 -1808.31 -1844.47 -1872.18 -1901.35 -1959.30 -2123.00 -2369.38 -2536.61 -2616.54 -2658.59 -2670.94 -2665.74 -2659.09 -2671.82 -2729.65 -2838.78 -2963.60 -3059.65 -3120.79 -3171.92 -3225.00 -3276.34 -3315.75 -3338.97 -3355.30 -3374.84 -3403.14 -3440.76 -3481.76 -3522.93 -3573.71 -3664.97 -3786.33 -3865.25 -3896.29 -3912.36 -3928.08 -3945.36 -3961.81 -3975.77 -3988.72 -4002.62 -4009.56 -3913.74 -3427.70 -2631.67 -2272.62 -2667.95 -3462.51 -3968.96 -4117.70 -4162.68 -4190.14 -4213.66 -4231.71 -4244.43 -4257.24 -4271.35 -4285.72 -4301.27 -4319.45 -4337.39 -4348.06 -4350.36
746.95 723.94 659.05 570.48 503.29 463.41 438.66 425.29 418.29 413.67 409.05 389.77 315.29 197.18 127.80 110.85 102.37 90.22 75.21 60.64 50.51 46.15 45.75 44.85 31.26 -22.36 -105.66 -150.90 -155.11 -151.85 -154.41 -162.91 -171.24 -177.00 -180.60 -182.00 -183.36 -203.30 -294.44 -445.14 -537.21 -558.91 -560.48 -558.55 -557.07 -558.87 -563.35 -566.53 -567.98 -572.25 -608.22 -761.42 -1011.08 -1161.17 -1191.51 -1191.04 -1191.29 -1193.25 -1196.08 -1204.21 -1220.62 -1237.26 -1247.04 -1264.86 -1341.18 -1471.25 -1550.71 -1570.66 -1581.98 -1606.79 -1646.83 -1697.02 -1743.77 -1778.42 -1805.16 -1831.46 -1885.21 -2045.59 -2289.84 -2449.35 -2515.75 -2545.75 -2549.25 -2538.28 -2527.25 -2532.59 -2575.56 -2661.20 -2763.57 -2855.14 -2932.91 -3010.33 -3096.77 -3186.84 -3259.18 -3305.16 -3335.81 -3361.93 -3391.45 -3426.72 -3462.83 -3501.07 -3551.55 -3641.36 -3762.34 -3842.55 -3875.48 -3894.48 -3913.28 -3933.25 -3952.26 -3967.09 -3978.80 -3989.70 -3993.27 -3894.54 -3405.24 -2606.00 -2244.42 -2638.53 -3430.98 -3933.66 -4080.92 -4122.64 -4145.69 -4169.15 -4190.25 -4205.26 -4219.77 -4235.23 -4249.80 -4266.54 -4287.23 -4307.36 -4318.75 -4321.49
756.37 729.11 657.97 565.29 494.21 453.93 432.62 421.83 415.64 410.84 406.74 390.70 319.91 202.56 131.61 112.01 99.68 84.04 68.40 56.84 51.67 50.85 51.43 50.02 36.29 -16.46 -98.90 -144.19 -149.67 -148.77 -154.11 -164.47 -173.05 -176.91 -176.46 -174.00 -173.99 -194.80 -287.14 -438.58 -530.94 -552.90 -555.50 -555.44 -555.94 -559.55 -565.31 -569.02 -570.51 -574.89 -610.36 -762.23 -1010.59 -1160.23 -1190.46 -1189.50 -1189.55 -1191.60 -1193.94 -1199.48 -1210.05 -1219.91 -1224.68 -1239.43 -1314.76 -1444.85 -1524.63 -1543.89 -1552.88 -1573.37 -1606.27 -1647.51 -1688.44 -1721.31 -1746.99 -1771.61 -1823.30 -1982.34 -2226.01 -2379.33 -2433.04 -2453.52 -2454.82 -2446.49 -2438.24 -2440.18 -2465.86 -2517.43 -2583.46 -2657.77 -2746.07 -2849.16 -2960.08 -3070.97 -3166.29 -3244.29 -3305.71 -3347.33 -3379.91 -3413.54 -3446.72 -3482.53 -3531.29 -3619.58 -3741.25 -3825.14 -3861.47 -3882.55 -3903.23 -3925.75 -3947.01 -3962.31 -3972.75 -3980.89 -3980.82 -3878.92 -3386.28 -2582.32 -2216.52 -2608.57 -3400.15 -3901.73 -4047.14 -4085.11 -4101.07 -4118.68 -4141.73 -4163.65 -4183.56 -4201.53 -4217.10 -4233.23 -4252.55 -4272.76 -4285.67 -4289.75
762.53 733.39 658.14 560.38 486.49 447.26 428.39 419.06 414.61 411.89 409.99 397.20 328.40 208.89 133.09 109.39 93.98 76.43 61.95 54.91 56.03 60.17 61.43 58.31 44.71 -6.80 -90.08 -137.86 -145.93 -147.32 -153.67 -163.10 -170.18 -171.94 -168.63 -164.34 -164.53 -186.57 -280.09 -432.25 -524.57 -546.26 -550.17 -552.50 -555.18 -560.10 -566.30 -570.55 -572.60 -576.90 -611.20 -761.19 -1008.30 -1157.83 -1188.70 -1188.23 -1188.42 -1190.85 -1192.88 -1195.71 -1200.31 -1204.22 -1207.04 -1223.61 -1302.31 -1434.89 -1516.07 -1534.94 -1541.61 -1557.38 -1582.40 -1613.38 -1647.01 -1677.63 -1702.57 -1727.55 -1778.88 -1935.13 -2176.40 -2326.34 -2371.89 -2385.29 -2385.44 -2380.04 -2374.68 -2373.63 -2383.08 -2408.63 -2453.45 -2518.25 -2607.10 -2710.56 -2811.97 -2913.27 -3021.46 -3143.62 -3254.88 -3323.56 -3364.31 -3400.06 -3433.31 -3467.99 -3516.23 -3604.76 -3726.75 -3813.32 -3853.54 -3876.71 -3898.86 -3923.13 -3944.48 -3958.77 -3968.43 -3975.37 -3972.74 -3868.33 -3373.19 -2564.61 -2192.34 -2578.19 -3365.89 -3865.14 -4008.82 -4048.27 -4063.58 -4076.05 -4097.11 -4122.87 -4146.80 -4165.50 -4179.95 -4194.30 -4212.33 -4233.37 -4248.47 -4253.83
769.12 738.31 659.55 558.64 484.77 446.16 427.40 419.66 418.63 419.44 419.81 408.00 338.45 215.35 133.29 104.19 86.81 70.72 60.65 59.19 66.10 74.14 74.92 69.89 56.73 6.65 -77.71 -128.93 -140.26 -143.49 -149.63 -157.30 -162.77 -163.38 -159.74 -156.42 -157.88 -180.85 -275.51 -428.60 -521.13 -542.49 -546.94 -550.46 -554.66 -560.38 -566.21 -570.63 -573.32 -577.20 -610.23 -759.06 -1005.62 -1154.93 -1186.40 -1187.21 -1188.14 -1190.98 -1192.94 -1194.43 -1196.14 -1197.30 -1199.60 -1218.04 -1298.89 -1432.32 -1513.72 -1532.45 -1537.73 -1549.41 -1567.66 -1589.56 -1615.03 -1640.75 -1662.65 -1686.90 -1738.32 -1892.51 -2131.84 -2280.75 -2322.69 -2331.58 -2331.35 -2329.52 -2327.50 -2324.26 -2323.53 -2334.54 -2368.53 -2428.04 -2505.86 -2583.42 -2653.54 -2736.68 -2857.91 -3022.22 -3180.49 -3280.30 -3338.74 -3385.32 -3421.85 -3455.59 -3505.26 -3598.06 -3722.41 -3809.48 -3851.62 -3877.45 -3901.10 -3925.11 -3944.36 -3956.98 -3966.02 -3972.32 -3968.43 -3862.43 -3365.37 -2553.53 -2174.97 -2553.14 -3334.07 -3825.71 -3963.33 -4004.73 -4025.64 -4039.02 -4056.75 -4080.62 -4104.41 -4122.07 -4136.38 -4152.93 -4173.98 -4196.78 -4211.44 -4215.80
787.39 756.01 676.83 576.54 502.92 462.32 441.91 436.15 439.66 444.35 445.77 432.13 359.75 233.29 146.57 113.17 94.78 81.92 78.05 83.13 94.21 102.64 101.22 93.90 79.98 28.08 -61.10 -117.23 -131.96 -136.73 -142.51 -149.11 -154.07 -155.04 -153.14 -153.00 -157.10 -181.29 -276.98 -430.47 -522.64 -543.36 -547.36 -551.13 -556.15 -561.92 -566.62 -570.85 -573.63 -576.38 -608.34 -756.27 -1001.76 -1150.35 -1182.58 -1184.92 -1186.53 -1188.98 -1190.69 -1192.12 -1193.23 -1193.65 -1195.59 -1214.64 -1296.57 -1430.33 -1511.25 -1529.64 -1533.50 -1540.54 -1551.52 -1565.03 -1582.35 -1601.20 -1617.99 -1639.99 -1692.69 -1847.64 -2086.04 -2234.16 -2274.97 -2282.64 -2283.98 -2285.62 -2286.43 -2283.23 -2278.33 -2279.98 -2300.87 -2345.98 -2402.10 -2452.91 -2504.93 -2582.90 -2716.04 -2903.55 -3088.09 -3214.54 -3297.66 -3362.17 -3406.33 -3440.51 -3491.64 -3591.50 -3723.15 -3811.98 -3855.43 -3885.21 -3910.61 -3932.23 -3947.76 -3958.20 -3966.01 -3971.61 -3967.59 -3861.45 -3363.63 -2549.69 -2166.85 -2539.21 -3312.84 -3794.94 -3922.65 -3958.69 -3980.34 -3995.31 -4011.83 -4033.93 -4056.81 -4075.10 -4091.94 -4112.09 -4136.45 -4160.24 -4174.14 -4177.96
929.30 901.50 826.13 724.37 647.86 606.27 587.33 585.81 594.07 600.76 601.04 584.12 510.26 386.56 302.26 269.22 251.12 239.79 239.81 250.84 265.19 271.93 267.16 257.02 234.46 145.57 -4.59 -98.31 -122.94 -130.33 -137.06 -143.41 -148.38 -150.72 -151.63 -155.25 -162.42 -187.50 -282.35 -434.06 -524.38 -543.51 -546.45 -550.33 -555.60 -560.38 -563.12 -565.99 -567.54 -568.88 -599.47 -742.78 -979.86 -1123.44 -1156.10 -1159.88 -1161.65 -1163.58 -1165.25 -1166.84 -1167.69 -1168.07 -1170.10 -1189.21 -1271.51 -1405.92 -1486.76 -1504.44 -1506.79 -1509.88 -1514.55 -1521.75 -1532.66 -1545.39 -1558.96 -1579.30 -1630.65 -1780.25 -2008.20 -2148.89 -2186.05 -2192.82 -2196.42 -2200.08 -2202.21 -2201.13 -2196.38 -2192.52 -2198.83 -2220.60 -2249.49 -2281.02 -2329.85 -2414.39 -2559.30 -2761.57 -2963.53 -3112.91 -3218.40 -3295.48 -3345.91 -3383.81 -3439.34 -3553.39 -3706.55 -3808.12 -3856.87 -3891.92 -3918.82 -3936.82 -3947.76 -3955.15 -3961.12 -3966.58 -3963.65 -3858.46 -3362.25 -2549.39 -2164.08 -2528.78 -3291.07 -3764.19 -3884.37 -3912.16 -3928.79 -3942.65 -3958.33 -3978.98 -4001.72 -4022.62 -4041.98 -4061.91 -4085.42 -4109.29 -4124.59 -4129.84
1552.50 1527.99 1454.52 1347.89 1267.43 1227.68 1214.76 1219.94 1231.20 1235.64 1231.15 1212.32 1151.00 1055.00 990.67 964.55 948.18 937.11 938.18 952.26 968.93 975.37 969.09 955.43 896.11 640.07 213.71 -48.05 -111.41 -124.08 -132.97 -140.51 -146.19 -149.95 -152.99 -158.24 -166.46 -190.56 -279.67 -423.15 -508.71 -526.36 -528.85 -532.48 -536.91 -540.03 -540.89 -541.22 -540.23 -539.96 -565.86 -688.28 -889.97 -1012.35 -1041.83 -1046.59 -1048.62 -1050.19 -1051.41 -1052.74 -1053.70 -1054.54 -1056.82 -1075.70 -1158.38 -1294.72 -1377.10 -1394.65 -1396.21 -1397.55 -1399.02 -1402.28 -1408.43 -1416.87 -1428.83 -1446.46 -1487.82 -1607.70 -1789.85 -1901.85 -1930.37 -1935.74 -1940.03 -1943.91 -1945.44 -1944.14 -1939.91 -1935.58 -1935.39 -1940.82 -1948.48 -1965.31 -2009.98 -2097.90 -2248.23 -2457.20 -2674.66 -2850.04 -2978.05 -3064.07 -3118.84 -3163.39 -3233.80 -3394.84 -3621.70 -3770.82 -3834.42 -3873.17 -3898.94 -3913.07 -3920.37 -3925.18 -3929.46 -3935.13 -3933.51 -3830.86 -3343.75 -2543.80 -2160.14 -2506.38 -3238.67 -3693.76 -3808.12 -3830.89 -3842.61 -3853.51 -3866.55 -3883.69 -3905.04 -3927.67 -3948.39 -3967.09 -3988.82 -4012.27 -4028.75 -4035.13
2590.04 2561.63 2483.93 2377.34 2295.98 2254.05 2243.04 2251.81 2263.13 2263.61 2253.05 2234.54 2200.47 2155.07 2123.65 2106.82 2092.77 2083.40 2085.56 2099.99 2117.00 2124.69 2120.17 2103.38 1983.84 1451.74 568.66 28.55 -99.08 -118.55 -128.60 -137.14 -143.56 -147.87 -150.89 -155.00 -161.95 -183.42 -263.27 -393.21 -472.17 -490.30 -494.46 -497.84 -500.32 -501.29 -500.71 -499.15 -495.92 -494.49 -513.13 -600.73 -744.31 -832.12 -854.60 -859.22 -861.56 -862.80 -863.39 -864.45 -865.77 -866.98 -868.76 -887.27 -971.79 -1111.94 -1196.66 -1214.26 -1215.30 -1216.23 -1216.99 -1218.30 -1221.09 -1226.17 -1235.37 -1248.43 -1274.56 -1345.90 -1453.14 -1520.93 -1540.33 -1544.98 -1547.01 -1547.47 -1545.63 -1541.30 -1536.88 -1535.30 -1536.74 -1538.96 -1541.42 -1554.97 -1593.71 -1672.24 -1810.02 -2001.01 -2205.90 -2389.63 -2544.70 -2657.78 -2732.21 -2794.10 -2895.65 -3136.74 -3482.92 -3707.36 -3792.19 -3832.35 -3854.56 -3865.60 -3871.37 -3875.01 -3877.82 -3882.49 -3881.09 -3782.13 -3310.25 -2533.44 -2155.60 -2475.67 -3163.26 -3590.82 -3697.24 -3716.40 -3724.62 -3732.36 -3742.68 -3756.21 -3773.32 -3793.75 -3815.06 -3835.29 -3858.08 -3881.87 -3896.80 -3901.68
3267.56 3233.31 3146.82 3035.89 2949.21 2895.79 2875.61 2881.05 2890.78 2888.77 2874.64 2856.74 2841.56 2829.10 2817.17 2803.61 2789.62 2781.09 2783.66 2797.16 2813.57 2822.97 2821.02 2803.29 2647.08 1946.69 785.62 75.38 -92.18 -115.00 -123.66 -130.54 -136.28 -140.50 -142.61 -144.97 -150.64 -170.84 -245.85 -368.10 -443.91 -464.52 -471.39 -475.00 -475.93 -475.15 -473.51 -471.07 -467.01 -465.34 -479.89 -546.81 -656.23 -724.01 -742.04 -745.91 -747.76 -748.58 -748.99 -749.73 -750.69 -751.71 -753.46 -772.13 -858.27 -1000.92 -1086.56 -1104.10 -1105.00 -1105.81 -1106.87 -1107.93 -1109.03 -1111.17 -1116.27 -1124.24 -1139.96 -1181.04 -1242.50 -1284.50 -1299.80 -1304.48 -1304.70 -1301.32 -1296.00 -1290.77 -1287.17 -1286.73 -1289.56 -1292.75 -1297.51 -1313.39 -1347.27 -1409.42 -1519.97 -1672.16 -1832.83 -1996.76 -2170.88 -2320.87 -2435.56 -2539.28 -2685.10 -2985.08 -3406.30 -3676.74 -3773.41 -3814.18 -3835.43 -3846.25 -3852.15 -3855.20 -3856.94 -3859.88 -3857.15 -3758.76 -3294.49 -2531.67 -2158.21 -2463.51 -3124.43 -3533.65 -3632.32 -3647.24 -3652.92 -3658.92 -3667.64 -3679.01 -3691.78 -3707.30 -3726.57 -3747.70 -3771.84 -3795.64 -3808.63 -3812.19
3524.15 3483.70 3380.21 3247.57 3143.81 3075.28 3043.30 3043.10 3050.12 3047.83 3033.81 3015.65 3003.52 2996.20 2985.77 2970.02 2953.45 2942.39 2943.26 2956.34 2973.72 2985.30 2985.10 2967.18 2801.56 2062.09 837.33 87.30 -89.40 -110.77 -115.83 -120.17 -125.40 -130.06 -132.10 -133.47 -138.53 -159.52 -235.29 -357.19 -433.62 -456.32 -464.47 -468.26 -468.21 -466.19 -464.33 -462.01 -457.71 -455.29 -468.58 -531.90 -635.55 -700.01 -716.97 -720.05 -720.69 -720.78 -721.21 -721.63 -722.06 -723.20 -725.72 -745.04 -831.69 -974.56 -1060.20 -1078.44 -1080.04 -1080.90 -1082.26 -1083.64 -1084.12 -1084.20 -1085.90 -1090.03 -1100.88 -1132.51 -1182.07 -1217.69 -1231.70 -1236.70 -1236.97 -1232.66 -1227.13 -1223.19 -1220.54 -1219.98 -1222.26 -1225.19 -1230.67 -1245.20 -1271.25 -1312.98 -1387.44 -1494.38 -1612.28 -1756.80 -1939.23 -2114.67 -2274.85 -2439.63 -2633.45 -2960.49 -3402.31 -3683.74 -3781.70 -3822.17 -3845.45 -3858.58 -3865.06 -3867.50 -3868.74 -3870.58 -3865.96 -3765.84 -3301.31 -2540.76 -2168.72 -2471.12 -3125.61 -3528.76 -3622.77 -3634.22 -3637.94 -3642.66 -3649.59 -3658.88 -3668.99 -3680.95 -3696.91 -3715.99 -3738.26 -3760.14 -3772.71 -3776.72
3654.24 3610.91 3492.62 3333.01 3208.86 3133.96 3103.25 3103.18 3105.02 3099.69 3085.66 3065.78 3046.20 3028.80 3012.21 2994.46 2976.65 2963.40 2961.59 2973.92 2993.37 3007.33 3008.80 2991.22 2823.44 2078.48 845.58 89.86 -87.19 -106.09 -108.05 -111.24 -117.52 -123.52 -126.36 -127.16 -131.22 -153.49 -231.93 -355.70 -433.63 -456.69 -463.81 -466.26 -464.41 -461.08 -459.46 -458.01 -453.92 -450.85 -463.71 -527.36 -631.63 -696.40 -712.90 -715.06 -714.62 -714.31 -714.86 -715.40 -716.20 -718.10 -721.50 -741.48 -828.25 -970.57 -1056.16 -1075.19 -1077.33 -1078.21 -1079.58 -1081.12 -1081.90 -1081.71 -1082.04 -1084.29 -1092.25 -1119.44 -1164.90 -1197.78 -1210.50 -1215.60 -1216.36 -1213.02 -1208.97 -1206.08 -1203.99 -1203.88 -1206.15 -1209.22 -1214.50 -1224.76 -1241.17 -1265.78 -1308.58 -1374.87 -1461.72 -1591.04 -1774.87 -1973.57 -2177.41 -2396.50 -2624.94 -2965.93 -3415.04 -3699.90 -3797.80 -3836.69 -3860.87 -3876.28 -3883.93 -3886.46 -3887.22 -3888.03 -3881.70 -3780.93 -3316.10 -2554.84 -2182.23 -2483.96 -3138.14 -3540.73 -3633.39 -3642.67 -3643.84 -3646.03 -3650.41 -3657.19 -3665.08 -3674.92 -3688.64 -3705.38 -3724.44 -3743.19 -3754.98 -3759.20
3712.63 3673.04 3555.34 3385.67 3253.58 3183.63 3164.55 3169.81 3165.74 3150.30 3129.51 3103.92 3073.31 3044.24 3022.98 3006.00 2989.58 2975.96 2970.79 2980.20 3000.41 3016.77 3020.66 3004.55 2836.12 2088.29 851.58 93.74 -83.12 -101.68 -103.54 -107.47 -115.87 -124.16 -128.28 -128.82 -132.21 -155.67 -236.02 -360.66 -438.78 -460.40 -464.81 -464.70 -460.71 -455.84 -453.40 -452.18 -449.25 -447.22 -460.72 -524.63 -629.08 -693.99 -710.16 -711.12 -709.33 -708.74 -709.65 -711.03 -713.14 -716.04 -720.13 -740.57 -827.37 -969.02 -1054.48 -1073.92 -1076.04 -1076.77 -1077.86 -1079.43 -1081.14 -1082.14 -1082.59 -1084.05 -1090.35 -1114.78 -1157.31 -1188.09 -1199.71 -1203.45 -1202.95 -1200.05 -1197.62 -1196.09 -1194.62 -1194.57 -1197.15 -1201.25 -1206.75 -1213.52 -1222.75 -1238.00 -1264.66 -1307.70 -1375.01 -1489.59 -1664.75 -1872.79 -2105.20 -2362.25 -2616.37 -2969.80 -3426.44 -3715.10 -3812.19 -3848.45 -3872.70 -3890.22 -3899.47 -3902.29 -3902.88 -3903.15 -3895.98 -3795.39 -3331.16 -2569.61 -2196.10 -2497.28 -3151.85 -3555.25 -3647.98 -3655.75 -3654.10 -3653.01 -3654.75 -3659.46 -3665.39 -3673.70 -3685.85 -3700.24 -3716.02 -3731.55 -3741.78 -3745.79
3698.32 3662.72 3561.13 3416.29 3301.32 3242.04 3230.85 3238.91 3231.59 3206.36 3172.92 3133.61 3091.85 3058.74 3038.75 3023.06 3005.63 2989.33 2981.23 2988.96 3009.25 3026.95 3033.35 3019.04 2849.91 2099.11 859.82 101.50 -76.09 -96.84 -101.45 -107.90 -119.02 -130.11 -135.85 -136.99 -141.26 -164.97 -244.25 -367.68 -444.57 -464.02 -465.61 -463.09 -457.37 -450.59 -446.04 -444.60 -443.79 -444.05 -458.86 -523.03 -627.32 -692.30 -708.31 -708.06 -704.83 -703.65 -704.85 -707.26 -710.72 -714.20 -718.30 -738.89 -826.19 -967.93 -1053.28 -1072.69 -1075.11 -1076.44 -1077.24 -1078.32 -1080.35 -1082.16 -1082.97 -1084.02 -1089.71 -1113.26 -1154.66 -1184.43 -1194.69 -1195.76 -1193.05 -1190.39 -1189.36 -1188.84 -1187.86 -1187.47 -1189.53 -1193.97 -1199.36 -1204.17 -1209.64 -1220.33 -1240.50 -1274.29 -1330.92 -1430.98 -1584.29 -1772.66 -2005.76 -2293.18 -2588.24 -2965.29 -3430.94 -3722.54 -3818.51 -3854.27 -3880.13 -3899.89 -3910.53 -3913.77 -3914.72 -3915.48 -3909.01 -3808.92 -3345.05 -2584.04 -2210.98 -2511.92 -3165.55 -3568.24 -3660.02 -3666.67 -3663.84 -3660.65 -3660.06 -3663.17 -3667.91 -3674.97 -3684.90 -3696.20 -3709.22 -3722.70 -3731.48 -3735.10
3645.31 3614.03 3534.41 3429.96 3347.93 3303.98 3293.98 3298.00 3290.17 3263.58 3219.59 3162.52 3110.35 3078.43 3061.08 3043.31 3020.44 2998.76 2990.31 3001.05 3022.41 3040.16 3047.82 3034.06 2862.76 2108.78 868.75 111.29 -67.43 -91.67 -100.43 -110.70 -125.20 -138.98 -146.55 -149.25 -154.61 -176.64 -252.45 -373.64 -449.24 -467.01 -466.44 -461.97 -454.83 -445.84 -438.68 -436.57 -437.61 -440.90 -457.98 -522.41 -625.95 -690.39 -705.51 -704.05 -700.30 -698.85 -699.99 -702.86 -706.84 -710.55 -714.81 -735.94 -824.13 -966.66 -1052.29 -1071.80 -1074.85 -1076.96 -1077.62 -1078.04 -1079.67 -1081.32 -1082.26 -1082.97 -1088.09 -1111.81 -1153.26 -1182.15 -1190.72 -1189.63 -1186.15 -1184.60 -1184.54 -1183.95 -1182.99 -1182.28 -1183.19 -1186.53 -1190.67 -1194.28 -1198.69 -1207.61 -1223.75 -1250.07 -1294.91 -1376.77 -1503.53 -1666.85 -1890.58 -2197.94 -2539.03 -2947.31 -3422.35 -3716.57 -3814.49 -3854.59 -3884.37 -3906.21 -3918.14 -3922.85 -3924.95 -3926.78 -3921.68 -3821.88 -3357.70 -2597.27 -2225.45 -2526.18 -3177.70 -3578.06 -3668.10 -3673.85 -3670.69 -3666.76 -3664.87 -3666.79 -3670.71 -3676.61 -3684.41 -3693.44 -3704.87 -3717.05 -3724.73 -3727.66
3595.89 3571.10 3509.53 3432.02 3376.25 3349.94 3342.22 3340.49 3331.85 3306.45 3258.75 3193.94 3136.39 3102.61 3081.29 3057.22 3029.31 3005.85 3001.41 3017.60 3039.56 3055.49 3061.56 3045.23 2870.04 2113.57 874.40 118.39 -60.67 -87.11 -99.13 -113.03 -131.04 -147.07 -156.41 -161.54 -167.29 -186.74 -259.44 -378.31 -452.36 -469.08 -467.35 -461.46 -452.82 -441.81 -432.43 -428.82 -430.23 -436.30 -456.05 -520.79 -623.26 -686.27 -699.87 -697.70 -694.50 -693.67 -694.72 -697.21 -700.92 -704.98 -709.85 -731.76 -820.45 -963.73 -1050.31 -1070.55 -1074.15 -1076.61 -1077.43 -1077.70 -1079.14 -1080.44 -1081.09 -1081.61 -1086.58 -1110.74 -1152.02 -1179.14 -1185.73 -1183.88 -1181.15 -1180.82 -1181.39 -1180.77 -1179.60 -1178.43 -1178.45 -1180.38 -1183.09 -1185.95 -1190.32 -1198.11 -1209.95 -1227.60 -1257.90 -1317.88 -1422.33 -1573.05 -1786.39 -2088.04 -2454.49 -2901.70 -3398.74 -3701.01 -3803.56 -3848.73 -3882.96 -3907.49 -3921.44 -3928.69 -3932.72 -3935.51 -3931.18 -3831.91 -3368.26 -2608.78 -2237.29 -2536.70 -3186.08 -3584.29 -3672.46 -3676.98 -3673.65 -3670.44 -3668.60 -3669.25 -3672.03 -3677.14 -3684.06 -3692.36 -3702.98 -3713.87 -3720.65 -3722.91
3564.24 3545.48 3493.56 3424.69 3380.81 3367.70 3365.79 3363.88 3355.52 3332.10 3288.72 3228.08 3167.73 3124.21 3090.88 3058.60 3030.34 3013.35 3017.08 3036.92 3055.92 3065.98 3066.92 3046.12 2867.70 2111.21 874.82 121.41 -56.30 -83.12 -97.00 -112.57 -131.77 -148.34 -159.34 -167.58 -174.25 -192.02 -262.78 -379.58 -451.79 -468.19 -466.70 -460.60 -451.07 -438.93 -428.35 -423.37 -424.41 -431.62 -452.46 -517.42 -619.37 -681.37 -694.51 -693.14 -690.69 -689.84 -690.48 -692.70 -696.17 -700.32 -705.48 -727.51 -815.77 -959.50 -1047.39 -1068.61 -1072.75 -1075.37 -1076.39 -1076.73 -1078.17 -1079.64 -1079.97 -1080.43 -1085.97 -1110.32 -1150.58 -1175.79 -1181.11 -1179.69 -1178.09 -1178.08 -1178.60 -1178.45 -1177.56 -1176.32 -1176.08 -1177.35 -1179.24 -1181.27 -1184.78 -1190.61 -1198.60 -1210.49 -1231.28 -1274.24 -1358.69 -1493.92 -1690.35 -1964.88 -2321.76 -2809.01 -3354.38 -3679.11 -3788.12 -3836.30 -3873.69 -3901.78 -3919.43 -3929.65 -3935.51 -3939.14 -3935.51 -3837.76 -3375.75 -2617.06 -2244.46 -2541.96 -3190.45 -3588.02 -3675.04 -3678.83 -3675.82 -3673.84 -3672.29 -3671.34 -3672.69 -3677.12 -3683.59 -3691.97 -3702.64 -3713.02 -3719.39 -3721.42
3532.44 3515.80 3466.62 3399.47 3359.85 3353.64 3357.87 3360.76 3357.80 3343.10 3310.46 3255.80 3190.86 3135.20 3090.27 3052.64 3028.01 3021.58 3033.03 3051.11 3062.29 3063.33 3056.92 3031.42 2851.91 2098.79 868.44 120.33 -54.10 -80.81 -96.33 -111.40 -127.70 -142.06 -154.24 -165.71 -174.16 -190.76 -259.49 -374.47 -445.23 -462.13 -462.90 -458.56 -449.48 -437.49 -427.35 -422.78 -423.68 -430.05 -449.86 -514.75 -617.13 -679.75 -694.17 -694.35 -691.96 -689.55 -689.02 -691.19 -694.71 -698.43 -702.92 -724.01 -811.44 -955.14 -1043.83 -1065.73 -1070.28 -1072.98 -1074.34 -1075.31 -1077.16 -1078.94 -1078.98 -1079.18 -1085.35 -1109.76 -1148.59 -1172.28 -1177.40 -1177.10 -1176.39 -1176.20 -1176.46 -1176.88 -1176.60 -1175.80 -1175.72 -1176.79 -1178.20 -1179.56 -1181.77 -1185.31 -1190.23 -1198.73 -1214.67 -1245.81 -1310.17 -1425.60 -1601.18 -1839.58 -2165.76 -2674.28 -3276.46 -3641.57 -3764.96 -3817.69 -3857.89 -3889.61 -3911.84 -3925.52 -3933.51 -3938.51 -3935.60 -3838.88 -3377.91 -2619.05 -2245.41 -2542.77 -3192.10 -3590.10 -3677.16 -3681.35 -3678.85 -3677.10 -3675.25 -3673.28 -3673.60 -3677.39 -3683.62 -3692.26 -3702.90 -3713.11 -3719.41 -3721.31
3400.27 3381.60 3331.71 3266.71 3225.72 3218.81 3228.59 3239.95 3247.29 3245.92 3225.54 3177.92 3121.40 3078.83 3042.02 3008.02 2988.75 2989.00 3000.68 3009.80 3010.33 3002.92 2989.28 2959.24 2782.15 2045.16 840.93 110.51 -57.87 -83.95 -99.46 -111.46 -122.89 -134.78 -147.49 -160.81 -170.85 -186.65 -252.82 -365.39 -434.49 -452.18 -456.14 -454.88 -448.43 -439.26 -432.02 -429.53 -430.55 -434.78 -451.55 -514.55 -616.30 -679.82 -696.48 -698.26 -695.35 -690.76 -688.51 -690.01 -693.32 -696.67 -700.36 -720.14 -806.23 -948.86 -1037.21 -1059.02 -1063.42 -1066.15 -1067.83 -1069.49 -1071.80 -1073.46 -1073.30 -1073.60 -1080.41 -1105.78 -1145.28 -1169.06 -1174.44 -1174.82 -1174.53 -1174.59 -1175.36 -1176.36 -1176.38 -1175.82 -1175.68 -1176.30 -1178.20 -1181.11 -1183.49 -1185.68 -1188.63 -1194.21 -1205.61 -1227.54 -1274.54 -1367.00 -1512.63 -1715.01 -2018.18 -2530.48 -3168.33 -3574.96 -3721.53 -3783.58 -3829.35 -3865.87 -3893.27 -3911.62 -3922.54 -3929.41 -3927.21 -3830.47 -3370.88 -2614.11 -2241.46 -2539.77 -3189.83 -3588.07 -3675.81 -3681.27 -3679.36 -3677.35 -3675.35 -3673.48 -3673.54 -3676.95 -3683.26 -3692.08 -3701.97 -3711.62 -3718.15 -3720.12
2875.47 2857.02 2807.02 2739.24 2691.56 2682.24 2699.93 2723.43 2742.04 2751.10 2741.00 2713.82 2722.60 2780.75 2805.39 2789.71 2774.31 2770.08 2769.33 2763.52 2754.10 2741.37 2723.56 2691.81 2528.52 1854.10 752.11 85.14 -68.03 -92.42 -106.13 -114.70 -122.75 -133.29 -145.36 -157.76 -167.62 -182.60 -246.58 -357.38 -425.47 -443.37 -449.08 -450.60 -448.28 -444.91 -442.85 -442.77 -444.03 -446.25 -459.29 -516.96 -612.95 -674.60 -692.55 -694.98 -691.51 -686.06 -682.68 -682.94 -685.44 -688.47 -692.00 -710.66 -793.45 -931.73 -1017.32 -1037.96 -1041.76 -1044.61 -1046.50 -1047.94 -1049.68 -1050.82 -1050.94 -1051.93 -1059.89 -1089.80 -1136.93 -1165.17 -1171.58 -1171.93 -1171.53 -1172.12 -1173.54 -1174.41 -1174.18 -1173.82 -1173.87 -1174.93 -1181.67 -1193.40 -1200.66 -1203.25 -1205.27 -1208.74 -1216.40 -1231.99 -1264.19 -1329.14 -1439.70 -1612.15 -1900.30 -2407.72 -3052.57 -3476.81 -3640.80 -3714.80 -3768.44 -3810.38 -3843.26 -3867.92 -3883.58 -3892.73 -3891.13 -3795.03 -3342.47 -2598.50 -2233.08 -2531.73 -3179.70 -3576.94 -3665.76 -3673.14 -3672.40 -3670.81 -3669.40 -3668.40 -3668.91 -3672.23 -3678.38 -3686.98 -3696.86 -3706.85 -3713.45 -3715.14
2015.19 1998.09 1947.76 1876.18 1828.64 1826.15 1854.28 1887.62 1912.35 1925.91 1925.31 1934.38 2059.71 2292.67 2419.20 2426.39 2407.66 2387.88 2366.26 2345.33 2329.31 2313.57 2294.39 2265.08 2125.80 1551.98 615.07 49.21 -80.94 -103.02 -115.68 -123.39 -130.90 -140.62 -150.22 -158.42 -164.54 -177.86 -241.87 -353.22 -421.25 -438.49 -444.14 -447.24 -448.84 -451.44 -454.79 -457.55 -459.60 -460.73 -470.83 -521.39 -607.50 -664.19 -681.73 -683.95 -680.59 -675.72 -672.12 -671.32 -672.71 -675.53 -679.43 -697.18 -775.22 -906.04 -986.68 -1005.47 -1008.60 -1011.47 -1013.43 -1013.80 -1014.25 -1015.25 -1015.90 -1017.23 -1026.54 -1063.52 -1123.02 -1159.14 -1167.66 -1168.42 -1168.44 -1169.25 -1170.26 -1170.43 -1169.93 -1169.78 -1170.23 -1173.34 -1188.98 -1215.05 -1230.74 -1235.01 -1236.82 -1239.20 -1244.43 -1255.72 -1278.28 -1323.51 -1406.28 -1552.90 -1822.87 -2315.82 -2944.01 -3359.13 -3527.28 -3614.24 -3679.97 -3728.07 -3764.60 -3794.65 -3816.35 -3829.16 -3829.11 -3735.58 -3295.70 -2573.45 -2220.57 -2519.47 -3163.59 -3559.15 -3649.38 -3658.73 -3659.61 -3659.21 -3658.70 -3658.83 -3660.02 -3663.08 -3668.89 -3677.67 -3689.02 -3700.27 -3706.34 -3707.25
1478.45 1458.24 1404.56 1334.92 1296.12 1305.17 1340.94 1377.15 1401.72 1416.00 1424.29 1466.04 1676.43 2026.17 2215.45 2228.89 2198.63 2160.54 2120.91 2091.59 2073.38 2055.89 2036.74 2010.50 1884.70 1368.33 527.66 20.16 -96.59 -116.25 -128.41 -136.96 -145.12 -153.43 -158.57 -160.27 -160.44 -171.47 -236.53 -349.01 -416.90 -433.76 -439.56 -443.78 -448.48 -455.65 -463.37 -469.03 -471.73 -472.08 -480.82 -527.62 -607.22 -659.20 -675.19 -677.74 -675.54 -671.69 -668.27 -667.01 -667.92 -670.79 -675.25 -692.93 -768.08 -893.60 -970.65 -988.11 -990.31 -992.41 -994.31 -994.12 -993.82 -994.83 -995.43 -996.20 -1005.99 -1047.11 -1113.97 -1155.22 -1165.15 -1166.43 -1167.22 -1167.99 -1168.31 -1168.14 -1167.55 -1167.04 -1167.54 -1172.54 -1193.84 -1228.09 -1248.59 -1253.90 -1255.52 -1257.33 -1260.97 -1269.17 -1288.24 -1327.45 -1395.60 -1520.88 -1770.78 -2241.51 -2839.05 -3236.76 -3409.30 -3513.24 -3599.28 -3660.24 -3702.50 -3736.89 -3763.16 -3779.90 -3782.99 -3692.82 -3261.70 -2553.72 -2209.47 -2509.09 -3151.34 -3546.48 -3638.04 -3648.57 -3650.78 -3651.84 -3652.44 -3653.57 -3655.28 -3658.51 -3665.07 -3674.59 -3686.35 -3697.78 -3703.63 -3704.51
1331.32 1310.76 1256.62 1188.27 1154.93 1170.72 1208.74 1243.44 1266.44 1281.70 1296.95 1357.36 1602.94 1992.60 2201.42 2213.17 2172.03 2121.62 2075.03 2044.53 2024.29 2004.31 1985.35 1959.91 1834.14 1324.78 499.43 1.11 -112.91 -130.22 -140.89 -149.69 -157.47 -162.73 -162.77 -158.46 -153.70 -162.89 -228.36 -341.34 -409.56 -426.72 -433.47 -440.09 -448.22 -458.65 -469.28 -476.68 -479.23 -479.10 -488.13 -534.85 -612.43 -660.93 -674.44 -677.08 -676.42 -674.38 -672.08 -670.63 -671.03 -673.45 -678.11 -696.72 -771.47 -894.60 -969.57 -986.14 -987.61 -988.97 -991.15 -991.68 -991.45 -991.93 -991.90 -991.95 -1001.51 -1043.68 -1112.40 -1154.99 -1164.94 -1165.61 -1166.15 -1167.17 -1167.65 -1167.42 -1166.84 -1166.22 -1166.57 -1172.05 -1194.85 -1230.94 -1252.39 -1257.74 -1258.88 -1260.27 -1262.81 -1268.44 -1285.50 -1322.87 -1384.78 -1494.12 -1714.04 -2146.53 -2718.02 -3116.00 -3300.95 -3419.56 -3525.72 -3604.76 -3657.77 -3699.22 -3730.25 -3750.62 -3757.30 -3670.76 -3244.38 -2542.27 -2201.72 -2502.42 -3145.06 -3541.14 -3633.93 -3645.50 -3649.08 -3651.32 -3652.41 -3654.14 -3657.07 -3661.72 -3669.34 -3678.98 -3689.42 -3699.93 -3706.42 -3708.27
1282.44 1265.51 1214.77 1145.84 1111.18 1124.68 1159.41 1192.74 1218.23 1237.41 1257.37 1325.16 1580.96 1981.98 2201.29 2221.39 2185.36 2137.52 2093.03 2059.55 2030.70 2004.08 1983.23 1957.79 1830.90 1318.29 489.08 -11.07 -123.95 -138.19 -146.33 -155.05 -162.69 -164.76 -159.52 -150.54 -143.11 -151.90 -218.37 -332.76 -402.44 -420.42 -428.77 -438.73 -449.89 -462.15 -474.27 -481.64 -482.99 -482.36 -492.42 -540.25 -617.65 -663.90 -674.52 -675.96 -676.32 -676.65 -676.51 -675.54 -675.21 -676.30 -679.90 -698.76 -774.18 -896.95 -970.93 -987.19 -989.02 -990.30 -992.20 -993.13 -993.41 -993.77 -993.36 -992.97 -1002.09 -1044.42 -1113.56 -1155.95 -1165.39 -1165.14 -1164.78 -1165.81 -1166.63 -1166.42 -1166.04 -1165.86 -1166.38 -1171.80 -1194.97 -1231.79 -1253.67 -1258.95 -1259.54 -1260.16 -1261.60 -1264.84 -1278.32 -1310.50 -1364.50 -1455.31 -1638.05 -2033.33 -2598.28 -3016.02 -3216.03 -3341.57 -3454.27 -3542.50 -3606.06 -3657.25 -3696.08 -3723.17 -3734.78 -3652.33 -3231.10 -2533.34 -2194.99 -2497.22 -3141.44 -3539.06 -3633.03 -3645.92 -3651.17 -3654.58 -3655.96 -3658.27 -3662.79 -3669.09 -3676.94 -3685.73 -3695.26 -3705.69 -3713.23 -3716.38
1256.41 1239.44 1189.63 1123.23 1084.99 1085.56 1108.68 1139.01 1167.97 1190.13 1209.17 1274.14 1527.78 1930.70 2160.98 2202.40 2190.58 2159.52 2120.24 2079.27 2038.25 2003.47 1978.82 1952.71 1827.08 1315.41 485.69 -14.71 -126.12 -137.14 -142.97 -152.52 -160.98 -160.55 -150.98 -139.24 -131.39 -141.09 -210.09 -328.13 -400.19 -419.05 -429.12 -442.06 -455.12 -467.62 -478.68 -483.92 -483.11 -481.36 -491.98 -541.01 -619.04 -664.38 -672.77 -672.44 -673.37 -675.95 -678.20 -678.36 -677.59 -677.21 -679.17 -697.22 -773.27 -897.06 -971.72 -988.82 -991.53 -992.69 -993.22 -993.38 -994.05 -995.00 -995.03 -994.96 -1003.67 -1045.30 -1114.19 -1156.13 -1165.29 -1165.12 -1164.55 -1165.19 -1165.85 -1165.74 -1165.35 -1165.23 -1165.87 -1171.41 -1194.84 -1232.38 -1254.78 -1260.14 -1260.57 -1260.61 -1261.43 -1263.18 -1271.86 -1295.64 -1339.05 -1413.35 -1578.47 -1966.85 -2530.63 -2953.33 -3162.03 -3291.03 -3395.64 -3478.01 -3546.21 -3605.14 -3652.97 -3690.80 -3710.23 -3633.64 -3218.56 -2524.96 -2189.17 -2493.71 -3139.99 -3539.07 -3633.68 -3647.37 -3653.72 -3658.36 -3660.99 -3664.31 -3669.81 -3677.12 -3685.03 -3692.93 -3702.30 -3713.74 -3722.75 -3727.06
1263.15 1243.42 1191.44 1126.18 1081.61 1063.42 1068.34 1089.66 1114.78 1132.73 1144.69 1201.50 1449.42 1854.31 2099.07 2166.13 2182.22 2170.19 2136.14 2090.59 2043.28 2004.30 1976.16 1948.03 1823.33 1315.42 489.59 -8.56 -118.76 -129.45 -136.27 -147.14 -154.78 -151.81 -140.46 -128.71 -122.25 -134.27 -207.44 -330.77 -406.16 -426.12 -436.57 -449.38 -461.74 -473.07 -481.63 -483.99 -480.86 -477.48 -487.31 -536.33 -614.71 -660.04 -667.61 -666.49 -668.18 -672.78 -676.89 -678.24 -677.85 -676.97 -677.96 -695.36 -771.80 -896.75 -972.59 -990.42 -993.35 -994.16 -993.37 -992.09 -992.55 -994.24 -994.94 -995.46 -1004.44 -1045.69 -1114.09 -1155.72 -1164.93 -1165.40 -1165.31 -1165.87 -1166.36 -1166.07 -1165.31 -1164.96 -1165.24 -1170.70 -1194.09 -1231.88 -1254.80 -1260.58 -1261.12 -1261.15 -1262.40 -1264.58 -1271.57 -1290.32 -1326.52 -1391.03 -1548.38 -1932.96 -2488.13 -2906.70 -3120.98 -3249.26 -3341.88 -3415.44 -3482.80 -3546.06 -3604.47 -3655.24 -3685.81 -3618.97 -3210.13 -2518.98 -2185.59 -2493.14 -3142.15 -3542.32 -3636.67 -3650.20 -3656.47 -3661.81 -3666.18 -3670.89 -3677.18 -3685.09 -3693.54 -3701.63 -3710.95 -3722.79 -3732.47 -3736.68
1290.46 1268.81 1214.80 1147.34 1094.42 1059.42 1046.77 1055.94 1072.06 1082.61 1087.34 1136.94 1380.27 1788.08 2045.49 2129.95 2163.98 2165.67 2137.99 2095.17 2049.09 2008.43 1978.26 1949.85 1826.23 1321.37 499.19 2.64 -108.57 -122.73 -132.55 -142.07 -145.59 -140.45 -130.22 -121.16 -117.83 -134.08 -212.63 -341.18 -419.52 -439.97 -448.63 -457.78 -467.32 -476.65 -482.22 -481.72 -477.01 -472.67 -480.79 -527.65 -605.29 -651.42 -659.83 -659.27 -661.74 -667.65 -672.97 -675.52 -676.33 -676.35 -677.81 -695.45 -772.20 -897.72 -974.04 -991.56 -993.72 -993.90 -992.42 -990.21 -990.33 -992.72 -994.06 -994.77 -1004.21 -1045.93 -1114.46 -1155.80 -1164.64 -1165.22 -1165.45 -1166.31 -1167.07 -1166.57 -1165.84 -1165.93 -1166.10 -1171.02 -1193.58 -1230.81 -1253.78 -1259.93 -1260.86 -1261.14 -1263.17 -1267.44 -1277.31 -1297.89 -1332.97 -1389.43 -1527.71 -1888.51 -2427.97 -2842.42 -3058.75 -3184.95 -3274.15 -3347.13 -3416.16 -3485.90 -3556.36 -3619.30 -3662.51 -3608.81 -3206.89 -2517.56 -2185.87 -2495.47 -3146.27 -3546.83 -3640.93 -3654.39 -3660.51 -3666.52 -3672.68 -3678.73 -3685.71 -3693.61 -3701.80 -3710.24 -3720.03 -3732.22 -3741.96 -3745.47
1308.18 1288.54 1236.46 1165.76 1105.71 1061.50 1037.38 1035.61 1044.54 1052.82 1056.10 1101.51 1340.01 1747.46 2010.55 2101.36 2142.37 2153.06 2133.53 2097.70 2055.62 2013.45 1982.12 1955.52 1834.48 1331.48 509.49 10.76 -104.13 -121.69 -131.56 -136.13 -134.06 -127.26 -119.52 -115.16 -116.95 -138.63 -222.30 -354.72 -434.68 -454.49 -460.61 -466.47 -473.32 -479.49 -480.76 -477.11 -471.88 -467.85 -474.68 -519.12 -595.67 -642.67 -652.40 -652.36 -654.52 -660.68 -667.09 -671.35 -674.26 -676.28 -678.75 -696.39 -772.89 -898.41 -974.84 -991.92 -993.04 -992.57 -991.10 -989.10 -989.37 -992.06 -993.69 -994.29 -1003.67 -1045.71 -1114.35 -1155.31 -1163.98 -1164.67 -1164.73 -1165.54 -1166.77 -1166.68 -1166.51 -1167.17 -1167.67 -1172.12 -1193.86 -1230.69 -1253.56 -1259.41 -1260.27 -1260.47 -1263.03 -1269.48 -1282.84 -1306.07 -1339.44 -1387.13 -1509.26 -1850.92 -2373.30 -2773.84 -2983.29 -3104.74 -3193.91 -3271.37 -3346.35 -3423.72 -3504.49 -3580.51 -3637.35 -3596.24 -3202.41 -2517.84 -2189.17 -2499.38 -3149.49 -3549.18 -3643.12 -3657.29 -3664.36 -3671.33 -3678.52 -3685.34 -3692.98 -3700.74 -3707.94 -3716.51 -3727.86 -3741.54 -3751.80 -3755.24
1311.29 1294.07 1243.10 1168.82 1106.00 1060.30 1030.19 1019.70 1024.32 1034.41 1041.39 1086.77 1320.99 1724.68 1987.48 2077.98 2119.39 2135.91 2124.68 2094.81 2055.29 2013.71 1983.66 1958.73 1839.87 1338.30 514.75 11.44 -107.23 -123.78 -128.15 -126.36 -120.79 -114.24 -109.47 -110.18 -117.77 -144.15 -231.05 -365.49 -446.79 -466.59 -471.13 -475.00 -479.05 -480.53 -476.54 -470.06 -465.17 -462.19 -468.42 -511.56 -587.61 -635.30 -646.63 -647.83 -649.95 -655.48 -662.04 -667.89 -673.21 -677.14 -679.81 -696.39 -771.99 -897.23 -973.57 -990.63 -991.61 -991.08 -990.19 -988.97 -989.31 -991.58 -993.07 -993.77 -1003.01 -1044.88 -1112.99 -1153.77 -1163.45 -1165.08 -1165.03 -1165.25 -1166.24 -1166.37 -1166.39 -1167.14 -1168.29 -1172.88 -1194.26 -1231.12 -1254.02 -1259.38 -1259.85 -1259.97 -1263.00 -1269.91 -1282.45 -1303.25 -1330.98 -1370.95 -1489.66 -1832.07 -2348.91 -2734.56 -2929.42 -3038.15 -3118.24 -3194.86 -3273.29 -3355.80 -3446.96 -3538.41 -3607.83 -3574.62 -3189.46 -2515.12 -2192.60 -2503.12 -3151.27 -3549.66 -3643.05 -3657.36 -3665.08 -3672.51 -3680.02 -3687.82 -3696.39 -3704.55 -3712.01 -3721.60 -3734.80 -3749.68 -3759.90 -3763.17
1319.34 1299.46 1244.40 1167.84 1104.00 1058.31 1026.63 1012.35 1014.81 1025.59 1035.73 1082.88 1314.97 1715.75 1977.30 2065.15 2103.27 2122.23 2117.03 2090.05 2052.54 2015.99 1989.88 1965.27 1845.43 1343.11 518.47 13.16 -105.28 -116.77 -113.95 -107.57 -101.75 -97.74 -96.23 -101.25 -114.03 -144.23 -233.01 -368.74 -451.44 -471.67 -475.57 -478.12 -479.03 -476.05 -468.45 -460.23 -455.31 -453.31 -460.55 -504.80 -581.52 -629.64 -642.24 -645.39 -649.04 -654.39 -660.21 -666.42 -672.53 -676.60 -678.72 -694.27 -768.50 -892.50 -968.34 -986.03 -988.23 -988.47 -988.02 -987.16 -987.12 -988.34 -989.27 -990.32 -999.98 -1041.79 -1109.75 -1151.22 -1161.77 -1163.63 -1163.75 -1163.85 -1164.23 -1164.04 -1163.86 -1164.19 -1165.33 -1170.34 -1192.51 -1230.36 -1253.65 -1258.90 -1259.34 -1259.44 -1262.18 -1267.38 -1275.70 -1290.97 -1313.63 -1350.46 -1468.20 -1809.96 -2323.22 -2700.40 -2884.63 -2986.20 -3059.23 -3129.30 -3206.20 -3293.93 -3395.80 -3500.67 -3578.86 -3547.53 -3169.59 -2508.73 -2193.82 -2504.71 -3150.86 -3547.97 -3640.83 -3654.64 -3661.99 -3669.35 -3677.43 -3686.76 -3696.38 -3705.25 -3714.01 -3724.61 -3738.16 -3752.83 -3762.74 -3765.88
1426.01 1402.03 1342.44 1264.03 1196.94 1149.03 1119.32 1107.77 1110.99 1119.96 1128.31 1173.95 1398.26 1785.92 2040.24 2125.82 2161.70 2180.45 2177.91 2154.29 2121.24 2090.61 2067.61 2042.28 1919.05 1413.03 587.03 83.20 -31.82 -38.80 -31.83 -23.63 -18.74 -17.59 -19.90 -28.43 -44.03 -78.13 -178.81 -334.25 -429.39 -452.92 -457.61 -460.23 -459.71 -454.41 -445.17 -435.68 -429.62 -428.04 -438.15 -486.44 -565.87 -614.82 -627.55 -631.26 -636.17 -641.96 -647.43 -652.68 -657.06 -659.30 -660.19 -674.80 -746.78 -867.71 -942.64 -961.79 -965.78 -966.68 -965.73 -964.14 -963.29 -963.33 -963.46 -964.89 -975.58 -1017.45 -1084.66 -1126.07 -1136.39 -1137.56 -1137.59 -1137.72 -1137.97 -1138.04 -1137.82 -1137.44 -1138.20 -1144.81 -1173.15 -1219.99 -1248.27 -1254.63 -1255.56 -1255.65 -1256.91 -1259.23 -1263.63 -1274.09 -1293.99 -1331.67 -1443.15 -1764.20 -2261.08 -2639.16 -2828.52 -2933.41 -3007.46 -3072.04 -3147.26 -3243.54 -3355.48 -3469.74 -3552.08 -3519.26 -3145.28 -2495.09 -2186.57 -2498.09 -3143.29 -3540.70 -3634.54 -3648.51 -3655.46 -3663.37 -3673.33 -3684.49 -3694.61 -3703.50 -3713.15 -3724.21 -3737.08 -3750.94 -3760.95 -3764.53
1903.52 1877.88 1816.95 1738.99 1672.24 1624.75 1597.69 1589.36 1593.49 1599.13 1602.79 1639.21 1825.05 2148.25 2364.53 2443.02 2478.16 2496.18 2495.18 2477.38 2452.00 2426.33 2404.75 2378.14 2250.97 1739.41 909.42 405.68 292.22 286.41 294.81 303.64 307.58 306.58 300.79 289.74 273.85 229.24 71.28 -180.83 -335.35 -373.32 -380.31 -383.99 -384.08 -378.68 -368.94 -358.23 -350.11 -347.98 -360.43 -412.51 -495.37 -546.09 -558.92 -562.03 -566.65 -572.36 -577.39 -580.38 -581.25 -581.19 -581.38 -595.27 -662.04 -773.42 -843.07 -861.95 -866.45 -867.14 -865.20 -862.11 -859.67 -858.42 -858.27 -860.84 -872.30 -911.23 -972.21 -1009.66 -1019.07 -1020.35 -1020.52 -1020.24 -1020.08 -1020.24 -1020.06 -1019.58 -1020.89 -1033.38 -1086.71 -1173.77 -1225.86 -1237.34 -1238.80 -1239.11 -1239.31 -1239.61 -1241.97 -1249.64 -1267.39 -1305.22 -1406.36 -1695.09 -2162.76 -2538.21 -2739.29 -2854.98 -2938.54 -3005.88 -3082.67 -3189.05 -3314.44 -3435.06 -3517.19 -3483.63 -3111.08 -2466.06 -2162.91 -2477.17 -3124.24 -3524.59 -3621.56 -3637.45 -3645.17 -3654.12 -3666.31 -3679.89 -3691.19 -3700.35 -3710.47 -3721.77 -3734.01 -3746.99 -3756.92 -3760.91
2688.30 2662.20 2600.56 2525.02 2466.62 2427.82 2403.45 2392.95 2393.03 2394.58 2395.06 2418.24 2540.27 2754.45 2903.20 2965.29 2998.44 3017.23 3020.00 3009.82 2994.12 2975.65 2956.57 2928.57 2797.28 2279.55 1443.42 937.04 822.78 815.72 823.10 830.98 833.38 830.59 822.53 810.05 794.10 730.79 476.92 64.28 -188.85 -250.02 -259.25 -262.84 -263.29 -258.90 -250.24 -239.06 -228.96 -225.54 -237.91 -290.20 -373.81 -425.77 -439.52 -442.92 -447.05 -452.15 -456.18 -456.26 -453.76 -452.22 -453.17 -467.19 -526.42 -622.56 -682.07 -697.30 -699.71 -699.01 -696.85 -693.70 -690.49 -688.47 -688.74 -692.74 -703.92 -736.33 -786.10 -816.82 -825.09 -826.93 -827.55 -827.22 -826.64 -826.31 -825.90 -825.64 -827.67 -848.67 -942.26 -1096.21 -1188.95 -1209.56 -1211.28 -1211.26 -1211.20 -1211.06 -1212.62 -1217.85 -1231.32 -1265.20 -1357.55 -1622.81 -2060.90 -2415.65 -2608.78 -2731.17 -2831.89 -2917.28 -3005.80 -3121.70 -3259.34 -3384.37 -3467.08 -3436.68 -3066.62 -2423.90 -2124.68 -2442.91 -3092.97 -3495.43 -3595.20 -3614.40 -3625.54 -3637.42 -3652.49 -3669.50 -3683.67 -3694.53 -3705.32 -3716.54 -3728.43 -3740.92 -3750.37 -3754.08
3160.07 3132.03 3066.59 2990.85 2941.13 2913.83 2894.33 2880.72 2873.77 2870.32 2868.71 2885.07 2970.21 3117.87 3220.80 3265.90 3294.58 3315.77 3325.66 3325.50 3320.64 3311.69 3297.53 3269.71 3135.72 2612.89 1771.74 1263.74 1149.98 1142.22 1146.06 1149.28 1148.27 1143.29 1133.13 1119.31 1102.76 1027.66 716.25 206.94 -105.60 -179.88 -188.53 -189.12 -187.51 -184.18 -178.41 -168.74 -158.15 -153.32 -163.80 -213.72 -295.36 -346.76 -360.98 -365.21 -369.38 -374.24 -377.24 -374.99 -371.06 -369.99 -373.15 -388.77 -444.03 -531.19 -583.74 -594.86 -594.47 -592.57 -590.93 -589.40 -587.13 -585.34 -586.49 -591.51 -602.00 -630.00 -672.84 -699.27 -706.89 -709.20 -709.82 -709.57 -709.11 -708.90 -708.86 -708.98 -711.03 -736.48 -853.95 -1048.32 -1166.08 -1192.67 -1194.76 -1194.29 -1194.33 -1194.32 -1195.03 -1197.96 -1205.68 -1229.44 -1309.30 -1555.77 -1963.55 -2286.78 -2458.77 -2577.19 -2692.63 -2806.37 -2918.97 -3045.65 -3189.40 -3319.94 -3409.39 -3384.77 -3017.15 -2373.55 -2074.63 -2395.04 -3045.97 -3447.26 -3547.51 -3570.13 -3587.04 -3605.96 -3627.59 -3650.18 -3669.18 -3683.25 -3695.61 -3707.27 -3719.32 -3731.72 -3740.28 -3743.22
3276.20 3244.51 3171.16 3088.55 3039.58 3018.66 3004.98 2991.85 2980.81 2973.10 2968.78 2982.43 3059.80 3191.83 3278.53 3310.27 3331.51 3353.61 3370.28 3380.63 3386.33 3386.21 3378.56 3355.25 3223.59 2699.39 1855.28 1345.98 1232.67 1224.30 1223.63 1220.14 1213.96 1205.63 1192.98 1177.79 1160.76 1083.87 761.45 232.18 -92.25 -167.88 -174.00 -170.50 -165.30 -161.27 -157.24 -149.80 -140.59 -135.31 -144.43 -192.80 -272.56 -322.31 -335.91 -340.40 -344.41 -348.74 -350.89 -347.94 -344.42 -344.97 -350.53 -367.95 -423.05 -508.41 -558.44 -566.87 -564.98 -563.59 -562.75 -562.04 -561.09 -560.67 -563.21 -568.49 -577.79 -604.14 -645.40 -670.87 -678.61 -681.48 -682.07 -681.70 -681.44 -681.96 -683.16 -684.10 -686.07 -712.46 -835.06 -1037.73 -1160.45 -1188.15 -1190.67 -1190.62 -1191.01 -1191.05 -1191.01 -1192.28 -1195.69 -1208.46 -1271.12 -1494.77 -1866.80 -2152.28 -2303.73 -2417.07 -2542.75 -2677.56 -2809.92 -2951.23 -3105.59 -3244.00 -3340.94 -3322.49 -2958.10 -2312.42 -2011.68 -2332.21 -2982.98 -3385.15 -3487.44 -3513.55 -3535.28 -3561.32 -3590.21 -3619.51 -3646.19 -3665.69 -3680.37 -3693.57 -3706.61 -3718.75 -3726.36 -3729.04
3308.09 3274.51 3194.84 3103.29 3050.65 3032.59 3023.35 3011.52 2998.83 2988.51 2981.93 2993.32 3069.43 3199.00 3277.64 3296.99 3307.69 3326.05 3344.79 3360.55 3373.76 3382.01 3383.12 3368.59 3244.42 2723.54 1878.21 1365.83 1249.48 1237.05 1230.69 1221.73 1211.70 1200.67 1186.62 1171.28 1154.35 1077.92 756.45 229.07 -92.77 -166.89 -172.42 -167.73 -159.94 -152.49 -145.91 -138.85 -132.17 -128.25 -137.17 -185.57 -264.94 -313.33 -325.46 -329.35 -333.10 -336.71 -338.55 -336.55 -334.05 -335.49 -342.21 -360.74 -416.61 -502.09 -551.34 -558.43 -555.89 -555.36 -555.27 -554.56 -554.59 -556.14 -559.91 -564.53 -572.51 -598.24 -639.48 -665.29 -673.27 -676.47 -677.72 -677.75 -677.59 -678.34 -680.00 -681.45 -683.84 -710.99 -834.30 -1037.32 -1160.25 -1187.94 -1190.43 -1190.53 -1190.87 -1190.90 -1190.66 -1190.88 -1192.08 -1199.35 -1250.47 -1455.71 -1796.09 -2041.09 -2166.95 -2272.86 -2398.67 -2538.82 -2686.64 -2849.05 -3016.10 -3159.79 -3260.78 -3244.88 -2879.98 -2232.33 -1934.41 -2260.22 -2914.80 -3321.21 -3427.17 -3457.65 -3483.45 -3512.17 -3543.25 -3578.61 -3615.92 -3643.17 -3660.61 -3675.65 -3689.97 -3701.81 -3708.35 -3710.54
3326.93 3296.36 3217.40 3120.43 3066.22 3053.34 3048.90 3036.67 3020.38 3006.90 2998.20 3007.41 3082.47 3210.85 3282.83 3290.64 3291.19 3303.65 3318.56 3331.12 3346.20 3362.22 3373.67 3369.09 3253.71 2739.31 1895.09 1378.90 1256.79 1237.63 1224.79 1211.81 1200.36 1188.74 1174.97 1160.68 1144.27 1068.47 749.69 227.60 -89.09 -161.99 -169.88 -167.56 -159.14 -147.12 -135.01 -126.17 -121.32 -119.31 -128.87 -177.80 -257.53 -305.55 -316.76 -320.05 -323.71 -327.40 -329.82 -329.40 -327.81 -329.04 -335.37 -353.89 -409.87 -495.22 -544.83 -552.78 -550.43 -549.69 -549.78 -549.35 -549.61 -551.94 -556.09 -560.17 -567.91 -593.92 -635.34 -661.63 -670.07 -673.43 -675.24 -675.83 -675.88 -676.91 -678.54 -679.76 -682.40 -710.16 -833.79 -1036.97 -1160.56 -1188.84 -1191.63 -1191.55 -1191.13 -1190.93 -1190.81 -1190.36 -1190.59 -1196.74 -1244.26 -1441.21 -1764.13 -1976.92 -2068.17 -2153.91 -2272.43 -2418.85 -2590.98 -2776.03 -2943.34 -3081.99 -3184.39 -3166.09 -2790.75 -2135.26 -1840.46 -2175.82 -2837.13 -3246.23 -3354.74 -3390.41 -3422.27 -3455.28 -3488.51 -3528.93 -3576.16 -3612.14 -3633.93 -3650.67 -3665.34 -3677.35 -3683.71 -3685.28
3339.57 3311.77 3235.33 3138.91 3089.26 3086.23 3089.99 3077.78 3054.01 3033.30 3020.29 3027.19 3100.64 3226.41 3292.83 3292.32 3284.90 3290.53 3299.16 3305.95 3318.88 3338.63 3356.91 3359.90 3252.98 2748.04 1909.11 1390.94 1263.12 1237.97 1219.43 1201.91 1188.64 1177.13 1164.02 1150.79 1135.77 1062.67 748.73 232.14 -80.77 -153.50 -164.35 -165.40 -158.13 -143.10 -125.52 -113.97 -110.01 -109.93 -121.03 -170.63 -250.97 -299.48 -311.12 -314.85 -318.54 -322.35 -325.19 -325.71 -324.57 -325.27 -330.36 -347.13 -401.59 -486.43 -537.05 -547.30 -546.83 -546.50 -546.60 -546.37 -546.46 -548.50 -552.29 -556.17 -564.18 -589.99 -630.98 -658.08 -667.90 -671.50 -672.87 -673.29 -673.58 -674.88 -676.28 -677.33 -680.55 -708.99 -832.78 -1036.17 -1160.34 -1188.82 -1191.83 -1192.00 -1191.40 -1191.28 -1191.32 -1190.58 -1190.53 -1196.11 -1242.18 -1436.17 -1753.07 -1950.12 -2013.97 -2071.63 -2175.66 -2332.57 -2533.69 -2737.93 -2897.59 -3018.41 -3114.13 -3093.24 -2707.45 -2038.35 -1732.64 -2066.37 -2734.21 -3150.18 -3265.23 -3306.73 -3344.89 -3385.90 -3425.83 -3469.82 -3520.95 -3563.98 -3592.59 -3612.88 -3629.76 -3643.89 -3650.84 -3651.91
3337.83 3308.40 3233.96 3149.70 3115.94 3126.79 3140.22 3129.82 3098.28 3066.46 3045.30 3048.74 3118.53 3239.03 3302.17 3298.94 3285.48 3282.19 3283.57 3286.36 3297.11 3316.81 3336.83 3343.95 3244.42 2749.42 1918.33 1402.23 1272.49 1244.21 1221.73 1199.47 1182.77 1170.00 1156.84 1144.32 1131.60 1062.62 753.89 241.54 -69.84 -143.28 -156.29 -159.95 -154.23 -138.34 -117.90 -104.54 -101.41 -103.38 -116.63 -167.80 -249.60 -299.19 -311.79 -316.67 -320.91 -324.37 -326.45 -326.25 -324.70 -324.67 -328.01 -342.24 -394.56 -478.67 -529.97 -542.15 -544.04 -545.26 -546.06 -546.25 -546.62 -548.52 -552.31 -556.72 -564.81 -589.36 -629.22 -656.52 -666.99 -670.13 -670.55 -670.74 -671.23 -672.28 -673.25 -674.55 -678.67 -707.79 -831.63 -1035.32 -1160.07 -1188.61 -1191.24 -1191.59 -1191.68 -1191.85 -1191.77 -1191.05 -1190.76 -1195.21 -1240.04 -1432.58 -1747.61 -1940.09 -1991.28 -2026.73 -2108.07 -2259.26 -2472.75 -2687.17 -2843.20 -2952.65 -3042.18 -3020.79 -2630.14 -1948.73 -1626.55 -1950.84 -2621.97 -3046.62 -3169.08 -3214.01 -3256.49 -3305.68 -3354.29 -3400.46 -3448.16 -3492.52 -3528.80 -3557.50 -3581.41 -3600.44 -3609.20 -3610.28
3353.75 3319.48 3242.06 3167.77 3151.16 3173.52 3190.68 3180.71 3144.43 3102.56 3072.58 3071.23 3135.40 3249.48 3311.33 3310.36 3294.68 3283.03 3275.88 3273.30 3279.47 3295.43 3314.88 3325.22 3231.31 2743.20 1919.08 1408.30 1281.01 1253.06 1229.64 1204.33 1183.86 1168.63 1154.47 1142.03 1130.59 1064.18 759.48 251.20 -58.42 -132.36 -146.72 -151.69 -146.45 -130.68 -111.38 -99.37 -97.85 -102.04 -117.36 -170.13 -253.52 -304.87 -318.69 -324.24 -329.30 -332.60 -332.80 -330.37 -328.01 -327.52 -329.37 -341.71 -392.74 -476.04 -526.95 -539.49 -542.51 -545.80 -548.43 -549.56 -550.48 -552.60 -556.89 -562.45 -570.67 -594.11 -632.74 -658.60 -667.51 -669.40 -669.26 -669.52 -670.01 -670.62 -671.36 -672.53 -676.50 -705.89 -830.28 -1034.68 -1159.89 -1188.40 -1190.53 -1190.91 -1191.58 -1191.95 -1191.83 -1191.37 -1190.81 -1194.30 -1238.39 -1430.20 -1744.26 -1935.29 -1981.33 -2002.13 -2058.36 -2182.61 -2376.53 -2583.92 -2741.64 -2859.18 -2957.03 -2942.78 -2557.52 -1874.26 -1545.78 -1864.95 -2533.20 -2957.00 -3078.25 -3119.88 -3160.36 -3210.65 -3263.14 -3310.61 -3357.48 -3406.42 -3453.79 -3493.67 -3523.58 -3546.12 -3558.57 -3561.59
3395.22 3358.50 3278.24 3204.66 3193.23 3219.23 3235.25 3224.16 3184.85 3134.99 3098.01 3092.19 3149.79 3256.29 3316.16 3319.94 3307.96 3293.81 3280.55 3271.04 3269.04 3277.57 3293.68 3305.13 3213.57 2728.22 1908.66 1403.67 1280.25 1255.25 1235.21 1210.33 1186.43 1168.50 1153.71 1141.17 1129.71 1063.79 761.39 256.85 -49.43 -121.62 -135.12 -139.44 -134.10 -120.26 -105.17 -96.66 -97.43 -104.26 -122.03 -176.37 -260.61 -313.51 -328.28 -333.24 -338.34 -341.90 -340.80 -336.77 -333.97 -333.62 -335.63 -348.06 -398.98 -481.21 -530.58 -542.02 -545.44 -550.81 -555.62 -557.81 -558.66 -560.31 -564.45 -569.89 -577.72 -600.68 -638.54 -662.94 -669.83 -670.48 -669.90 -669.67 -669.37 -669.76 -670.90 -672.14 -675.80 -705.33 -830.49 -1035.31 -1160.13 -1188.04 -1189.85 -1190.31 -1191.02 -1191.28 -1191.20 -1191.28 -1190.82 -1193.79 -1237.49 -1428.97 -1742.44 -1932.65 -1976.85 -1989.78 -2025.36 -2115.16 -2270.29 -2450.88 -2604.14 -2738.70 -2859.48 -2865.73 -2495.39 -1815.21 -1484.07 -1799.29 -2460.32 -2875.05 -2988.44 -3025.04 -3059.85 -3103.21 -3152.88 -3203.52 -3259.29 -3319.60 -3378.87 -3428.71 -3462.82 -3486.47 -3500.81 -3505.32
3428.83 3397.78 3323.21 3244.95 3225.73 3250.10 3267.80 3256.81 3213.51 3154.63 3108.90 3096.67 3146.18 3243.59 3299.56 3306.50 3300.53 3290.55 3277.63 3264.16 3254.67 3253.92 3262.65 3271.17 3179.71 2697.31 1884.89 1387.11 1267.40 1245.03 1228.57 1205.93 1180.15 1160.53 1146.97 1136.57 1126.95 1062.23 761.88 260.99 -40.79 -108.71 -118.74 -120.70 -115.54 -105.38 -95.32 -90.57 -93.96 -103.87 -124.80 -181.64 -267.41 -320.76 -334.38 -337.49 -342.25 -347.21 -347.37 -343.65 -341.05 -341.57 -345.27 -359.60 -411.08 -491.78 -538.77 -548.57 -552.09 -558.11 -563.49 -566.01 -566.37 -567.04 -570.13 -574.05 -581.12 -604.89 -643.79 -668.20 -673.78 -673.35 -672.12 -671.31 -670.50 -670.71 -672.36 -674.17 -677.85 -707.07 -832.01 -1036.38 -1160.38 -1187.62 -1189.17 -1189.46 -1189.89 -1190.20 -1190.53 -1191.05 -1190.67 -1193.55 -1236.88 -1427.64 -1740.17 -1929.60 -1973.30 -1982.93 -2003.68 -2061.98 -2178.20 -2329.84 -2480.91 -2638.17 -2787.59 -2813.44 -2448.11 -1762.78 -1424.17 -1731.40 -2382.79 -2787.11 -2892.66 -2925.31 -2954.91 -2993.31 -3042.73 -3100.02 -3165.06 -3229.95 -3293.53 -3351.48 -3394.45 -3423.12 -3437.66 -3441.56
3398.81 3370.07 3293.00 3200.17 3165.17 3183.57 3202.64 3191.34 3142.70 3073.09 3014.28 2987.33 3012.84 3080.10 3118.61 3122.31 3120.33 3117.05 3109.12 3096.50 3083.00 3073.92 3074.23 3077.81 2992.47 2546.13 1794.33 1333.58 1221.72 1200.30 1184.92 1164.47 1140.43 1122.23 1112.42 1107.50 1103.12 1044.52 761.15 287.71 4.75 -54.75 -59.77 -58.78 -54.16 -48.11 -43.21 -42.72 -49.11 -61.75 -86.69 -153.06 -252.60 -312.28 -325.15 -327.50 -332.96 -339.98 -343.17 -341.63 -340.07 -341.27 -345.63 -360.84 -411.51 -488.61 -532.21 -540.24 -542.85 -547.65 -552.03 -554.60 -555.42 -555.61 -557.15 -559.60 -567.44 -597.39 -645.84 -675.77 -682.15 -681.39 -679.98 -679.27 -678.72 -678.64 -680.03 -681.75 -685.26 -713.82 -836.99 -1038.93 -1161.16 -1187.45 -1188.47 -1188.42 -1188.84 -1189.80 -1190.89 -1191.34 -1190.74 -1193.47 -1235.44 -1421.80 -1727.28 -1912.03 -1954.29 -1962.11 -1975.08 -2015.08 -2107.10 -2246.06 -2408.98 -2587.52 -2749.99 -2775.75 -2401.90 -1710.40 -1365.06 -1661.97 -2303.62 -2699.41 -2797.61 -2826.13 -2851.83 -2884.93 -2932.64 -2995.21 -3064.65 -3129.41 -3192.66 -3254.59 -3308.84 -3348.48 -3366.58 -3370.32
3034.78 2996.32 2900.23 2788.13 2736.82 2744.45 2757.82 2741.52 2687.13 2609.52 2537.23 2479.64 2423.25 2370.10 2336.73 2322.82 2319.59 2319.21 2315.32 2305.92 2292.64 2280.12 2275.34 2276.75 2224.77 1940.06 1454.83 1154.12 1076.42 1056.69 1040.66 1022.56 1005.22 993.56 989.21 990.33 992.87 954.47 748.76 402.51 198.17 159.30 159.22 162.49 166.44 168.42 168.02 164.39 155.85 141.67 107.42 1.23 -163.00 -259.93 -280.55 -285.37 -292.68 -300.58 -305.28 -306.21 -306.49 -307.35 -310.15 -323.55 -366.73 -429.89 -464.54 -470.02 -471.05 -473.90 -477.12 -479.77 -481.06 -480.94 -481.12 -482.56 -495.44 -550.10 -638.40 -692.20 -704.32 -704.71 -703.78 -703.23 -703.03 -702.74 -703.12 -704.22 -707.81 -735.28 -853.38 -1047.46 -1164.71 -1189.50 -1189.80 -1189.24 -1189.71 -1191.12 -1192.82 -1193.40 -1192.59 -1194.55 -1231.65 -1398.64 -1672.67 -1838.43 -1876.29 -1882.82 -1894.35 -1933.38 -2024.26 -2167.33 -2342.76 -2523.73 -2674.59 -2686.91 -2316.49 -1646.14 -1309.74 -1599.67 -2233.48 -2623.52 -2714.76 -2736.65 -2756.30 -2778.57 -2816.35 -2876.45 -2945.60 -3013.78 -3083.31 -3150.49 -3212.75 -3263.12 -3287.08 -3291.73
2346.85 2299.72 2186.97 2059.80 1996.72 1991.67 1990.11 1960.47 1898.77 1817.89 1735.76 1639.74 1458.03 1209.39 1058.18 1015.95 1007.23 1004.00 999.46 992.30 982.38 971.40 965.67 969.25 973.89 954.04 907.24 872.04 853.31 837.53 821.83 807.88 799.08 795.63 796.53 802.21 811.09 804.30 728.52 594.35 518.13 508.13 510.77 513.82 516.30 514.98 510.63 504.69 495.62 480.25 431.26 259.39 -12.77 -174.33 -210.13 -218.24 -226.56 -233.79 -238.07 -240.53 -242.97 -243.61 -244.41 -254.09 -283.41 -323.59 -345.36 -349.04 -349.17 -349.97 -351.65 -353.82 -354.45 -353.16 -351.72 -352.55 -374.03 -468.55 -621.61 -714.27 -735.75 -738.27 -738.04 -737.19 -736.99 -737.00 -736.87 -737.23 -740.89 -767.04 -877.79 -1059.79 -1169.88 -1193.17 -1192.88 -1191.61 -1192.14 -1193.65 -1195.34 -1196.15 -1195.57 -1196.94 -1226.61 -1361.47 -1583.58 -1718.39 -1749.25 -1754.85 -1766.90 -1810.15 -1912.28 -2070.88 -2250.08 -2412.10 -2537.67 -2538.83 -2192.59 -1570.87 -1261.53 -1553.03 -2180.98 -2564.11 -2647.72 -2659.16 -2668.06 -2679.57 -2704.61 -2752.82 -2817.22 -2891.49 -2973.13 -3049.38 -3114.48 -3169.18 -3200.01 -3208.47
1941.48 1889.99 1769.65 1637.60 1569.20 1549.44 1525.39 1477.42 1409.11 1328.38 1242.95 1128.44 876.54 511.21 288.32 228.67 214.48 205.84 197.50 190.03 182.57 174.25 169.17 173.65 210.78 349.81 568.85 695.72 714.29 702.77 690.02 681.68 680.26 683.29 689.01 698.49 710.78 723.54 728.16 722.64 720.76 724.20 725.76 726.57 726.74 722.88 715.85 708.88 700.73 686.09 629.20 417.91 80.22 -121.15 -166.27 -175.31 -182.52 -187.49 -190.72 -194.64 -199.41 -200.98 -200.88 -207.68 -228.14 -254.78 -269.76 -274.04 -275.57 -276.44 -277.26 -277.58 -275.98 -272.97 -270.35 -270.92 -297.10 -414.91 -607.15 -724.01 -751.72 -755.83 -756.30 -755.64 -755.57 -755.93 -755.75 -755.64 -759.19 -784.78 -891.33 -1065.79 -1171.56 -1194.42 -1194.34 -1192.79 -1193.37 -1194.90 -1196.51 -1197.39 -1197.28 -1199.10 -1224.61 -1339.94 -1530.39 -1646.29 -1672.79 -1678.07 -1689.37 -1730.09 -1837.79 -2013.92 -2194.27 -2332.45 -2435.03 -2431.83 -2105.33 -1516.57 -1226.78 -1521.02 -2144.48 -2519.35 -2593.12 -2593.74 -2593.53 -2599.96 -2615.91 -2649.08 -2704.07 -2779.09 -2869.06 -2955.41 -3023.43 -3078.00 -3113.04 -3125.26
1847.55 1801.70 1690.95 1564.59 1490.70 1451.96 1407.16 1352.30 1289.98 1216.52 1135.88 1024.21 762.75 372.55 131.29 65.08 46.41 32.39 19.60 9.95 2.75 -4.11 -9.64 -8.47 31.42 203.04 480.40 644.06 672.99 665.51 657.72 656.17 661.82 670.73 681.26 693.76 706.41 723.45 746.47 768.04 777.79 778.60 776.32 774.09 771.39 765.03 756.07 748.83 742.94 732.10 676.23 456.70 104.11 -106.34 -153.08 -160.95 -166.32 -168.95 -170.91 -175.97 -182.58 -185.95 -186.49 -191.64 -208.77 -232.11 -246.40 -252.55 -256.88 -260.50 -262.37 -260.78 -256.52 -251.87 -248.47 -248.35 -274.27 -396.40 -597.84 -721.09 -751.03 -756.03 -757.44 -757.99 -758.83 -759.79 -759.83 -759.53 -762.29 -787.41 -893.33 -1066.18 -1170.81 -1193.78 -1194.34 -1193.15 -1193.72 -1195.26 -1196.97 -1197.51 -1197.47 -1199.82 -1224.68 -1335.99 -1519.48 -1631.01 -1656.64 -1662.17 -1671.88 -1705.24 -1809.31 -1996.56 -2180.82 -2305.52 -2394.95 -2390.58 -2069.07 -1487.47 -1201.45 -1492.53 -2109.62 -2477.94 -2544.80 -2538.12 -2530.53 -2531.82 -2542.67 -2568.28 -2614.18 -2679.05 -2766.07 -2860.87 -2938.70 -2998.10 -3034.68 -3047.27
1794.17 1758.32 1661.79 1538.31 1454.55 1399.67 1347.89 1309.01 1275.90 1226.46 1157.43 1049.79 787.96 393.59 146.68 75.48 52.40 33.43 16.45 3.59 -5.49 -12.84 -20.03 -23.54 11.22 181.06 460.38 626.99 659.17 656.04 653.60 658.35 670.57 685.65 700.99 715.40 727.10 742.78 765.46 785.76 790.43 785.21 779.62 774.89 769.09 760.52 751.44 745.76 743.02 736.81 684.71 465.39 110.74 -100.45 -146.12 -152.43 -156.91 -159.13 -160.69 -166.04 -173.57 -178.92 -181.10 -185.06 -199.46 -221.37 -236.41 -244.47 -251.28 -257.59 -260.63 -258.12 -252.47 -246.89 -242.54 -241.49 -266.90 -389.23 -591.49 -715.62 -746.41 -752.39 -755.31 -757.22 -758.90 -760.65 -761.14 -760.75 -762.51 -786.83 -892.80 -1066.06 -1170.76 -1193.49 -1194.47 -1194.47 -1195.41 -1196.76 -1198.11 -1198.01 -1197.66 -1199.70 -1224.47 -1335.91 -1519.38 -1630.96 -1657.08 -1663.31 -1672.62 -1701.87 -1799.73 -1985.87 -2173.81 -2299.99 -2384.67 -2374.27 -2048.79 -1466.16 -1178.81 -1463.76 -2073.01 -2436.39 -2499.51 -2487.86 -2475.09 -2471.71 -2479.40 -2501.87 -2540.34 -2591.34 -2665.22 -2759.35 -2849.91 -2921.92 -2963.22 -2976.57
1735.08 1699.08 1602.74 1476.64 1383.13 1322.86 1283.35 1274.93 1279.53 1259.74 1203.83 1096.40 830.00 429.39 177.44 103.75 79.90 59.19 38.74 21.22 8.77 0.39 -8.88 -17.38 11.56 176.38 452.40 618.60 652.94 653.50 655.24 664.01 679.61 698.33 717.99 736.01 749.05 761.57 778.18 792.06 791.28 782.92 775.96 769.55 761.82 753.29 746.72 743.85 743.82 740.91 691.59 472.51 115.95 -95.75 -140.00 -144.95 -149.11 -152.15 -154.68 -160.33 -168.19 -175.21 -179.62 -183.87 -196.53 -216.72 -231.34 -240.31 -248.55 -255.64 -258.13 -254.26 -247.71 -242.07 -237.42 -236.65 -263.21 -385.94 -587.72 -711.54 -742.65 -750.00 -754.73 -757.99 -760.32 -762.21 -762.68 -762.21 -763.52 -787.07 -892.58 -1066.36 -1171.64 -1194.02 -1195.14 -1196.11 -1197.27 -1197.90 -1198.61 -1198.38 -1198.03 -1199.93 -1224.83 -1336.26 -1520.05 -1632.83 -1660.11 -1666.93 -1677.01 -1705.31 -1791.03 -1957.48 -2145.33 -2290.41 -2381.86 -2362.19 -2029.71 -1445.68 -1156.30 -1436.54 -2042.28 -2403.87 -2462.37 -2443.59 -2426.72 -2421.71 -2428.13 -2447.53 -2479.36 -2520.87 -2583.41 -2671.44 -2769.66 -2854.53 -2901.25 -2915.12
1664.86 1629.99 1534.74 1406.22 1307.07 1250.18 1229.44 1245.61 1273.15 1271.39 1229.34 1131.32 866.90 461.72 205.06 130.45 109.53 90.74 67.56 45.45 29.88 19.02 6.00 -6.61 18.90 180.75 454.07 619.20 654.83 657.38 660.98 671.14 686.97 706.31 729.37 751.86 767.30 776.21 784.94 791.68 787.40 778.36 771.04 763.74 756.39 750.94 748.70 749.12 751.20 749.25 699.77 479.26 120.29 -92.74 -136.53 -140.67 -145.03 -149.50 -153.85 -160.24 -168.14 -176.12 -182.58 -188.19 -200.48 -219.43 -232.89 -240.88 -248.07 -253.45 -253.98 -248.54 -241.27 -236.02 -232.28 -232.70 -260.70 -383.96 -585.80 -710.00 -741.47 -749.44 -755.03 -759.36 -762.02 -763.37 -763.52 -763.07 -764.61 -788.01 -892.84 -1066.45 -1172.29 -1195.16 -1196.41 -1197.20 -1198.07 -1198.13 -1198.42 -1198.15 -1197.63 -1199.72 -1225.44 -1337.00 -1520.24 -1633.53 -1662.14 -1669.65 -1680.90 -1709.97 -1783.08 -1922.23 -2100.46 -2263.61 -2367.81 -2344.58 -2008.66 -1424.18 -1133.16 -1411.87 -2017.67 -2378.77 -2432.89 -2407.81 -2387.00 -2379.87 -2383.85 -2399.28 -2427.65 -2468.33 -2529.01 -2612.09 -2708.84 -2798.29 -2848.20 -2862.36
1574.19 1545.93 1462.57 1343.92 1251.39 1200.69 1188.97 1213.79 1246.08 1250.80 1224.70 1147.81 897.10 495.02 235.77 158.16 137.41 118.27 90.87 65.00 46.77 31.58 14.41 1.14 29.05 192.41 464.62 628.69 664.72 668.04 671.63 680.94 695.25 713.44 737.53 761.90 777.34 782.52 785.29 787.54 782.12 773.26 765.97 759.37 754.71 754.06 756.89 760.87 764.14 760.69 708.68 486.09 125.55 -89.18 -134.49 -139.64 -145.33 -151.50 -157.60 -165.13 -173.14 -180.97 -187.77 -193.88 -206.07 -224.62 -237.20 -242.49 -245.92 -248.25 -247.49 -242.80 -236.75 -232.01 -229.09 -230.80 -260.08 -384.07 -586.72 -712.02 -743.71 -750.90 -755.91 -760.08 -762.39 -763.08 -762.91 -762.36 -764.09 -788.06 -893.07 -1066.45 -1172.54 -1196.24 -1197.75 -1197.81 -1198.05 -1198.04 -1198.15 -1197.72 -1196.99 -1199.37 -1226.11 -1337.81 -1519.83 -1632.00 -1660.84 -1669.33 -1681.95 -1713.61 -1782.10 -1900.48 -2059.02 -2222.66 -2337.45 -2319.46 -1985.77 -1402.69 -1110.76 -1388.61 -1993.62 -2353.18 -2404.66 -2377.46 -2355.37 -2345.92 -2346.87 -2359.78 -2387.43 -2429.13 -2489.81 -2569.93 -2661.13 -2747.71 -2799.37 -2815.25
1506.94 1476.63 1397.52 1293.75 1212.89 1167.15 1158.58 1182.16 1208.40 1213.00 1200.16 1144.27 912.62 522.15 265.04 183.30 157.42 132.72 98.06 67.02 46.33 29.30 13.29 5.17 40.00 207.41 479.82 643.39 679.81 683.66 686.26 692.95 704.72 721.36 744.09 766.90 780.13 782.04 781.01 781.44 776.99 769.31 762.60 757.88 757.08 761.08 768.18 775.21 778.78 772.91 718.24 494.12 132.63 -84.40 -133.35 -141.21 -148.38 -155.98 -163.54 -171.63 -178.71 -184.22 -188.37 -193.36 -205.88 -225.19 -237.85 -240.90 -240.67 -240.87 -240.25 -237.97 -234.63 -230.92 -228.70 -231.83 -262.53 -387.64 -591.14 -716.58 -747.73 -753.94 -758.36 -761.60 -762.44 -761.62 -760.48 -759.36 -760.98 -785.87 -892.52 -1066.83 -1172.78 -1196.13 -1197.38 -1196.65 -1196.01 -1196.18 -1196.64 -1196.84 -1197.14 -1200.19 -1226.99 -1338.23 -1519.49 -1630.36 -1658.32 -1666.96 -1680.30 -1714.70 -1785.07 -1893.75 -2033.24 -2183.77 -2300.37 -2288.68 -1959.41 -1378.27 -1085.27 -1361.77 -1965.44 -2322.48 -2371.69 -2345.12 -2324.59 -2315.32 -2316.36 -2330.43 -2358.34 -2397.23 -2452.80 -2527.90 -2615.43 -2701.89 -2754.90 -2771.34
1489.33 1454.04 1370.40 1268.73 1189.34 1143.06 1133.17 1150.22 1168.15 1171.87 1167.53 1125.67 911.12 536.10 285.53 201.19 168.07 135.32 92.90 56.52 35.76 22.83 13.76 13.15 53.25 222.41 494.40 657.75 696.18 702.68 705.20 708.47 716.38 731.06 751.44 770.98 781.09 780.19 777.16 777.40 774.41 768.27 763.24 761.44 764.11 770.67 780.01 789.09 792.59 784.52 727.86 502.97 140.32 -79.87 -132.92 -143.46 -151.58 -160.07 -168.11 -175.19 -179.78 -181.43 -181.91 -185.57 -199.16 -220.02 -233.04 -235.12 -233.66 -234.04 -235.12 -235.56 -234.51 -232.19 -230.92 -234.61 -266.04 -392.32 -596.41 -721.15 -751.41 -757.13 -760.98 -763.16 -762.61 -759.88 -756.63 -754.11 -755.71 -782.11 -891.00 -1066.70 -1172.35 -1194.47 -1194.65 -1193.12 -1192.29 -1193.27 -1194.53 -1195.64 -1197.25 -1200.78 -1226.75 -1337.17 -1518.25 -1629.08 -1656.64 -1664.55 -1677.05 -1710.56 -1781.72 -1886.58 -2009.43 -2140.15 -2248.20 -2239.13 -1917.30 -1342.64 -1052.45 -1329.41 -1932.35 -2286.99 -2334.71 -2309.51 -2291.69 -2285.18 -2287.41 -2301.51 -2328.39 -2363.96 -2412.97 -2479.98 -2564.16 -2652.38 -2707.58 -2725.06
1504.64 1468.67 1383.14 1279.46 1197.31 1143.71 1121.47 1124.45 1134.12 1141.43 1148.22 1118.20 915.64 551.53 306.28 220.31 181.02 142.73 98.96 63.68 46.41 39.89 38.12 41.93 81.12 244.68 510.44 671.24 711.95 722.89 727.99 729.23 732.79 745.01 763.34 778.94 784.29 780.34 776.74 777.53 775.68 771.13 768.73 770.18 775.05 782.44 792.74 802.88 805.82 796.01 737.51 511.28 146.96 -75.61 -130.82 -142.46 -150.50 -159.39 -167.45 -172.73 -174.61 -173.49 -171.95 -175.14 -189.48 -210.98 -223.94 -226.53 -226.55 -229.01 -233.07 -236.27 -236.94 -235.74 -234.69 -237.63 -268.46 -394.72 -598.70 -722.73 -752.08 -757.19 -759.93 -761.05 -760.07 -756.07 -750.27 -746.14 -748.40 -776.50 -886.27 -1061.29 -1165.88 -1187.20 -1186.49 -1184.64 -1184.67 -1186.88 -1188.99 -1190.75 -1192.88 -1196.29 -1221.45 -1330.97 -1511.37 -1621.94 -1648.95 -1655.90 -1666.87 -1694.13 -1753.59 -1843.56 -1948.60 -2062.01 -2156.67 -2149.15 -1842.89 -1286.09 -1008.86 -1291.60 -1893.81 -2245.79 -2293.35 -2269.69 -2254.52 -2251.37 -2255.39 -2269.01 -2294.01 -2326.79 -2369.13 -2427.46 -2507.09 -2593.32 -2649.64 -2669.11
1636.45 1603.19 1523.51 1426.98 1349.25 1289.82 1251.46 1237.32 1238.77 1252.11 1273.10 1256.23 1064.96 712.64 474.21 386.13 339.27 298.10 261.43 235.08 222.71 219.90 222.41 227.42 255.25 375.14 573.43 693.99 726.71 740.08 749.40 752.49 755.17 766.11 782.20 792.64 791.72 784.32 780.61 782.53 782.20 779.28 779.15 783.21 789.33 796.63 806.90 817.38 819.86 808.21 747.41 521.02 159.33 -61.30 -115.71 -126.21 -132.34 -140.59 -149.55 -154.84 -155.44 -153.11 -151.18 -154.75 -170.06 -193.29 -207.82 -212.59 -215.22 -219.73 -226.49 -232.14 -234.24 -233.67 -232.29 -234.15 -262.46 -383.36 -580.46 -700.65 -728.32 -731.75 -732.76 -733.10 -732.23 -727.86 -720.95 -716.29 -718.89 -745.94 -849.68 -1014.39 -1112.69 -1133.22 -1133.30 -1132.30 -1133.06 -1135.71 -1138.29 -1140.62 -1143.08 -1146.04 -1169.08 -1272.38 -1443.21 -1547.75 -1572.83 -1578.91 -1587.53 -1604.87 -1641.11 -1700.12 -1778.71 -1871.50 -1950.67 -1950.13 -1683.66 -1183.50 -946.01 -1241.07 -1838.15 -2184.85 -2234.00 -2213.45 -2199.19 -2196.57 -2202.48 -2216.33 -2238.53 -2267.96 -2304.55 -2356.29 -2432.31 -2516.35 -2569.47 -2586.70
2258.81 2229.57 2158.38 2070.21 1999.54 1943.45 1899.12 1874.02 1869.88 1886.91 1917.24 1913.65 1747.31 1431.53 1216.77 1132.48 1080.52 1038.32 1008.57 989.11 979.06 977.04 981.12 984.46 971.39 911.38 814.83 755.17 745.94 756.44 769.60 777.95 784.47 796.27 809.15 813.10 806.26 796.32 792.90 796.25 796.51 793.54 794.82 801.85 809.56 816.13 824.88 833.86 834.40 819.13 756.87 541.92 203.03 -3.48 -53.89 -62.06 -66.05 -73.35 -83.37 -90.35 -91.26 -88.13 -85.83 -90.52 -111.52 -144.49 -165.25 -172.33 -176.53 -182.47 -190.79 -197.67 -200.57 -200.44 -199.32 -200.82 -224.25 -325.43 -491.00 -591.93 -614.08 -615.19 -614.41 -613.78 -612.69 -608.94 -603.26 -599.53 -601.28 -621.01 -697.45 -818.68 -891.22 -907.36 -908.73 -908.90 -910.16 -912.78 -915.41 -917.86 -920.31 -922.43 -939.19 -1015.80 -1142.41 -1219.79 -1238.63 -1243.50 -1249.05 -1257.55 -1273.38 -1300.34 -1343.49 -1402.85 -1462.03 -1479.10 -1313.98 -981.84 -852.77 -1161.28 -1729.06 -2055.74 -2103.51 -2086.38 -2073.12 -2069.33 -2075.05 -2087.14 -2104.42 -2130.38 -2165.68 -2215.21 -2286.58 -2366.17 -2414.75 -2428.95
3294.60 3271.26 3209.15 3124.44 3056.81 3009.71 2970.57 2943.32 2937.22 2955.73 2989.82 2997.16 2867.14 2609.62 2433.53 2363.04 2315.67 2275.79 2247.63 2228.50 2218.16 2215.91 2219.50 2218.28 2140.09 1786.45 1205.29 849.00 770.96 776.20 793.58 808.78 820.14 831.59 838.75 834.89 823.16 812.78 811.33 816.33 816.08 812.08 814.28 823.74 832.75 838.38 844.31 848.83 844.28 823.92 762.72 570.74 271.80 89.02 44.28 38.66 36.72 30.62 20.11 10.71 7.88 10.97 14.16 8.28 -22.65 -72.18 -102.20 -110.14 -113.75 -120.11 -128.92 -135.97 -139.22 -139.97 -139.86 -141.49 -158.52 -228.67 -342.21 -410.05 -422.93 -421.95 -420.50 -419.13 -417.35 -414.51 -410.92 -408.64 -409.39 -418.47 -450.83 -500.74 -530.97 -539.04 -540.94 -541.90 -543.83 -546.55 -548.80 -550.84 -552.50 -553.45 -561.05 -593.93 -647.37 -680.01 -688.43 -691.53 -694.75 -698.32 -703.88 -712.90 -729.75 -758.27 -797.54 -833.33 -800.88 -706.24 -732.75 -1055.67 -1575.60 -1870.14 -1912.31 -1896.77 -1885.00 -1881.23 -1885.96 -1895.73 -1909.18 -1932.02 -1967.58 -2017.05 -2081.97 -2151.95 -2196.36 -2210.32
3887.66 3872.60 3823.04 3744.33 3680.46 3641.81 3610.53 3586.87 3582.60 3602.74 3637.82 3647.86 3536.44 3314.14 3165.44 3111.92 3078.14 3046.92 3021.54 3002.57 2992.72 2989.58 2988.92 2979.88 2859.53 2327.46 1452.27 915.45 795.09 798.38 821.21 842.28 854.72 860.32 857.35 844.35 829.10 821.18 824.87 833.02 833.28 829.53 831.78 840.09 846.98 849.90 851.85 850.69 840.64 817.11 758.63 582.33 307.79 139.45 98.35 94.64 94.75 90.31 80.09 69.10 63.91 65.34 68.35 61.54 24.13 -35.70 -70.67 -77.47 -78.80 -83.68 -91.60 -98.03 -100.81 -101.91 -102.85 -104.74 -117.56 -168.58 -250.23 -297.10 -303.64 -301.15 -299.21 -297.45 -295.58 -293.87 -292.19 -291.15 -291.75 -295.27 -301.52 -308.56 -313.40 -316.55 -318.89 -320.61 -322.98 -325.27 -326.45 -327.79 -328.94 -329.17 -331.28 -337.88 -347.21 -352.76 -354.52 -356.15 -358.45 -360.24 -361.70 -364.18 -370.14 -383.47 -408.43 -443.73 -471.45 -501.12 -617.46 -957.99 -1458.93 -1739.65 -1780.90 -1767.32 -1756.87 -1753.08 -1756.11 -1764.42 -1777.22 -1797.49 -1830.14 -1875.87 -1933.38 -1994.10 -2034.69 -2048.70
3968.46 3956.52 3914.14 3846.00 3793.53 3764.43 3740.08 3720.98 3719.38 3740.21 3774.08 3781.15 3670.32 3455.70 3319.09 3280.29 3262.28 3244.93 3230.00 3217.95 3209.97 3202.94 3194.53 3175.07 3039.31 2467.27 1529.04 954.16 826.10 831.40 857.07 876.85 882.52 876.06 859.32 837.33 821.37 818.59 828.70 840.80 842.74 839.91 840.50 844.48 847.21 846.29 842.98 836.28 823.90 802.60 748.72 577.84 308.87 143.95 104.13 100.88 101.19 97.50 88.63 78.58 72.82 72.46 73.52 64.81 25.26 -36.71 -72.53 -78.27 -77.32 -79.53 -85.00 -89.48 -90.52 -90.31 -91.00 -93.12 -105.09 -152.16 -227.05 -268.61 -272.70 -268.99 -266.08 -264.13 -263.15 -262.73 -262.45 -262.63 -263.90 -266.36 -266.90 -265.10 -265.24 -267.73 -270.65 -272.93 -274.80 -276.16 -276.98 -278.40 -279.66 -279.45 -279.86 -280.87 -280.85 -280.82 -281.11 -281.79 -283.23 -284.19 -284.23 -284.49 -286.53 -293.25 -308.66 -332.27 -356.81 -396.66 -525.42 -880.27 -1391.56 -1678.53 -1724.53 -1713.90 -1705.36 -1701.70 -1703.06 -1710.55 -1723.90 -1741.97 -1768.51 -1807.24 -1857.38 -1910.00 -1945.96 -1959.03
3938.34 3922.65 3877.89 3817.92 3777.06 3755.57 3737.36 3723.05 3722.73 3741.94 3773.23 3777.17 3663.26 3448.07 3316.02 3287.97 3285.74 3286.08 3287.60 3285.46 3275.32 3259.07 3242.59 3216.23 3076.55 2503.88 1565.67 993.27 870.29 878.32 898.88 906.25 897.49 877.37 848.87 820.82 806.06 808.00 822.15 836.46 839.41 836.36 834.91 836.51 837.85 834.60 826.02 814.21 801.67 785.79 738.17 570.79 303.64 139.47 99.15 93.72 91.43 87.44 81.33 75.05 71.13 69.77 68.16 57.40 18.12 -42.87 -79.12 -85.43 -83.70 -83.65 -86.01 -87.55 -86.16 -83.65 -82.88 -85.05 -97.63 -144.95 -219.78 -261.32 -265.50 -261.53 -258.23 -256.36 -256.22 -256.95 -258.04 -259.69 -262.08 -264.46 -264.19 -261.94 -262.39 -265.18 -268.02 -269.90 -270.63 -271.17 -272.42 -274.60 -276.54 -276.67 -276.49 -276.39 -275.46 -275.34 -275.70 -276.14 -276.89 -277.18 -277.20 -277.04 -277.13 -279.50 -288.53 -304.06 -317.58 -343.90 -463.47 -822.84 -1344.40 -1638.46 -1688.81 -1681.37 -1675.52 -1674.34 -1677.68 -1686.25 -1699.68 -1716.30 -1738.89 -1772.50 -1815.87 -1859.45 -1887.39 -1896.81
3921.49 3901.68 3852.07 3793.24 3755.81 3736.59 3722.94 3714.13 3716.13 3733.57 3760.68 3760.69 3642.63 3423.95 3291.90 3271.81 3286.55 3304.88 3318.35 3319.90 3304.54 3280.26 3258.31 3229.76 3092.39 2525.75 1594.95 1030.19 913.45 921.63 931.81 921.80 896.41 865.51 831.30 801.70 787.98 790.87 805.28 820.09 823.54 819.94 817.69 820.05 822.50 818.66 807.27 792.82 780.75 769.27 727.22 564.00 299.61 136.47 95.03 86.76 82.06 77.63 73.86 71.89 70.63 68.75 65.16 53.64 16.31 -42.68 -79.47 -87.11 -85.34 -83.83 -83.91 -83.14 -79.77 -75.47 -73.63 -75.79 -88.55 -135.61 -210.99 -254.54 -260.81 -258.15 -255.88 -254.52 -254.67 -256.26 -258.61 -261.64 -265.24 -267.96 -267.46 -264.82 -264.57 -266.55 -268.20 -269.05 -269.39 -269.76 -271.14 -273.80 -276.52 -277.74 -277.60 -276.36 -274.54 -273.90 -274.25 -275.12 -275.95 -276.11 -276.31 -276.32 -275.99 -276.47 -281.66 -291.60 -295.82 -308.93 -416.72 -772.94 -1301.23 -1601.79 -1655.64 -1650.87 -1647.70 -1650.17 -1657.93 -1669.65 -1683.61 -1700.33 -1722.44 -1752.31 -1788.03 -1822.71 -1843.91 -1850.41
3917.48 3895.09 3840.80 3777.87 3738.73 3720.16 3709.90 3705.64 3710.60 3726.12 3746.07 3738.00 3614.22 3393.41 3263.18 3250.03 3276.83 3305.74 3321.74 3320.51 3302.76 3277.47 3253.07 3223.12 3088.63 2528.96 1607.39 1051.52 939.74 947.01 950.75 929.37 890.76 850.64 814.37 786.25 772.52 772.59 784.10 798.53 802.88 799.78 797.98 801.02 803.59 799.12 787.85 774.65 764.19 755.00 716.39 557.13 295.70 133.65 92.55 84.88 80.74 76.31 73.31 73.57 73.68 70.87 66.14 55.36 20.53 -36.64 -73.78 -82.30 -79.89 -76.78 -75.52 -73.97 -70.48 -66.77 -65.22 -67.06 -79.41 -126.30 -202.40 -248.31 -257.29 -256.55 -255.83 -255.55 -256.51 -258.94 -261.72 -265.01 -269.23 -272.70 -272.59 -269.38 -267.56 -267.71 -267.72 -267.88 -268.71 -269.50 -271.01 -273.70 -276.17 -277.70 -277.99 -276.41 -273.89 -272.58 -273.05 -274.30 -275.47 -275.90 -275.94 -275.87 -275.77 -275.88 -278.91 -284.21 -281.10 -283.00 -377.29 -726.36 -1258.23 -1564.71 -1622.40 -1620.78 -1620.66 -1626.62 -1638.42 -1654.00 -1670.82 -1690.14 -1713.48 -1740.99 -1771.84 -1800.89 -1817.53 -1822.17
3926.90 3901.66 3841.36 3772.04 3730.62 3714.40 3707.30 3703.81 3706.02 3714.99 3725.74 3708.37 3579.72 3360.37 3235.58 3227.21 3255.20 3282.36 3293.64 3288.53 3272.80 3251.68 3228.44 3199.46 3067.96 2514.27 1601.04 1052.28 943.71 952.16 957.58 935.54 891.11 843.96 806.47 780.01 765.30 761.51 769.44 782.46 786.75 783.84 782.42 784.62 785.58 780.36 770.75 761.07 753.41 745.68 708.78 551.60 291.35 130.28 91.87 88.40 87.51 84.18 80.80 80.55 80.67 77.56 72.99 63.33 28.76 -29.18 -66.85 -75.09 -71.54 -66.75 -64.02 -62.49 -60.89 -59.67 -59.20 -60.83 -73.12 -120.70 -197.44 -244.56 -255.43 -256.37 -257.11 -258.19 -260.04 -262.68 -265.15 -268.17 -272.72 -277.02 -277.34 -273.30 -270.03 -268.82 -268.02 -268.09 -269.15 -270.40 -272.58 -275.24 -276.83 -277.59 -277.84 -276.41 -274.02 -272.93 -273.63 -274.66 -275.76 -276.51 -276.52 -276.36 -276.21 -276.12 -277.58 -279.12 -271.14 -265.87 -349.41 -689.06 -1217.62 -1526.60 -1587.99 -1589.43 -1592.12 -1601.26 -1616.90 -1637.16 -1659.53 -1683.92 -1710.78 -1740.87 -1773.63 -1802.15 -1816.06 -1819.10
3941.65 3914.48 3850.79 3778.36 3737.67 3725.60 3721.09 3714.25 3706.77 3703.78 3704.56 3680.33 3549.21 3332.14 3211.84 3203.78 3224.44 3240.85 3245.16 3240.27 3230.32 3214.68 3194.23 3168.38 3040.93 2491.99 1583.83 1037.86 929.35 939.73 950.31 932.95 890.45 843.43 807.61 784.03 769.54 761.94 765.55 776.11 779.14 775.18 772.74 772.87 771.64 766.57 759.16 752.54 747.85 742.12 706.49 549.59 288.79 128.91 94.07 94.96 97.81 96.44 92.72 90.98 90.96 88.72 85.18 75.67 38.65 -22.17 -60.30 -67.63 -63.44 -57.58 -53.62 -52.68 -53.92 -55.56 -56.24 -58.34 -71.35 -119.72 -196.73 -244.01 -255.52 -257.54 -259.84 -262.74 -265.08 -266.72 -267.93 -270.11 -274.67 -279.76 -280.63 -276.20 -271.99 -270.26 -270.00 -270.54 -271.52 -272.86 -275.07 -277.26 -277.97 -277.64 -277.53 -276.64 -274.98 -274.31 -274.62 -275.02 -276.06 -276.93 -276.92 -276.67 -276.71 -276.99 -277.08 -275.12 -262.74 -252.18 -328.49 -659.85 -1182.36 -1490.88 -1554.60 -1557.60 -1560.89 -1571.42 -1590.24 -1616.34 -1646.60 -1678.15 -1712.34 -1750.75 -1788.83 -1820.19 -1837.10 -1841.96
3951.69 3929.23 3872.10 3800.58 3759.96 3750.49 3745.80 3732.53 3714.00 3699.91 3691.81 3661.71 3528.62 3312.59 3192.96 3180.75 3192.36 3199.75 3202.09 3203.33 3201.56 3189.78 3169.45 3143.79 3017.02 2468.73 1561.20 1013.72 903.19 915.70 931.96 922.29 888.84 848.39 817.24 799.91 789.18 778.72 777.26 784.92 786.39 779.77 773.47 769.62 765.65 761.02 756.02 751.42 748.38 744.73 710.99 554.37 292.81 133.31 99.91 102.25 107.21 108.46 106.09 103.28 102.25 101.30 99.12 88.26 48.08 -14.55 -52.39 -59.28 -55.33 -49.57 -45.67 -45.28 -48.66 -53.03 -55.56 -58.91 -72.95 -121.98 -199.21 -246.32 -257.98 -260.63 -264.13 -268.63 -271.24 -271.29 -270.39 -270.78 -274.60 -280.27 -282.13 -278.07 -273.63 -272.17 -272.96 -274.12 -275.13 -275.93 -276.67 -277.44 -277.53 -277.06 -277.12 -276.76 -275.57 -274.84 -274.69 -274.79 -275.84 -276.57 -276.55 -276.55 -277.00 -277.53 -276.91 -272.81 -256.52 -241.07 -312.58 -638.13 -1154.13 -1459.12 -1523.08 -1527.64 -1531.60 -1542.38 -1562.77 -1593.30 -1631.06 -1671.27 -1716.70 -1766.08 -1809.10 -1842.99 -1864.67 -1872.56
3965.02 3949.62 3900.34 3826.82 3780.40 3767.25 3757.32 3736.00 3708.98 3687.93 3673.58 3638.58 3503.92 3287.86 3165.87 3148.30 3154.82 3160.64 3166.97 3177.02 3184.05 3175.89 3153.61 3123.06 2990.82 2439.00 1531.21 983.47 873.41 889.15 911.09 910.95 889.87 859.50 835.45 825.58 820.33 809.86 804.48 808.47 807.11 795.89 783.39 774.67 768.51 764.34 761.12 757.61 754.93 752.75 721.57 566.83 306.14 146.45 111.81 112.52 117.47 120.91 120.07 115.71 112.38 112.27 111.72 99.59 57.02 -5.76 -42.43 -49.55 -47.31 -43.18 -40.63 -41.10 -45.56 -51.73 -56.64 -61.84 -76.40 -125.70 -203.62 -250.79 -262.35 -265.74 -270.05 -274.84 -277.11 -276.07 -273.59 -272.33 -274.88 -280.14 -282.43 -278.74 -274.40 -273.47 -274.65 -275.58 -276.34 -276.81 -276.49 -275.86 -275.58 -275.82 -276.47 -276.61 -276.07 -275.70 -275.79 -275.95 -276.69 -277.37 -277.84 -278.33 -278.53 -278.49 -277.86 -273.17 -253.74 -232.53 -297.37 -614.74 -1122.14 -1423.73 -1489.59 -1496.70 -1501.77 -1512.34 -1533.42 -1566.54 -1609.35 -1658.40 -1715.14 -1772.81 -1820.21 -1855.09 -1876.20 -1883.43
3850.72 3834.37 3783.08 3708.45 3658.50 3636.89 3617.06 3587.58 3555.85 3531.54 3513.23 3476.05 3345.06 3135.76 3014.49 2993.04 2998.14 3007.94 3021.67 3039.45 3052.81 3049.08 3027.22 2992.19 2857.43 2323.53 1454.83 933.70 832.13 850.53 876.01 884.07 873.86 855.03 840.43 835.82 833.03 824.33 819.77 823.95 820.54 804.01 785.36 773.12 767.00 764.03 761.42 757.93 754.95 753.18 724.54 575.76 322.46 165.73 128.89 126.37 129.79 133.35 132.77 127.62 123.18 122.98 122.79 110.15 66.88 4.19 -32.03 -40.21 -40.65 -39.55 -39.22 -41.01 -46.14 -52.98 -59.55 -65.99 -79.94 -128.43 -206.83 -254.71 -266.56 -270.65 -275.49 -279.72 -281.17 -279.92 -277.35 -275.56 -276.80 -280.71 -282.18 -278.41 -274.18 -273.18 -273.83 -274.08 -274.56 -275.27 -275.28 -274.40 -273.77 -274.30 -276.37 -281.91 -289.92 -294.68 -296.32 -297.23 -298.00 -298.77 -299.60 -299.92 -299.34 -298.84 -298.50 -292.50 -265.24 -229.11 -277.94 -576.12 -1062.30 -1354.79 -1421.93 -1430.85 -1435.83 -1445.74 -1466.73 -1500.17 -1544.01 -1598.15 -1662.76 -1725.24 -1774.80 -1809.66 -1827.89 -1832.89
3186.41 3164.19 3108.75 3042.12 2996.44 2964.03 2930.46 2893.50 2859.97 2834.98 2815.21 2780.85 2671.31 2498.56 2396.54 2376.30 2381.23 2395.36 2415.22 2436.81 2452.19 2452.28 2434.70 2401.95 2289.36 1869.84 1196.86 798.37 726.92 746.71 770.29 780.78 777.52 769.31 765.30 766.04 764.40 759.11 766.60 787.83 791.31 772.14 750.00 737.05 733.20 732.13 728.70 723.26 718.63 716.03 689.96 554.79 323.65 179.66 143.67 139.12 140.68 142.87 142.46 138.79 135.50 134.69 132.96 120.09 77.27 13.06 -25.63 -36.14 -38.95 -40.50 -41.96 -44.57 -50.10 -57.11 -64.00 -70.38 -82.79 -128.71 -205.16 -252.99 -265.75 -270.46 -275.52 -279.55 -281.04 -280.25 -277.97 -276.29 -276.74 -279.11 -279.55 -276.24 -272.71 -271.84 -272.39 -272.58 -273.30 -274.61 -275.50 -275.37 -274.77 -275.33 -282.24 -311.06 -357.27 -385.08 -392.48 -394.80 -395.82 -396.35 -396.77 -396.49 -395.64 -395.03 -394.32 -382.77 -329.93 -249.18 -257.57 -501.42 -913.68 -1163.44 -1221.43 -1229.14 -1233.29 -1242.65 -1262.63 -1293.34 -1332.86 -1386.06 -1455.07 -1521.25 -1569.96 -1602.72 -1619.24 -1623.82
2066.09 2042.73 1989.80 1932.09 1889.54 1847.21 1800.30 1755.84 1720.12 1694.98 1675.20 1646.57 1572.20 1460.42 1393.13 1378.05 1382.24 1397.19 1419.02 1440.66 1454.54 1455.67 1442.09 1416.77 1350.64 1130.71 787.25 591.47 566.03 585.18 601.77 607.81 605.78 603.95 608.56 616.25 618.89 621.89 653.23 708.13 728.58 710.75 688.01 675.96 674.58 675.24 670.49 661.83 654.24 649.33 624.54 506.83 307.37 183.48 152.10 147.27 147.28 147.79 147.36 145.62 144.45 144.27 142.40 130.01 86.90 20.15 -21.79 -35.18 -40.21 -43.75 -46.41 -49.29 -54.59 -61.34 -68.29 -74.58 -85.81 -128.04 -199.34 -244.71 -257.80 -263.11 -268.52 -273.26 -275.90 -275.99 -274.30 -273.11 -272.86 -273.29 -273.22 -271.89 -270.79 -271.68 -273.35 -273.95 -274.83 -276.43 -277.87 -278.55 -278.22 -278.99 -293.89 -360.97 -470.48 -536.68 -552.50 -555.14 -556.17 -556.70 -556.88 -556.41 -555.46 -554.52 -552.96 -532.88 -440.80 -292.69 -242.41 -402.76 -695.91 -874.33 -915.22 -920.05 -922.83 -930.48 -947.21 -972.86 -1006.49 -1056.39 -1125.40 -1191.04 -1235.88 -1264.95 -1280.32 -1285.33
1416.50 1394.75 1343.14 1283.00 1235.80 1186.84 1132.07 1081.67 1042.39 1015.88 996.00 969.99 914.70 836.80 787.89 773.88 775.60 788.28 808.06 826.41 836.43 836.44 826.14 808.24 774.57 680.20 540.40 468.44 467.59 481.96 490.82 491.41 488.69 489.92 498.65 510.47 518.07 530.62 581.91 662.83 698.00 682.66 659.59 648.01 647.96 649.74 644.64 634.17 624.66 616.92 589.72 479.38 296.74 183.79 154.83 149.77 148.93 147.77 146.12 144.74 145.33 147.93 149.17 139.14 96.08 27.75 -16.59 -32.56 -39.73 -45.02 -48.67 -51.90 -56.60 -62.83 -70.29 -77.07 -88.20 -128.29 -195.49 -238.63 -251.73 -256.92 -261.82 -266.74 -270.57 -271.96 -271.33 -270.31 -268.96 -267.56 -267.27 -268.13 -270.08 -273.21 -275.59 -275.90 -276.40 -277.98 -279.59 -280.64 -280.56 -281.41 -300.95 -391.25 -540.10 -630.27 -650.45 -652.35 -653.22 -654.00 -654.27 -653.89 -653.01 -652.09 -650.00 -624.81 -509.30 -320.57 -235.06 -345.17 -566.62 -702.18 -732.80 -735.86 -737.08 -741.49 -752.81 -772.75 -802.32 -848.14 -910.57 -969.41 -1008.80 -1035.40 -1050.54 -1055.62
1308.95 1287.92 1234.63 1167.03 1112.14 1058.80 1000.87 948.70 908.38 880.87 860.06 832.85 778.67 703.60 654.48 638.24 638.12 648.38 663.75 676.08 680.66 678.76 671.88 660.31 638.37 576.06 484.93 440.88 441.60 448.49 449.83 446.63 445.11 449.34 457.85 467.46 476.46 496.77 561.08 656.45 701.75 690.26 667.69 655.38 653.46 654.14 649.40 639.66 630.27 620.77 590.18 477.53 295.10 182.32 153.25 148.25 146.90 144.21 140.80 138.21 138.81 143.57 148.54 142.16 101.14 32.79 -13.28 -31.09 -39.40 -45.52 -50.17 -54.20 -58.57 -64.13 -71.54 -78.50 -90.38 -130.84 -196.92 -238.90 -251.81 -256.72 -260.01 -263.20 -266.47 -268.56 -268.63 -267.19 -265.47 -264.42 -264.98 -267.57 -271.11 -274.29 -275.65 -275.17 -275.60 -277.80 -279.52 -280.16 -280.19 -281.30 -301.89 -397.13 -555.04 -651.00 -672.19 -673.92 -674.51 -675.11 -675.27 -675.19 -675.32 -675.13 -672.41 -645.57 -525.09 -327.07 -232.68 -330.75 -536.34 -662.77 -691.02 -693.48 -694.00 -695.90 -702.13 -715.63 -739.06 -776.24 -827.33 -879.47 -916.80 -942.94 -958.07 -963.16
