753.55 753.76 664.93 539.42 483.69 468.55 422.96 425.57 416.92 411.19 409.47 403.60 396.62 128.14 139.23 133.46 127.01 115.47 101.49 79.24 71.53 65.44 62.96 74.09 67.36 61.26 -175.76 -164.01 -156.26 -149.28 -150.40 -169.88 -171.87 -176.08 -185.52 -191.69 -189.07 -182.33 -184.27 -566.90 -563.05 -567.93 -565.62 -561.17 -558.99 -555.42 -564.83 -570.87 -565.40 -576.15 -572.60 -582.45 -1187.22 -1189.53 -1180.47 -1175.45 -1179.89 -1182.48 -1184.01 -1179.69 -1206.90 -1242.48 -1236.67 -1243.61 -1214.23 -1518.99 -1495.49 -1508.42 -1507.23 -1535.85 -1559.02 -1642.89 -1707.46 -1734.42 -1771.89 -1768.16 -1778.78 -1825.45 -2465.24 -2451.91 -2499.80 -2560.33 -2505.18 -2490.97 -2479.39 -2491.98 -2508.33 -2665.24 -2732.17 -2870.56 -2977.61 -2935.91 -3029.80 -3164.81 -3287.40 -3292.02 -3318.78 -3344.22 -3370.02 -3418.69 -3434.61 -3474.45 -3532.02 -3548.28 -3875.11 -3889.47 -3913.38 -3923.03 -3954.61 -3962.54 -3994.56 -4001.45 -4021.77 -4021.44 -4039.82 -4059.34 -4060.70 -1954.99 -2013.79 -2052.35 -3919.40 -3918.11 -4021.32 -4036.30 -4036.00 -4108.87 -4119.03 -4119.07 -4118.95 -4161.07 -4147.18 -4174.90 -4192.99 -4230.05 -4233.17 -4230.13
759.99 769.78 666.86 541.91 477.51 433.63 421.74 418.72 414.22 402.93 398.65 399.90 403.49 129.30 141.90 142.10 125.42 106.32 89.32 71.49 70.90 68.09 68.04 75.62 65.66 62.80 -166.31 -150.54 -146.38 -138.58 -144.75 -169.59 -179.27 -186.60 -178.70 -173.60 -161.56 -174.60 -168.52 -555.68 -553.87 -564.61 -560.61 -560.37 -555.93 -562.76 -578.15 -575.02 -574.42 -575.20 -577.29 -584.60 -1182.33 -1187.31 -1182.65 -1167.53 -1175.77 -1175.78 -1178.62 -1180.56 -1201.70 -1211.99 -1213.93 -1202.13 -1184.83 -1480.99 -1481.06 -1483.53 -1475.56 -1512.26 -1548.72 -1587.70 -1632.90 -1654.38 -1671.62 -1713.63 -1717.32 -1746.52 -2388.67 -2371.83 -2431.47 -2434.99 -2455.30 -2440.21 -2442.22 -2398.49 -2446.59 -2495.29 -2551.05 -2574.49 -2660.21 -2833.06 -2942.39 -3135.37 -3208.97 -3284.47 -3308.41 -3331.96 -3354.46 -3404.46 -3425.83 -3454.73 -3503.26 -3527.89 -3847.02 -3881.89 -3897.98 -3917.19 -3937.94 -3956.17 -3991.75 -4002.57 -4011.59 -4013.87 -4023.23 -4033.99 -4046.43 -1921.52 -1977.74 -2031.93 -3898.13 -3915.90 -3984.05 -3997.51 -3997.17 -4000.00 -4055.76 -4063.46 -4097.21 -4101.63 -4130.55 -4151.66 -4166.05 -4203.10 -4202.41 -4202.92
765.87 766.70 678.30 538.03 459.06 436.70 427.99 410.55 407.52 408.28 398.52 409.34 424.86 142.11 138.07 141.08 118.78 96.15 75.35 67.50 76.41 77.36 90.30 76.28 73.33 79.27 -163.28 -152.15 -147.36 -147.57 -154.13 -170.29 -173.42 -179.05 -168.94 -160.37 -162.10 -166.30 -169.04 -552.38 -548.04 -548.57 -551.99 -559.35 -558.72 -563.59 -569.98 -582.84 -574.97 -584.11 -582.19 -579.51 -1180.08 -1181.98 -1183.32 -1171.25 -1174.92 -1179.59 -1177.11 -1177.31 -1181.50 -1177.50 -1184.91 -1178.92 -1184.71 -1485.21 -1483.30 -1488.38 -1479.10 -1498.57 -1514.24 -1548.90 -1585.62 -1637.40 -1650.23 -1670.10 -1689.80 -1720.41 -2346.96 -2357.32 -2353.11 -2400.78 -2364.74 -2367.24 -2344.48 -2365.25 -2359.13 -2359.46 -2411.33 -2478.66 -2548.87 -2701.73 -2811.18 -2923.82 -2989.45 -3112.58 -3289.92 -3331.66 -3344.23 -3379.18 -3413.01 -3448.73 -3484.60 -3509.66 -3818.10 -3860.94 -3901.11 -3905.55 -3930.87 -3959.92 -3990.28 -3995.76 -4007.40 -4016.32 -4016.40 -4024.06 -4046.20 -1908.94 -1952.36 -2004.10 -3836.56 -3888.55 -3945.79 -3988.31 -3968.72 -3961.97 -3989.34 -4042.37 -4056.73 -4093.67 -4095.46 -4098.27 -4109.21 -4127.33 -4165.57 -4166.44
769.29 771.83 680.22 504.71 453.16 430.30 415.77 410.35 413.65 414.51 411.49 428.30 426.62 152.57 135.27 124.39 114.02 82.66 73.77 68.66 77.65 109.82 94.27 91.81 87.70 97.66 -144.07 -144.51 -142.92 -140.84 -156.72 -159.05 -168.18 -167.65 -158.07 -153.04 -148.28 -155.97 -155.63 -540.40 -549.35 -538.14 -551.53 -550.89 -555.46 -562.60 -571.35 -572.69 -574.04 -579.86 -575.57 -578.60 -1174.60 -1181.39 -1172.48 -1173.02 -1166.53 -1181.24 -1182.66 -1181.80 -1185.20 -1183.33 -1184.77 -1188.77 -1184.64 -1474.74 -1483.88 -1478.35 -1476.22 -1496.93 -1522.96 -1543.76 -1564.65 -1601.95 -1607.63 -1661.08 -1665.19 -1678.84 -2293.86 -2310.92 -2328.97 -2320.32 -2323.44 -2317.52 -2325.90 -2307.93 -2308.73 -2300.63 -2359.50 -2395.78 -2518.31 -2609.67 -2586.29 -2674.35 -2749.65 -3013.53 -3266.10 -3289.35 -3332.52 -3382.03 -3401.39 -3425.96 -3481.88 -3524.73 -3818.17 -3854.75 -3894.53 -3911.49 -3930.47 -3965.61 -3986.21 -3990.50 -4003.80 -4008.78 -4013.36 -4018.49 -4025.05 -1899.70 -1938.15 -1952.63 -3808.55 -3832.67 -3865.82 -3932.48 -3956.85 -3959.66 -3978.69 -3987.52 -4034.23 -4031.87 -4041.42 -4066.23 -4068.34 -4126.18 -4127.49 -4122.13
784.22 783.98 677.46 524.22 479.95 440.66 417.92 414.55 421.67 430.73 424.09 430.71 443.81 158.27 136.77 115.05 93.10 77.10 88.61 79.53 100.65 118.90 117.05 99.08 96.16 115.17 -124.55 -127.73 -131.96 -134.21 -135.08 -148.47 -153.68 -155.19 -146.53 -146.98 -151.29 -150.14 -164.98 -544.59 -547.83 -544.86 -552.79 -551.48 -556.54 -568.14 -571.30 -575.80 -584.14 -579.63 -579.20 -568.97 -1180.01 -1175.85 -1174.36 -1170.96 -1179.20 -1180.41 -1177.61 -1177.60 -1183.93 -1179.36 -1182.35 -1180.60 -1187.72 -1481.64 -1479.52 -1483.59 -1485.23 -1485.66 -1504.05 -1509.56 -1520.06 -1561.56 -1557.44 -1563.03 -1607.05 -1615.43 -2257.15 -2254.29 -2276.87 -2288.12 -2272.69 -2284.36 -2298.13 -2279.93 -2273.39 -2257.81 -2262.56 -2359.59 -2436.63 -2424.89 -2477.99 -2504.95 -2660.05 -2845.31 -3106.55 -3234.65 -3264.71 -3384.62 -3402.20 -3415.47 -3452.72 -3511.35 -3841.60 -3858.92 -3897.47 -3916.93 -3942.42 -3971.00 -3983.95 -3995.99 -4004.18 -4013.10 -4006.74 -4020.44 -4027.16 -1900.49 -1929.89 -1956.11 -3798.77 -3805.46 -3817.73 -3864.21 -3888.04 -3898.04 -3908.61 -3936.12 -3966.02 -3978.94 -3986.92 -4014.54 -4054.64 -4076.48 -4088.62 -4086.46
788.72 790.67 673.22 561.80 490.27 449.84 421.00 417.84 436.47 454.53 459.54 454.03 447.87 166.19 140.44 118.97 102.70 86.91 90.10 111.81 136.14 134.77 130.88 107.94 109.75 118.18 -119.57 -115.51 -128.29 -129.02 -138.09 -139.52 -147.36 -152.36 -141.89 -153.28 -164.17 -162.95 -173.67 -556.62 -556.41 -550.96 -552.07 -561.98 -561.35 -579.45 -561.40 -581.95 -583.04 -574.42 -577.55 -578.53 -1172.20 -1170.62 -1173.68 -1171.53 -1173.93 -1175.35 -1177.61 -1185.74 -1180.36 -1185.38 -1179.11 -1182.16 -1184.61 -1486.88 -1479.54 -1481.55 -1475.74 -1484.91 -1479.25 -1488.12 -1499.64 -1511.57 -1516.44 -1539.22 -1573.97 -1605.54 -2210.73 -2227.65 -2250.87 -2238.17 -2252.64 -2245.66 -2248.44 -2257.01 -2245.95 -2241.77 -2236.62 -2231.20 -2294.64 -2292.10 -2376.52 -2410.83 -2543.98 -2800.14 -3044.29 -3092.12 -3245.61 -3329.48 -3395.91 -3404.82 -3447.22 -3504.78 -3853.22 -3866.19 -3896.01 -3951.75 -3970.51 -3993.03 -3993.67 -4004.14 -4007.37 -4010.51 -4017.13 -4027.09 -4037.96 -1904.71 -1930.19 -1953.85 -3784.00 -3799.75 -3813.90 -3830.04 -3842.47 -3858.88 -3866.24 -3906.03 -3921.61 -3939.18 -3966.68 -3986.54 -3997.01 -4050.39 -4054.08 -4053.37
768.25 768.14 792.90 505.21 479.65 445.34 440.67 445.56 485.99 472.21 466.28 473.94 453.89 156.42 145.44 131.09 113.51 89.84 86.71 108.73 139.84 148.15 126.58 104.39 113.66 115.60 -108.00 -116.28 -111.16 -124.71 -140.14 -142.82 -145.42 -151.81 -154.35 -161.13 -177.50 -179.02 -182.56 -573.57 -569.87 -561.68 -560.53 -563.84 -573.95 -578.18 -579.48 -571.77 -579.05 -570.09 -570.41 -564.77 -1177.13 -1161.54 -1174.73 -1179.00 -1175.39 -1182.71 -1179.70 -1182.73 -1182.06 -1177.83 -1187.02 -1189.61 -1183.31 -1479.73 -1482.60 -1477.12 -1479.92 -1481.83 -1480.27 -1478.07 -1493.99 -1490.64 -1514.82 -1522.80 -1544.32 -1565.37 -2190.27 -2200.48 -2190.22 -2188.68 -2202.39 -2226.70 -2210.29 -2229.32 -2225.71 -2207.73 -2195.96 -2208.47 -2191.58 -2137.69 -2185.15 -2301.28 -2444.42 -2724.75 -3008.75 -3187.58 -3272.50 -3340.41 -3359.26 -3409.19 -3445.81 -3498.58 -3840.13 -3879.54 -3902.92 -3964.73 -3991.21 -4001.73 -4004.00 -4009.01 -4009.55 -4018.07 -4033.09 -4028.77 -4044.86 -1909.22 -1930.55 -1951.78 -3769.56 -3780.80 -3801.76 -3820.68 -3821.67 -3839.30 -3852.46 -3854.11 -3897.90 -3920.07 -3945.62 -3936.81 -3975.60 -3983.27 -4021.00 -4025.02
3364.17 3364.90 3248.42 3095.16 3017.04 2993.94 2990.05 3024.14 3032.62 3043.90 3016.81 3002.53 2976.76 3232.54 3216.17 3219.53 3197.31 3185.53 3181.31 3208.57 3235.61 3241.59 3238.34 3215.25 3221.46 3236.82 -92.61 -92.18 -104.95 -114.29 -121.16 -140.74 -149.34 -151.46 -155.95 -156.60 -164.80 -169.15 -168.20 -459.49 -473.33 -457.93 -468.65 -470.64 -473.43 -473.56 -469.28 -476.70 -462.23 -458.32 -456.13 -464.62 -690.18 -684.76 -698.41 -693.34 -703.81 -700.16 -698.60 -702.55 -702.29 -713.27 -704.19 -703.70 -705.35 -1101.42 -1109.55 -1104.87 -1102.66 -1108.45 -1105.95 -1105.61 -1106.31 -1106.25 -1121.00 -1138.68 -1146.66 -1162.76 -1193.75 -1209.71 -1212.52 -1223.39 -1216.46 -1205.95 -1228.94 -1203.32 -1185.52 -1206.66 -1205.17 -1215.56 -1201.70 -1308.58 -1350.40 -1368.24 -1542.18 -1720.18 -2034.41 -2244.24 -2473.22 -2506.74 -2554.13 -2604.44 -2611.92 -2729.49 -3514.80 -3567.14 -3624.86 -3663.85 -3671.23 -3684.98 -3678.88 -3691.55 -3682.57 -3695.71 -3703.42 -3711.24 -3733.28 -1924.74 -1937.61 -1948.69 -3565.87 -3579.40 -3602.61 -3616.11 -3623.86 -3620.00 -3635.43 -3646.13 -3654.49 -3686.02 -3716.34 -3736.49 -3743.48 -3790.96 -3800.31 -3796.96
3341.96 3338.88 3243.51 3129.40 3073.58 2994.01 3006.26 3020.32 3043.88 3029.17 3009.50 2985.28 2974.31 3228.13 3221.21 3209.59 3188.03 3187.67 3193.18 3206.68 3228.90 3239.39 3232.51 3222.52 3230.81 3241.32 -88.04 -86.15 -112.04 -117.52 -134.30 -135.77 -140.45 -147.62 -143.48 -144.07 -151.27 -154.95 -151.97 -449.39 -453.13 -454.54 -473.78 -469.99 -467.03 -471.40 -461.44 -468.61 -454.57 -458.49 -460.19 -459.96 -689.29 -691.66 -699.34 -697.50 -703.85 -706.21 -703.88 -706.18 -706.37 -706.96 -706.29 -704.85 -702.19 -1111.69 -1108.81 -1100.88 -1098.34 -1102.46 -1103.41 -1104.28 -1104.87 -1107.37 -1108.01 -1121.24 -1120.18 -1143.60 -1168.70 -1189.53 -1199.35 -1201.58 -1201.22 -1204.94 -1178.05 -1176.91 -1179.21 -1169.07 -1180.54 -1188.35 -1186.41 -1294.55 -1339.19 -1378.99 -1524.47 -1698.18 -1861.89 -1898.93 -2129.38 -2379.49 -2479.76 -2483.98 -2626.67 -2705.05 -3529.34 -3573.64 -3644.62 -3686.96 -3690.38 -3696.46 -3705.24 -3711.37 -3710.31 -3703.69 -3717.17 -3722.09 -3731.69 -1940.75 -1942.23 -1953.32 -3580.09 -3587.85 -3597.31 -3605.24 -3604.64 -3613.84 -3618.62 -3637.68 -3647.65 -3649.69 -3675.24 -3700.87 -3723.89 -3778.26 -3766.42 -3768.43
3561.40 3564.12 3449.27 3190.59 3180.70 3058.61 3009.39 3016.36 3058.35 3041.64 3030.68 2988.93 2994.76 3263.66 3260.56 3228.68 3218.32 3195.81 3193.60 3219.47 3226.31 3259.64 3246.63 3233.07 3239.17 3246.09 -81.26 -83.11 -110.26 -107.91 -117.56 -115.80 -120.44 -129.49 -130.40 -124.77 -134.43 -142.60 -142.23 -444.19 -439.01 -454.79 -460.48 -467.34 -471.04 -464.76 -464.12 -460.30 -452.41 -449.42 -447.94 -455.41 -691.11 -694.19 -700.75 -701.62 -701.47 -695.86 -700.89 -699.88 -699.85 -698.18 -706.11 -701.84 -702.64 -1104.24 -1101.75 -1100.84 -1105.43 -1100.57 -1103.74 -1107.18 -1108.27 -1101.09 -1106.82 -1105.72 -1108.75 -1123.53 -1148.27 -1174.72 -1181.86 -1183.21 -1189.25 -1169.74 -1168.77 -1169.61 -1168.16 -1158.43 -1167.60 -1166.07 -1162.28 -1272.35 -1314.43 -1328.56 -1360.83 -1569.10 -1625.96 -1732.86 -2096.49 -2088.15 -2312.65 -2466.71 -2689.23 -2732.60 -3557.14 -3611.47 -3645.06 -3689.14 -3717.52 -3725.96 -3737.75 -3723.43 -3736.57 -3732.06 -3744.77 -3743.19 -3739.75 -1944.91 -1953.66 -1975.30 -3591.86 -3592.76 -3599.63 -3601.57 -3604.45 -3610.50 -3615.34 -3630.72 -3638.38 -3649.64 -3667.70 -3682.42 -3699.72 -3736.15 -3742.96 -3750.37
3691.15 3694.26 3506.95 3314.99 3197.07 3113.00 3061.90 3114.36 3076.96 3111.34 3093.99 3063.85 3052.15 3281.90 3265.74 3246.48 3221.90 3193.99 3195.38 3216.95 3250.51 3262.78 3259.95 3249.29 3242.87 3252.26 -74.86 -91.92 -111.30 -110.09 -99.99 -106.10 -114.90 -120.37 -123.16 -119.82 -123.00 -131.85 -137.97 -437.47 -445.54 -454.80 -464.34 -470.51 -462.84 -456.62 -456.22 -466.84 -455.11 -446.70 -441.74 -450.02 -686.87 -694.05 -694.55 -697.91 -696.90 -695.52 -698.51 -697.44 -693.38 -701.07 -698.06 -698.89 -699.22 -1104.08 -1099.94 -1098.52 -1100.94 -1104.45 -1106.16 -1107.35 -1108.47 -1105.23 -1101.43 -1105.10 -1111.15 -1107.44 -1134.40 -1155.80 -1146.81 -1163.62 -1163.82 -1163.95 -1154.66 -1152.63 -1144.57 -1150.93 -1154.04 -1151.54 -1161.63 -1257.21 -1274.07 -1296.27 -1310.16 -1349.78 -1442.59 -1512.81 -1740.20 -2019.52 -2098.51 -2428.12 -2652.26 -2733.82 -3572.96 -3606.98 -3683.52 -3704.75 -3728.76 -3748.15 -3745.03 -3756.94 -3746.93 -3753.90 -3747.70 -3759.76 -3765.14 -1960.31 -1978.76 -1980.98 -3609.35 -3613.25 -3612.68 -3615.95 -3614.84 -3624.46 -3623.94 -3629.05 -3640.63 -3644.88 -3658.92 -3677.96 -3694.16 -3724.28 -3735.62 -3732.37
3763.12 3768.50 3727.89 3267.49 3230.81 3129.06 3137.18 3192.67 3145.00 3151.95 3123.13 3122.14 3073.97 3278.54 3258.97 3243.24 3227.31 3221.40 3204.74 3211.93 3247.81 3273.80 3267.20 3261.61 3263.29 3262.81 -67.14 -97.50 -96.68 -107.64 -101.64 -98.28 -116.91 -122.79 -129.60 -128.71 -116.80 -130.28 -153.55 -442.18 -459.30 -464.79 -463.53 -467.09 -459.88 -452.55 -452.81 -455.15 -445.96 -442.88 -443.26 -449.50 -683.16 -690.18 -691.57 -691.75 -686.42 -688.24 -687.39 -690.57 -692.51 -692.25 -705.20 -701.19 -705.19 -1098.66 -1098.41 -1101.22 -1103.00 -1095.44 -1100.53 -1100.66 -1104.94 -1107.06 -1105.85 -1110.99 -1106.05 -1107.35 -1126.62 -1139.14 -1148.40 -1153.18 -1155.47 -1145.23 -1145.98 -1145.01 -1145.38 -1138.02 -1150.25 -1149.30 -1155.99 -1257.13 -1260.30 -1269.39 -1302.16 -1337.54 -1370.06 -1470.47 -1688.08 -1938.67 -2162.40 -2567.59 -2648.96 -2752.85 -3581.10 -3641.34 -3697.23 -3714.39 -3745.52 -3758.88 -3773.03 -3769.87 -3769.12 -3772.58 -3766.25 -3773.43 -3780.75 -1974.30 -1983.09 -1989.34 -3624.71 -3621.64 -3640.73 -3637.73 -3627.89 -3622.29 -3624.11 -3636.98 -3635.41 -3642.18 -3658.52 -3676.17 -3690.92 -3708.19 -3718.48 -3722.35
3719.31 3717.99 3613.39 3392.57 3257.19 3195.27 3218.72 3264.33 3256.50 3183.41 3149.00 3137.66 3090.99 3288.13 3276.67 3274.90 3252.54 3244.21 3224.38 3221.33 3256.42 3281.61 3285.61 3277.21 3274.45 3279.49 -69.35 -81.90 -98.67 -99.37 -97.74 -104.35 -115.33 -136.84 -134.55 -135.89 -130.06 -149.36 -160.50 -455.22 -462.65 -465.24 -464.94 -466.45 -453.72 -446.83 -441.62 -443.05 -444.41 -437.06 -439.55 -443.05 -684.33 -686.42 -693.55 -693.02 -679.07 -682.47 -689.72 -683.07 -695.31 -696.44 -700.05 -693.72 -703.65 -1097.16 -1093.97 -1100.24 -1092.68 -1103.70 -1098.12 -1102.86 -1103.74 -1112.11 -1106.73 -1105.46 -1115.37 -1108.20 -1128.94 -1143.70 -1143.94 -1149.13 -1135.82 -1134.34 -1133.18 -1138.09 -1135.59 -1130.42 -1135.26 -1141.14 -1153.12 -1249.13 -1249.88 -1257.04 -1269.12 -1296.54 -1362.55 -1423.24 -1601.78 -1834.92 -1961.41 -2359.24 -2647.21 -2745.03 -3597.12 -3660.14 -3711.86 -3709.79 -3746.34 -3768.47 -3780.03 -3772.74 -3777.00 -3780.24 -3771.69 -3784.67 -3790.75 -1994.31 -2001.88 -2011.36 -3631.81 -3645.38 -3645.10 -3641.18 -3639.02 -3636.86 -3631.17 -3638.45 -3640.20 -3646.97 -3662.24 -3670.56 -3676.13 -3701.23 -3704.04 -3707.33
3640.89 3642.43 3527.04 3406.75 3360.61 3281.46 3273.28 3326.76 3293.59 3285.65 3244.06 3150.55 3072.15 3307.24 3315.12 3293.55 3268.51 3235.84 3221.59 3232.27 3276.47 3282.98 3296.13 3296.08 3296.84 3286.19 -57.30 -62.19 -79.82 -93.66 -102.81 -101.84 -126.25 -136.15 -159.18 -136.88 -153.60 -164.74 -164.97 -457.34 -468.90 -471.26 -463.49 -460.18 -455.76 -447.35 -430.43 -434.32 -441.27 -441.65 -440.42 -450.33 -678.30 -689.14 -694.22 -688.63 -684.40 -676.95 -678.90 -684.48 -692.85 -689.57 -700.54 -693.92 -701.88 -1101.23 -1098.45 -1097.12 -1098.02 -1106.77 -1102.38 -1099.02 -1102.91 -1101.47 -1108.78 -1105.88 -1105.51 -1104.42 -1124.45 -1140.10 -1148.84 -1140.00 -1132.95 -1133.18 -1135.45 -1131.53 -1131.43 -1135.08 -1127.46 -1137.76 -1137.33 -1239.76 -1232.19 -1245.85 -1257.70 -1300.49 -1315.35 -1417.35 -1584.31 -1672.70 -1772.57 -2296.28 -2653.38 -2728.04 -3595.29 -3651.00 -3680.84 -3726.25 -3753.38 -3777.83 -3789.99 -3789.24 -3787.70 -3787.59 -3797.08 -3803.50 -3806.21 -2002.73 -2017.39 -2029.77 -3648.23 -3650.02 -3656.27 -3652.77 -3652.82 -3643.53 -3633.86 -3645.98 -3644.51 -3653.58 -3655.59 -3665.02 -3672.87 -3701.21 -3697.93 -3706.79
3581.12 3577.61 3506.66 3409.38 3365.90 3363.65 3360.19 3335.75 3353.35 3326.18 3293.60 3166.78 3111.40 3348.14 3348.02 3318.46 3293.57 3234.49 3224.50 3265.73 3283.55 3314.02 3319.78 3317.61 3304.74 3286.86 -48.44 -57.30 -71.93 -90.76 -96.04 -116.56 -137.69 -160.25 -159.96 -166.61 -170.46 -172.98 -169.24 -460.74 -475.98 -469.28 -470.61 -461.61 -453.79 -437.43 -423.14 -425.59 -423.97 -428.38 -448.65 -445.83 -680.68 -685.46 -688.53 -672.91 -670.29 -674.54 -675.82 -674.92 -681.20 -685.90 -688.72 -686.95 -699.13 -1094.78 -1093.22 -1097.10 -1096.34 -1102.02 -1102.53 -1100.43 -1108.57 -1105.42 -1105.13 -1108.30 -1100.44 -1105.58 -1131.21 -1134.82 -1136.32 -1132.34 -1124.05 -1127.84 -1135.21 -1126.18 -1128.07 -1123.63 -1123.58 -1128.02 -1128.46 -1224.84 -1230.15 -1241.43 -1249.54 -1257.02 -1276.14 -1305.31 -1394.49 -1575.46 -1843.10 -1993.36 -2687.73 -2711.65 -3550.28 -3632.70 -3673.72 -3725.10 -3755.36 -3784.20 -3785.45 -3796.10 -3802.26 -3802.51 -3807.42 -3808.22 -3815.72 -2009.47 -2035.16 -2041.93 -3657.18 -3655.57 -3658.68 -3651.76 -3646.71 -3644.57 -3638.20 -3644.75 -3644.83 -3649.90 -3663.10 -3665.15 -3677.27 -3687.07 -3699.12 -3691.27
3562.87 3565.97 3508.44 3403.52 3370.49 3370.60 3375.59 3370.56 3367.46 3334.42 3277.10 3232.53 3133.89 3373.22 3347.00 3299.07 3275.98 3240.35 3248.25 3291.38 3316.21 3321.58 3329.65 3313.57 3301.11 3278.84 -46.02 -55.31 -74.05 -83.68 -99.70 -98.12 -137.45 -162.54 -163.77 -178.58 -177.67 -181.28 -186.22 -471.02 -469.32 -478.36 -466.80 -459.29 -454.22 -438.58 -422.37 -418.06 -416.12 -429.68 -439.69 -440.63 -672.67 -672.80 -672.07 -670.25 -666.41 -668.02 -667.42 -672.03 -668.62 -681.17 -681.61 -691.28 -686.32 -1092.19 -1091.94 -1095.56 -1094.85 -1102.78 -1102.09 -1096.12 -1101.03 -1103.07 -1101.58 -1103.66 -1105.28 -1102.77 -1127.51 -1132.67 -1132.36 -1124.63 -1126.03 -1126.52 -1127.61 -1128.83 -1129.65 -1123.25 -1125.31 -1120.96 -1128.76 -1220.08 -1223.28 -1230.11 -1239.13 -1252.15 -1264.49 -1278.32 -1382.48 -1534.48 -1627.79 -1978.70 -2316.36 -2717.02 -3537.92 -3616.34 -3663.82 -3691.18 -3748.91 -3776.35 -3787.57 -3798.16 -3800.30 -3801.77 -3804.74 -3821.44 -3821.38 -2034.73 -2042.41 -2042.02 -3657.25 -3661.69 -3656.42 -3651.46 -3645.88 -3648.78 -3649.27 -3642.49 -3645.29 -3650.01 -3655.26 -3662.74 -3677.46 -3689.28 -3694.11 -3698.20
3538.30 3538.99 3539.84 3345.08 3345.42 3368.62 3367.30 3374.56 3377.64 3353.61 3331.63 3268.28 3198.87 3386.66 3333.76 3284.12 3263.58 3252.50 3274.17 3307.43 3325.40 3310.14 3318.18 3302.37 3283.19 3272.44 -48.78 -53.42 -61.89 -73.55 -96.06 -106.98 -138.39 -139.71 -152.88 -167.24 -181.27 -174.01 -168.56 -461.19 -462.76 -467.88 -463.40 -465.83 -445.08 -433.77 -419.48 -414.12 -412.26 -421.68 -433.13 -440.70 -669.20 -678.09 -671.09 -674.82 -665.66 -670.50 -663.58 -672.04 -676.98 -678.59 -680.95 -684.14 -683.86 -1082.82 -1091.74 -1089.26 -1098.08 -1097.88 -1099.59 -1102.41 -1097.65 -1109.82 -1102.31 -1102.75 -1102.48 -1108.68 -1127.19 -1128.10 -1126.85 -1128.33 -1124.90 -1125.22 -1123.86 -1123.73 -1123.73 -1122.08 -1122.83 -1128.33 -1128.85 -1221.46 -1224.38 -1228.94 -1228.51 -1230.66 -1255.89 -1278.55 -1312.50 -1418.42 -1610.62 -1925.37 -2065.28 -2468.43 -3544.31 -3600.45 -3637.47 -3700.95 -3720.06 -3757.18 -3784.81 -3792.07 -3802.16 -3805.60 -3803.16 -3820.58 -3827.43 -2027.52 -2044.60 -2040.03 -3662.89 -3663.86 -3663.24 -3655.82 -3654.30 -3653.00 -3654.11 -3647.43 -3644.22 -3654.00 -3658.20 -3664.46 -3677.03 -3695.02 -3699.37 -3695.67
3517.49 3515.75 3442.28 3360.64 3335.47 3354.16 3364.68 3368.54 3368.71 3381.39 3378.30 3329.04 3204.69 3385.09 3344.98 3291.46 3264.12 3276.66 3322.14 3332.69 3328.36 3317.09 3298.60 3273.55 3263.35 3249.98 -60.41 -62.42 -58.70 -74.67 -108.43 -106.01 -120.68 -128.69 -142.13 -164.76 -177.42 -166.29 -167.62 -452.53 -447.68 -448.32 -461.15 -454.51 -455.76 -434.28 -415.63 -427.73 -422.46 -432.57 -430.70 -436.84 -672.53 -675.72 -684.32 -682.86 -685.78 -668.50 -668.63 -672.88 -674.27 -679.43 -684.64 -676.50 -685.92 -1078.45 -1086.25 -1086.73 -1090.23 -1095.85 -1094.69 -1096.51 -1102.65 -1104.88 -1105.03 -1098.57 -1105.45 -1108.70 -1117.37 -1122.36 -1119.90 -1123.69 -1123.70 -1125.36 -1120.02 -1129.65 -1125.63 -1129.23 -1122.91 -1125.44 -1126.55 -1220.20 -1220.12 -1220.13 -1226.66 -1226.60 -1239.16 -1249.25 -1272.98 -1384.40 -1561.23 -1683.34 -2016.12 -2236.77 -3373.05 -3587.62 -3608.00 -3663.19 -3714.16 -3748.92 -3768.67 -3786.24 -3789.71 -3802.71 -3803.13 -3813.99 -3826.98 -2024.88 -2029.85 -2039.98 -3663.90 -3665.00 -3661.09 -3660.65 -3656.96 -3655.99 -3649.84 -3648.37 -3646.66 -3651.50 -3651.85 -3670.17 -3676.89 -3686.28 -3696.32 -3695.17
3514.23 3519.17 3426.09 3375.39 3282.09 3257.69 3305.73 3322.70 3360.04 3367.36 3384.73 3314.47 3240.52 3394.50 3364.97 3317.38 3319.07 3328.49 3349.05 3323.39 3320.35 3306.01 3290.63 3260.49 3238.61 3239.00 -81.19 -77.64 -78.30 -91.93 -114.50 -109.39 -114.36 -130.36 -140.58 -150.00 -176.51 -174.69 -149.51 -440.52 -426.30 -436.69 -450.67 -451.67 -440.31 -441.85 -441.33 -440.74 -438.36 -443.31 -434.40 -440.89 -673.29 -679.11 -686.21 -694.48 -685.83 -675.66 -670.70 -670.79 -680.63 -681.27 -683.71 -683.60 -677.33 -1082.88 -1088.10 -1090.88 -1089.17 -1096.23 -1093.15 -1096.68 -1100.47 -1102.23 -1097.18 -1099.76 -1100.96 -1106.23 -1127.55 -1125.56 -1124.38 -1125.86 -1120.32 -1121.05 -1127.63 -1128.38 -1128.74 -1121.08 -1128.98 -1124.92 -1121.53 -1220.62 -1218.07 -1221.16 -1221.04 -1219.96 -1227.65 -1239.05 -1267.11 -1292.18 -1434.40 -1528.14 -1838.14 -2145.00 -3247.58 -3450.61 -3582.49 -3608.48 -3684.17 -3712.82 -3763.13 -3789.45 -3793.76 -3800.70 -3810.43 -3814.35 -3817.89 -2026.67 -2027.26 -2037.87 -3656.31 -3661.06 -3654.74 -3660.20 -3655.10 -3650.92 -3655.06 -3652.69 -3647.36 -3655.24 -3661.97 -3674.96 -3676.23 -3686.36 -3701.67 -3696.53
1497.79 1500.09 1517.81 1315.12 1295.73 1285.30 1342.56 1388.25 1412.97 1428.02 1444.73 1386.22 1318.98 2213.22 2119.08 2156.62 2114.19 2096.25 2081.39 2042.19 2032.52 2013.97 2006.29 1960.87 1964.44 1958.71 -97.17 -77.12 -77.93 -107.54 -118.30 -117.99 -125.16 -129.42 -151.70 -157.08 -173.16 -166.18 -150.98 -427.47 -426.57 -425.41 -426.68 -436.07 -438.92 -440.61 -448.11 -442.05 -453.19 -451.38 -450.41 -446.41 -648.23 -658.40 -676.22 -668.13 -660.89 -660.26 -653.97 -654.92 -650.31 -654.56 -660.32 -660.84 -656.58 -988.92 -991.38 -990.31 -989.71 -999.47 -1001.74 -1000.54 -1000.47 -999.18 -1002.16 -1004.90 -1006.63 -1004.64 -1089.84 -1084.99 -1090.99 -1088.76 -1084.65 -1088.79 -1093.85 -1088.39 -1087.11 -1091.05 -1094.33 -1085.49 -1088.83 -1183.15 -1179.92 -1180.28 -1183.60 -1187.02 -1187.01 -1199.64 -1216.77 -1229.59 -1286.49 -1423.84 -1683.72 -1902.17 -3440.96 -3620.26 -3659.63 -3767.48 -3799.99 -3855.03 -3871.62 -3918.36 -3945.29 -3949.84 -3952.34 -3955.89 -3964.64 -2012.36 -2016.53 -2022.10 -3645.84 -3646.46 -3649.46 -3656.56 -3655.94 -3657.42 -3650.19 -3652.53 -3654.93 -3659.72 -3659.48 -3666.40 -3681.50 -3702.27 -3705.48 -3700.53
1466.73 1465.32 1379.47 1293.16 1239.00 1279.02 1333.44 1377.83 1402.75 1410.80 1418.65 1430.14 1392.64 2300.28 2231.22 2185.96 2170.62 2143.75 2065.98 2021.17 2027.68 2002.98 1973.48 1963.68 1957.47 1951.76 -109.55 -96.36 -101.35 -105.95 -137.60 -133.73 -145.00 -169.63 -161.40 -163.37 -161.82 -154.01 -148.49 -430.86 -416.86 -419.93 -435.84 -429.77 -426.93 -438.58 -453.20 -459.32 -463.13 -460.25 -453.06 -455.69 -653.52 -661.32 -673.86 -672.04 -670.68 -663.74 -654.51 -660.08 -658.41 -665.31 -670.15 -665.74 -661.03 -995.94 -1000.23 -996.78 -999.69 -1000.39 -1007.32 -998.00 -993.99 -1005.93 -1003.72 -997.81 -1002.76 -1005.39 -1083.35 -1087.04 -1088.13 -1088.49 -1094.76 -1093.09 -1087.88 -1092.50 -1091.99 -1086.47 -1089.38 -1091.71 -1093.39 -1179.21 -1178.65 -1182.08 -1182.25 -1182.07 -1182.03 -1192.29 -1195.07 -1254.06 -1308.07 -1351.79 -1567.49 -1944.42 -3290.93 -3504.42 -3570.34 -3677.52 -3795.35 -3814.05 -3858.21 -3878.87 -3918.82 -3929.39 -3953.05 -3946.75 -3955.25 -2002.88 -2004.81 -2012.13 -3641.78 -3637.96 -3648.75 -3649.55 -3650.85 -3652.37 -3653.87 -3656.21 -3657.99 -3651.84 -3665.28 -3673.36 -3686.27 -3712.04 -3705.79 -3705.23
1454.79 1451.52 1362.89 1272.19 1237.97 1287.71 1327.82 1376.17 1377.43 1393.59 1406.85 1397.37 1421.59 2379.43 2278.66 2256.29 2187.49 2129.83 2051.25 2046.43 2045.87 2014.21 2008.98 1986.27 1973.34 1945.14 -116.76 -122.19 -125.34 -137.77 -148.50 -154.22 -165.21 -165.39 -176.25 -162.57 -160.08 -148.16 -138.91 -420.00 -408.39 -409.36 -418.63 -422.21 -433.02 -451.88 -451.99 -468.37 -465.85 -468.65 -458.67 -466.81 -662.90 -664.45 -670.20 -676.70 -673.34 -671.71 -667.66 -662.48 -665.93 -663.87 -675.83 -679.83 -677.02 -997.58 -1001.98 -1001.78 -1000.86 -994.55 -1006.26 -1005.24 -1004.25 -1001.99 -1005.50 -1003.48 -1003.83 -1005.59 -1080.65 -1091.84 -1087.47 -1087.66 -1089.26 -1091.38 -1092.64 -1091.01 -1091.37 -1088.15 -1088.53 -1088.76 -1090.73 -1181.12 -1173.54 -1178.34 -1176.31 -1182.60 -1184.08 -1186.84 -1193.14 -1229.05 -1301.22 -1370.95 -1590.16 -1911.24 -3215.00 -3294.97 -3460.96 -3546.45 -3723.10 -3781.95 -3826.23 -3876.35 -3895.93 -3908.12 -3917.25 -3936.39 -3934.25 -1994.20 -2005.81 -2009.81 -3632.40 -3634.54 -3647.07 -3645.42 -3650.18 -3653.00 -3652.94 -3656.03 -3657.42 -3658.88 -3670.02 -3683.72 -3686.87 -3700.26 -3712.98 -3709.65
1380.60 1382.44 1391.21 1196.19 1172.90 1229.47 1288.22 1310.02 1335.67 1340.20 1366.43 1393.16 1402.04 2354.99 2310.74 2281.65 2208.77 2148.52 2083.92 2084.36 2051.43 2024.52 2008.50 1991.76 1975.39 1949.34 -141.64 -136.77 -130.71 -137.53 -157.56 -159.73 -171.67 -172.56 -163.14 -151.34 -139.87 -131.60 -132.88 -399.35 -403.12 -402.32 -413.27 -420.04 -433.95 -435.79 -469.90 -473.33 -475.70 -467.86 -470.65 -472.37 -676.73 -669.66 -669.19 -673.12 -670.43 -672.75 -675.79 -669.74 -669.68 -675.57 -671.27 -680.88 -679.39 -1004.98 -1002.00 -996.83 -1000.19 -999.03 -1009.06 -1005.76 -1006.52 -1007.56 -1006.02 -999.37 -999.58 -1009.65 -1087.75 -1088.53 -1094.63 -1085.89 -1084.58 -1088.00 -1093.39 -1086.88 -1089.69 -1089.32 -1090.07 -1085.72 -1093.09 -1180.67 -1179.13 -1185.52 -1179.83 -1176.45 -1187.53 -1174.78 -1186.01 -1240.76 -1274.29 -1352.04 -1506.28 -1530.47 -2892.56 -3304.89 -3372.18 -3447.15 -3611.05 -3738.14 -3754.08 -3823.17 -3868.37 -3879.51 -3911.23 -3914.12 -3928.74 -1990.59 -1990.81 -2001.70 -3634.52 -3634.41 -3645.67 -3649.55 -3656.06 -3663.33 -3653.65 -3656.96 -3663.77 -3675.49 -3675.23 -3696.44 -3694.58 -3713.29 -3715.36 -3717.07
1349.60 1354.94 1288.90 1184.00 1165.13 1168.76 1211.14 1243.16 1293.88 1320.34 1339.34 1342.83 1364.51 2300.28 2232.91 2222.24 2241.15 2176.01 2159.35 2105.54 2056.63 1999.56 1988.53 1976.89 1974.03 1946.08 -140.41 -143.54 -145.61 -147.10 -139.49 -150.01 -168.93 -173.98 -154.66 -135.95 -131.15 -119.68 -117.49 -400.70 -398.76 -393.98 -409.79 -423.26 -444.72 -451.46 -471.79 -470.38 -472.07 -462.11 -470.21 -469.61 -675.12 -671.58 -671.95 -665.57 -672.17 -670.55 -677.16 -674.97 -674.31 -667.97 -673.91 -672.35 -676.27 -1003.35 -1002.86 -1000.28 -1009.12 -1005.13 -1004.63 -1007.34 -1007.58 -1009.56 -1011.79 -1009.74 -1008.26 -1003.62 -1092.91 -1090.13 -1089.40 -1088.87 -1084.85 -1087.37 -1088.05 -1086.75 -1089.08 -1085.04 -1093.56 -1089.55 -1091.26 -1183.34 -1180.32 -1178.81 -1184.63 -1180.93 -1182.72 -1182.84 -1177.50 -1192.15 -1243.89 -1309.79 -1347.56 -1614.59 -2930.01 -3222.68 -3279.70 -3456.75 -3569.61 -3611.91 -3706.10 -3786.31 -3811.13 -3860.05 -3874.79 -3882.86 -3912.59 -1984.68 -1987.13 -2001.26 -3621.68 -3634.32 -3645.52 -3648.05 -3657.68 -3665.72 -3664.89 -3670.48 -3672.90 -3680.22 -3691.10 -3689.81 -3699.62 -3721.82 -3726.99 -3736.87
1353.51 1359.28 1302.78 1199.41 1173.81 1141.11 1158.44 1181.53 1221.94 1244.51 1248.79 1244.41 1232.02 2179.44 2136.26 2196.39 2224.94 2215.49 2169.80 2116.56 2045.21 2025.13 1987.91 1964.05 1954.56 1946.90 -140.20 -132.05 -130.70 -122.15 -125.61 -147.64 -171.38 -155.85 -136.30 -119.10 -119.49 -108.98 -107.64 -406.13 -404.99 -403.77 -409.28 -444.82 -448.37 -461.76 -475.32 -476.08 -470.38 -458.44 -458.95 -473.52 -678.47 -670.27 -667.48 -655.73 -659.38 -665.07 -678.85 -672.33 -675.55 -671.83 -670.26 -668.50 -671.96 -1000.53 -1000.37 -1005.61 -1004.69 -1010.98 -1008.62 -1000.56 -1006.63 -1008.82 -1005.13 -1008.27 -1007.24 -1006.20 -1084.93 -1088.13 -1087.82 -1089.13 -1087.30 -1090.86 -1086.82 -1092.84 -1086.63 -1088.81 -1081.72 -1086.24 -1087.60 -1184.99 -1182.08 -1187.19 -1182.96 -1178.67 -1186.05 -1182.04 -1186.25 -1195.73 -1217.03 -1263.50 -1343.42 -1683.00 -2893.23 -3165.96 -3312.60 -3464.58 -3512.63 -3583.20 -3645.76 -3708.47 -3741.49 -3826.29 -3859.74 -3867.52 -3912.64 -1965.69 -1982.33 -1998.91 -3633.14 -3640.65 -3642.29 -3653.18 -3658.14 -3666.63 -3664.45 -3669.55 -3674.75 -3688.40 -3695.18 -3707.67 -3706.07 -3727.71 -3739.98 -3742.62
1425.57 1425.93 1338.69 1231.15 1221.16 1154.84 1129.88 1161.70 1175.54 1183.95 1167.15 1163.27 1161.98 2099.28 2083.42 2136.12 2213.45 2200.84 2160.06 2116.35 2055.33 2015.47 1988.36 1973.15 1954.83 1946.20 -114.77 -118.61 -107.61 -120.11 -127.41 -148.80 -151.90 -145.02 -137.33 -116.23 -118.27 -104.85 -118.61 -415.88 -424.85 -424.01 -444.63 -440.46 -450.73 -465.28 -471.68 -469.28 -465.29 -452.54 -455.31 -447.66 -657.26 -654.28 -655.12 -650.89 -658.49 -667.85 -669.53 -672.28 -672.60 -670.64 -668.97 -669.99 -672.13 -1004.64 -1007.90 -1002.00 -1011.20 -1005.01 -1007.49 -1001.21 -995.59 -1007.82 -1008.16 -1003.60 -1008.05 -1008.73 -1089.84 -1089.34 -1088.64 -1090.96 -1089.41 -1091.51 -1092.65 -1091.98 -1082.91 -1093.20 -1085.86 -1092.70 -1086.68 -1178.53 -1174.82 -1182.15 -1183.48 -1180.26 -1188.31 -1187.56 -1192.91 -1204.99 -1247.59 -1308.05 -1337.85 -1512.77 -2799.42 -3151.27 -3257.69 -3389.08 -3428.42 -3507.13 -3569.12 -3619.24 -3731.61 -3784.35 -3818.65 -3878.04 -3913.06 -1966.38 -1985.22 -1996.91 -3640.60 -3651.04 -3654.93 -3660.53 -3661.11 -3666.33 -3678.18 -3683.24 -3691.55 -3693.44 -3708.74 -3717.69 -3724.21 -3737.23 -3751.90 -3744.78
1430.58 1428.81 1358.42 1282.54 1218.65 1157.48 1126.94 1147.36 1150.12 1165.77 1163.31 1135.00 1121.67 2057.72 2073.41 2124.71 2178.42 2191.94 2161.60 2110.58 2088.24 2029.14 1990.47 1987.44 1974.74 1964.51 -110.33 -102.75 -101.61 -112.63 -144.11 -143.60 -136.61 -131.17 -110.82 -116.23 -107.89 -124.53 -129.23 -446.66 -445.14 -436.86 -445.92 -449.67 -454.93 -468.45 -474.73 -466.68 -458.50 -451.54 -450.54 -448.91 -645.65 -652.51 -646.57 -643.49 -640.18 -655.97 -665.51 -665.10 -668.93 -667.36 -673.45 -675.12 -679.81 -1003.77 -1007.84 -1007.84 -1002.00 -1008.27 -1004.36 -997.26 -999.80 -1004.22 -1008.03 -1003.20 -1007.05 -1003.45 -1091.50 -1093.16 -1086.08 -1083.97 -1085.59 -1086.10 -1094.18 -1087.16 -1088.97 -1095.01 -1089.43 -1087.90 -1088.91 -1180.15 -1181.14 -1178.77 -1185.24 -1176.27 -1183.75 -1182.41 -1205.76 -1233.23 -1273.72 -1327.84 -1342.37 -1478.31 -2724.83 -2924.23 -3130.28 -3233.83 -3382.14 -3426.19 -3508.67 -3593.27 -3675.00 -3749.85 -3802.31 -3883.08 -3917.46 -1970.17 -1991.07 -2004.67 -3648.62 -3643.66 -3653.53 -3663.34 -3672.67 -3674.50 -3688.90 -3686.52 -3698.07 -3712.91 -3707.33 -3720.57 -3722.57 -3744.01 -3762.32 -3759.36
1422.71 1422.51 1425.12 1239.45 1224.86 1172.09 1128.15 1126.45 1124.02 1159.96 1160.08 1138.70 1124.47 2034.53 2042.37 2089.03 2159.34 2179.94 2149.24 2126.49 2102.32 2012.99 1997.75 1981.01 1985.17 1980.82 -90.76 -105.78 -114.66 -131.67 -140.30 -130.71 -123.96 -106.91 -108.96 -105.74 -117.07 -120.53 -138.35 -447.92 -451.52 -455.88 -460.70 -461.08 -471.34 -478.87 -463.65 -450.52 -453.16 -448.80 -444.95 -434.21 -639.04 -640.32 -644.06 -642.23 -636.66 -644.21 -654.91 -661.35 -666.48 -678.14 -673.38 -669.33 -668.93 -1004.22 -1006.33 -1008.10 -1006.57 -1000.08 -1003.90 -1000.52 -999.79 -1008.38 -1010.42 -1005.21 -1004.64 -1009.08 -1089.77 -1081.40 -1085.58 -1093.03 -1087.09 -1082.39 -1090.71 -1091.10 -1090.89 -1088.20 -1095.39 -1093.96 -1088.30 -1178.54 -1181.96 -1179.95 -1183.52 -1177.67 -1182.26 -1188.67 -1201.35 -1223.56 -1256.42 -1264.68 -1303.67 -1492.94 -2770.92 -2979.01 -3154.43 -3191.24 -3235.09 -3347.86 -3417.52 -3512.34 -3563.00 -3727.44 -3751.79 -3856.10 -3901.72 -1967.35 -2004.56 -2007.16 -3640.74 -3650.09 -3651.34 -3661.88 -3668.61 -3678.87 -3688.82 -3693.15 -3701.24 -3710.33 -3711.41 -3722.35 -3737.60 -3763.98 -3771.43 -3771.38
1418.99 1426.33 1350.44 1246.38 1204.14 1165.19 1126.17 1094.43 1111.54 1117.59 1149.67 1135.98 1104.61 2020.92 2031.48 2090.37 2104.87 2140.22 2149.39 2095.52 2062.42 2007.38 2001.90 1975.01 1975.95 1970.53 -97.51 -118.76 -135.92 -132.73 -121.59 -110.96 -103.23 -110.23 -91.96 -99.89 -124.45 -127.68 -153.11 -456.87 -472.44 -466.55 -468.49 -471.86 -470.11 -468.91 -455.73 -446.16 -442.89 -445.50 -436.67 -426.59 -630.69 -630.42 -636.48 -638.96 -641.38 -651.01 -649.95 -657.74 -668.04 -673.55 -678.03 -673.59 -674.20 -1003.08 -1002.69 -998.46 -1001.48 -1003.31 -1003.19 -1003.36 -998.04 -1002.98 -999.99 -1008.52 -1002.55 -1004.91 -1085.58 -1081.60 -1088.19 -1090.89 -1092.20 -1090.54 -1092.40 -1083.89 -1087.71 -1087.12 -1091.87 -1092.11 -1087.58 -1182.17 -1183.63 -1179.32 -1183.24 -1175.69 -1186.17 -1196.02 -1193.62 -1208.91 -1245.47 -1258.38 -1262.19 -1486.15 -2767.21 -2917.43 -3053.47 -3176.62 -3197.17 -3269.94 -3367.82 -3397.38 -3561.76 -3656.39 -3760.01 -3805.26 -3862.03 -1969.92 -2006.43 -2014.20 -3647.15 -3650.47 -3650.82 -3661.24 -3667.97 -3674.64 -3672.91 -3690.08 -3699.99 -3713.70 -3718.13 -3732.69 -3742.41 -3764.37 -3774.17 -3770.20
1432.39 1429.77 1352.70 1237.92 1173.29 1130.97 1097.45 1088.97 1089.32 1108.36 1126.06 1107.20 1091.06 2002.16 2027.75 2061.68 2102.38 2125.71 2127.02 2092.86 2036.64 2023.78 1994.32 1985.91 1970.05 1956.81 -105.15 -125.36 -123.98 -117.58 -112.31 -97.24 -93.50 -96.59 -95.50 -101.22 -121.68 -150.65 -155.05 -450.78 -459.90 -459.07 -463.53 -467.98 -466.65 -457.33 -448.16 -433.63 -427.66 -431.22 -426.42 -436.30 -633.87 -633.46 -638.80 -639.53 -651.59 -655.37 -661.06 -667.14 -677.30 -676.58 -673.09 -670.06 -666.67 -992.03 -992.91 -998.48 -1003.03 -1000.61 -1001.57 -999.61 -1002.65 -1003.40 -1004.94 -997.21 -1004.45 -1005.12 -1082.22 -1090.84 -1092.83 -1085.65 -1086.81 -1088.76 -1091.59 -1091.68 -1092.80 -1088.16 -1087.89 -1085.99 -1086.98 -1177.12 -1180.35 -1176.98 -1186.39 -1175.57 -1180.27 -1179.91 -1181.81 -1188.85 -1193.88 -1242.48 -1267.14 -1443.23 -2685.29 -2952.71 -2991.24 -3106.90 -3176.04 -3235.15 -3272.27 -3424.50 -3468.97 -3653.44 -3738.67 -3772.46 -3835.24 -1995.32 -2007.57 -2020.26 -3638.62 -3640.75 -3648.31 -3653.47 -3657.28 -3668.62 -3678.73 -3689.27 -3698.88 -3703.17 -3716.63 -3723.06 -3736.63 -3753.71 -3770.55 -3768.19
1420.24 1414.51 1331.23 1238.38 1170.10 1086.62 1082.97 1078.61 1104.56 1108.91 1095.15 1099.91 1067.58 2001.88 2010.60 2083.07 2100.49 2126.85 2122.36 2098.86 2077.82 2032.52 2021.45 2000.08 1990.64 1966.35 -110.30 -107.68 -112.37 -106.52 -91.11 -82.97 -80.18 -76.56 -86.82 -98.33 -120.04 -122.00 -139.35 -439.20 -445.44 -447.80 -450.96 -460.01 -458.51 -455.38 -439.93 -429.22 -421.45 -416.26 -422.46 -428.81 -648.34 -646.66 -651.50 -639.98 -652.57 -659.14 -664.88 -670.99 -665.19 -672.86 -665.58 -667.94 -660.04 -989.10 -992.09 -1000.06 -1007.03 -1013.71 -1003.63 -1000.36 -995.15 -996.78 -990.95 -996.68 -999.10 -1007.12 -1090.24 -1086.14 -1089.25 -1090.91 -1090.12 -1087.64 -1086.11 -1088.54 -1091.24 -1084.69 -1090.40 -1092.75 -1094.85 -1182.92 -1181.82 -1176.42 -1182.63 -1182.49 -1183.55 -1180.89 -1178.87 -1184.37 -1210.34 -1232.61 -1296.55 -1331.60 -2488.77 -2748.52 -3028.80 -3051.09 -3142.18 -3157.70 -3216.24 -3383.48 -3456.37 -3646.38 -3718.05 -3759.73 -3791.28 -1948.02 -1981.79 -1993.10 -3613.22 -3633.88 -3632.57 -3649.91 -3647.59 -3654.41 -3671.81 -3689.06 -3701.28 -3700.20 -3715.84 -3730.48 -3737.35 -3755.75 -3766.45 -3766.72
3569.14 3567.69 3496.39 3378.39 3344.21 3298.12 3274.26 3249.39 3281.92 3271.43 3280.31 3265.23 3250.06 2956.43 2984.26 3047.33 3074.62 3104.57 3094.15 3068.30 3066.13 3034.36 3012.07 3001.43 2974.69 2957.28 1146.94 1134.40 1131.45 1123.47 1141.72 1166.48 1159.41 1156.88 1150.47 1134.95 1116.34 1126.92 1108.49 -142.81 -154.94 -163.65 -166.63 -174.73 -182.30 -174.33 -159.80 -150.31 -128.07 -126.22 -134.05 -141.34 -344.81 -344.02 -357.57 -350.75 -361.09 -357.98 -369.72 -368.65 -359.45 -356.07 -357.58 -349.70 -367.32 -586.14 -593.29 -595.83 -602.34 -593.08 -600.77 -586.99 -582.53 -581.50 -577.80 -586.77 -592.31 -596.10 -717.43 -723.61 -727.39 -724.12 -732.62 -726.59 -727.51 -725.20 -726.55 -725.55 -726.58 -725.58 -725.59 -1200.54 -1191.74 -1196.12 -1192.34 -1194.95 -1197.55 -1189.61 -1196.95 -1201.51 -1195.62 -1240.52 -1320.07 -1336.18 -2183.48 -2394.09 -2533.33 -2636.00 -2820.49 -2860.82 -2888.40 -2981.00 -3222.44 -3335.41 -3387.49 -3463.28 -3509.54 -1899.44 -1944.26 -1959.08 -3693.39 -3715.23 -3735.93 -3748.33 -3751.42 -3762.34 -3770.42 -3792.46 -3803.60 -3813.72 -3820.15 -3832.41 -3845.00 -3854.23 -3873.29 -3874.46
3533.28 3531.71 3441.98 3334.48 3311.93 3310.67 3273.23 3264.83 3240.04 3252.18 3238.22 3251.91 3251.72 2963.15 2978.63 3007.97 3048.14 3053.06 3083.95 3067.09 3063.43 3060.92 3049.34 3020.57 2997.46 2966.40 1150.45 1150.25 1147.34 1145.31 1147.04 1157.81 1154.29 1157.15 1148.13 1125.19 1118.33 1115.29 1094.25 -144.37 -163.81 -168.16 -174.85 -173.93 -176.29 -171.21 -171.97 -156.06 -139.26 -139.18 -136.70 -138.42 -328.88 -342.76 -339.66 -343.43 -350.49 -353.58 -366.77 -353.79 -347.63 -346.00 -348.04 -358.93 -359.44 -594.38 -600.27 -592.01 -593.62 -586.31 -582.31 -590.96 -583.55 -582.60 -580.31 -585.09 -597.32 -596.23 -724.96 -723.60 -726.83 -728.89 -727.61 -730.39 -729.27 -728.20 -724.59 -719.66 -729.57 -720.67 -722.22 -1194.21 -1195.49 -1199.98 -1197.58 -1190.34 -1192.57 -1196.41 -1190.57 -1199.05 -1199.82 -1200.84 -1266.70 -1325.79 -2072.78 -2330.96 -2390.47 -2535.03 -2593.36 -2720.67 -2864.56 -2970.84 -3126.28 -3267.82 -3358.14 -3419.85 -3461.50 -1851.20 -1900.69 -1907.74 -3680.64 -3663.36 -3688.20 -3694.07 -3725.85 -3730.58 -3743.81 -3779.02 -3794.66 -3800.41 -3822.87 -3825.59 -3836.32 -3857.52 -3864.97 -3858.34
3535.37 3532.05 3440.88 3310.16 3298.01 3283.10 3280.83 3260.22 3249.84 3241.14 3233.52 3226.03 3224.77 2938.14 2952.91 2963.73 2982.14 3039.93 3037.45 3052.05 3062.10 3063.60 3055.49 3037.49 3013.02 2975.40 1149.98 1150.93 1153.02 1164.66 1166.22 1160.77 1148.90 1146.30 1129.43 1109.74 1093.00 1095.01 1094.45 -162.91 -177.34 -178.31 -178.53 -169.47 -157.35 -156.98 -164.88 -159.41 -140.77 -126.80 -134.06 -132.87 -325.41 -323.53 -332.60 -337.54 -337.75 -343.55 -357.20 -338.69 -337.54 -338.85 -343.89 -354.13 -359.79 -590.17 -589.45 -588.67 -582.48 -582.81 -578.43 -581.85 -582.88 -572.19 -576.09 -592.14 -591.03 -593.94 -723.01 -719.01 -720.89 -732.94 -722.98 -726.09 -721.93 -725.71 -732.86 -735.01 -730.64 -726.17 -726.75 -1194.14 -1192.35 -1189.28 -1200.57 -1193.24 -1199.99 -1195.81 -1192.84 -1196.40 -1196.96 -1200.05 -1199.63 -1247.66 -1954.55 -2100.05 -2238.01 -2254.03 -2471.52 -2630.90 -2768.63 -2854.35 -3041.41 -3185.33 -3318.53 -3360.38 -3439.40 -1777.31 -1824.21 -1853.43 -3583.03 -3574.16 -3586.77 -3614.36 -3620.80 -3674.36 -3719.30 -3739.73 -3775.36 -3778.57 -3795.03 -3811.39 -3816.40 -3836.42 -3844.84 -3848.05
3616.96 3612.69 3481.57 3320.87 3297.58 3283.91 3281.04 3272.29 3254.11 3244.80 3241.19 3228.36 3234.39 2955.21 2944.38 2955.47 2944.25 2977.86 2991.94 3037.32 3043.91 3050.88 3046.17 3035.76 3042.51 3004.76 1187.14 1175.06 1174.07 1176.81 1170.68 1157.32 1138.78 1136.63 1114.65 1096.59 1080.45 1087.20 1076.73 -162.28 -173.25 -182.22 -174.80 -167.69 -155.09 -149.90 -147.81 -137.73 -135.39 -130.80 -125.66 -131.14 -320.51 -324.93 -319.29 -327.50 -331.28 -331.43 -335.87 -330.44 -324.29 -326.00 -340.15 -346.63 -349.45 -589.20 -589.88 -573.38 -568.27 -578.90 -581.63 -569.22 -575.68 -577.56 -585.78 -585.30 -590.17 -584.88 -714.43 -715.71 -719.78 -723.73 -726.42 -722.18 -724.94 -722.62 -721.71 -727.32 -727.15 -727.16 -729.55 -1197.45 -1193.32 -1194.73 -1188.77 -1192.08 -1193.26 -1196.82 -1194.26 -1196.15 -1194.15 -1201.75 -1193.25 -1210.61 -1912.61 -1916.70 -2104.26 -2179.67 -2290.45 -2463.92 -2556.39 -2701.90 -2994.24 -3088.76 -3187.13 -3251.15 -3365.61 -1726.67 -1763.00 -1764.93 -3500.68 -3551.93 -3565.28 -3599.98 -3605.61 -3627.05 -3661.90 -3685.88 -3743.19 -3770.65 -3782.40 -3795.54 -3816.01 -3830.43 -3828.02 -3832.84
3567.12 3562.89 3487.99 3328.19 3313.47 3305.47 3321.65 3281.58 3290.65 3262.64 3263.64 3248.26 3238.69 2970.59 2961.53 2941.59 2931.57 2957.81 2985.48 2964.44 3012.20 3025.53 3052.13 3046.14 3051.61 3028.74 1193.06 1179.77 1178.88 1167.88 1149.00 1142.41 1135.36 1117.86 1106.76 1092.42 1075.58 1079.04 1062.39 -171.12 -169.11 -166.66 -177.27 -174.56 -162.87 -145.55 -134.70 -122.67 -120.70 -121.17 -108.49 -125.04 -313.41 -315.32 -311.44 -311.72 -320.97 -320.43 -329.12 -327.11 -321.98 -322.81 -324.78 -340.04 -351.68 -579.26 -580.87 -577.27 -567.60 -565.22 -568.98 -567.73 -569.98 -568.26 -577.67 -584.63 -579.23 -587.81 -712.48 -715.05 -715.07 -718.59 -720.03 -726.98 -719.09 -723.31 -727.83 -727.82 -728.53 -726.18 -728.82 -1193.07 -1194.56 -1199.19 -1202.31 -1195.87 -1198.18 -1195.06 -1192.50 -1197.25 -1187.62 -1194.99 -1202.14 -1213.26 -1914.88 -1916.23 -1917.59 -2027.10 -2208.26 -2269.94 -2468.21 -2709.55 -2805.37 -3016.22 -3147.31 -3191.40 -3241.98 -1543.99 -1652.48 -1739.54 -3450.86 -3481.00 -3458.18 -3518.23 -3546.39 -3597.49 -3595.33 -3641.12 -3727.81 -3744.69 -3742.43 -3773.69 -3782.80 -3802.46 -3806.69 -3802.95
3654.74 3654.45 3613.68 3334.34 3337.23 3351.55 3363.22 3344.29 3296.40 3291.79 3293.51 3263.55 3267.53 3003.15 2987.29 2943.31 2927.67 2955.99 2966.79 2959.17 2961.58 2989.93 3018.08 3036.41 3043.25 3039.59 1225.38 1195.08 1181.01 1166.74 1142.65 1116.59 1109.57 1111.30 1084.60 1079.66 1059.51 1057.90 1064.94 -166.67 -147.63 -159.92 -169.89 -174.41 -166.16 -147.21 -114.39 -111.67 -108.79 -109.36 -107.97 -108.66 -300.12 -306.46 -300.04 -310.24 -304.31 -319.54 -316.33 -321.98 -316.57 -317.30 -325.66 -331.77 -335.79 -571.10 -567.70 -572.25 -561.90 -568.52 -563.22 -568.08 -557.35 -566.98 -569.48 -571.83 -575.35 -581.17 -705.75 -707.46 -714.64 -719.10 -719.84 -719.85 -718.55 -723.99 -723.69 -723.66 -722.01 -721.29 -728.23 -1188.97 -1197.59 -1190.57 -1195.76 -1200.73 -1190.80 -1193.57 -1200.70 -1194.29 -1191.82 -1200.86 -1201.14 -1202.74 -1912.36 -1904.89 -1919.12 -1918.76 -2023.93 -2253.76 -2408.93 -2717.44 -2855.31 -2911.61 -3079.18 -3139.92 -3159.45 -1505.75 -1535.06 -1605.96 -3357.59 -3367.31 -3390.32 -3439.23 -3445.89 -3504.07 -3551.56 -3555.38 -3656.24 -3706.64 -3735.38 -3753.89 -3746.26 -3768.39 -3774.91 -3774.57
3585.29 3587.56 3493.39 3373.21 3348.41 3382.39 3429.07 3419.20 3357.05 3321.19 3297.71 3294.62 3284.91 2999.20 2982.14 2946.23 2929.73 2934.34 2945.07 2939.14 2949.06 2990.01 3002.35 3016.74 3022.97 3043.21 1238.40 1211.93 1184.92 1169.88 1149.51 1123.40 1105.30 1095.74 1085.99 1068.73 1057.65 1069.41 1073.67 -148.09 -148.13 -143.56 -159.58 -164.68 -158.96 -153.28 -110.83 -90.12 -100.32 -95.94 -102.67 -107.77 -304.22 -303.04 -300.63 -314.09 -313.37 -314.81 -319.52 -325.55 -318.85 -315.41 -322.47 -324.97 -325.93 -555.47 -563.25 -558.55 -569.60 -564.29 -568.28 -564.36 -571.74 -562.21 -575.72 -569.63 -579.11 -576.21 -692.74 -702.39 -719.15 -718.81 -715.29 -718.35 -711.24 -718.75 -717.78 -717.26 -727.27 -728.42 -728.60 -1191.23 -1196.90 -1196.47 -1195.38 -1195.97 -1197.51 -1198.37 -1195.20 -1193.26 -1196.91 -1191.75 -1197.51 -1202.12 -1902.46 -1906.41 -1903.95 -1915.08 -2010.00 -2099.43 -2500.12 -2698.20 -2852.18 -2867.34 -2968.42 -3083.27 -3090.80 -1392.58 -1394.38 -1392.10 -3201.59 -3236.48 -3272.98 -3332.31 -3376.25 -3443.35 -3471.09 -3529.81 -3575.38 -3630.64 -3657.46 -3667.74 -3705.30 -3739.28 -3730.09 -3724.99
3588.35 3592.63 3477.84 3351.08 3392.28 3445.38 3475.74 3480.71 3404.58 3376.06 3324.71 3315.41 3309.45 3001.79 3002.19 2976.84 2940.54 2926.98 2921.54 2916.70 2927.26 2950.61 2974.60 2990.37 3019.93 3033.95 1246.98 1218.43 1219.45 1193.81 1163.57 1116.71 1109.20 1098.98 1078.57 1067.27 1057.42 1071.44 1082.96 -132.22 -125.44 -136.76 -153.29 -162.50 -158.57 -135.78 -106.24 -88.94 -97.76 -96.86 -104.41 -105.71 -311.54 -317.41 -308.77 -320.90 -327.91 -330.98 -334.73 -323.18 -321.46 -324.71 -320.68 -325.84 -321.48 -558.41 -551.07 -561.78 -556.09 -565.81 -564.88 -565.20 -562.22 -568.65 -571.75 -584.40 -588.77 -580.87 -712.19 -705.57 -717.06 -713.40 -711.27 -712.43 -720.69 -716.84 -713.89 -719.78 -716.39 -722.79 -717.97 -1187.96 -1193.75 -1197.42 -1194.74 -1193.83 -1197.34 -1194.37 -1199.61 -1197.11 -1194.56 -1193.85 -1197.70 -1199.70 -1895.01 -1903.33 -1899.66 -1899.13 -1910.44 -2051.65 -2232.75 -2587.10 -2699.22 -2799.05 -2939.88 -3010.35 -3004.36 -1332.41 -1322.03 -1369.47 -3121.62 -3157.22 -3219.68 -3227.40 -3247.79 -3335.04 -3426.07 -3454.29 -3483.83 -3499.93 -3555.67 -3622.45 -3631.38 -3681.42 -3684.88 -3682.59
3713.70 3703.50 3559.79 3395.95 3467.53 3520.94 3505.74 3511.90 3464.13 3386.88 3353.91 3344.85 3321.38 3017.60 2991.86 2989.13 2978.27 2962.70 2929.46 2929.09 2911.35 2929.13 2947.39 2981.47 2993.35 3024.57 1224.57 1226.55 1200.03 1185.35 1182.12 1146.31 1115.74 1102.65 1085.28 1070.69 1059.48 1063.20 1079.02 -127.36 -116.61 -122.02 -138.43 -146.33 -146.42 -116.92 -102.48 -91.68 -97.11 -107.57 -111.34 -121.11 -309.60 -319.35 -328.30 -329.48 -337.58 -344.58 -337.31 -330.47 -328.29 -325.88 -331.36 -320.80 -328.32 -555.70 -558.20 -561.76 -554.31 -568.99 -576.18 -575.77 -582.32 -581.41 -581.41 -594.25 -599.30 -594.53 -710.63 -712.57 -717.92 -716.84 -715.66 -720.46 -711.08 -715.84 -720.70 -715.88 -716.29 -719.60 -727.08 -1192.19 -1197.06 -1195.72 -1190.01 -1195.93 -1194.39 -1200.15 -1192.66 -1195.25 -1196.66 -1190.80 -1193.83 -1200.11 -1901.15 -1898.37 -1898.36 -1901.39 -1906.78 -2001.35 -2154.10 -2419.68 -2526.11 -2656.42 -2778.55 -2867.18 -2983.77 -1264.92 -1285.48 -1310.54 -3083.82 -3090.55 -3117.41 -3137.80 -3197.75 -3200.20 -3252.86 -3289.76 -3342.99 -3456.13 -3514.92 -3561.06 -3580.83 -3582.68 -3632.72 -3624.58
3683.02 3683.77 3558.20 3466.56 3457.22 3542.27 3544.28 3551.00 3490.29 3422.68 3369.72 3374.48 3345.02 3005.11 2985.06 2994.21 2984.87 2966.35 2955.45 2936.04 2910.23 2927.87 2919.38 2960.05 2972.86 2992.73 1198.15 1200.90 1201.55 1180.00 1173.09 1150.44 1103.36 1099.90 1084.21 1066.16 1054.42 1062.37 1077.41 -132.14 -108.83 -115.98 -127.86 -130.87 -119.05 -109.96 -99.79 -88.54 -93.73 -105.05 -112.29 -130.80 -323.55 -339.45 -340.85 -338.92 -343.65 -356.25 -348.29 -337.80 -339.73 -335.68 -341.90 -349.88 -353.89 -578.83 -572.28 -565.32 -571.96 -583.94 -592.92 -595.79 -587.86 -581.70 -600.46 -597.40 -597.61 -597.29 -718.39 -722.92 -719.03 -720.44 -713.97 -716.98 -711.48 -713.59 -711.97 -720.54 -721.26 -723.85 -723.57 -1195.30 -1193.32 -1197.14 -1192.71 -1197.36 -1194.62 -1194.10 -1190.58 -1200.31 -1197.24 -1190.86 -1199.10 -1197.23 -1894.38 -1896.40 -1899.09 -1902.61 -1913.56 -1919.55 -2069.81 -2252.81 -2321.45 -2479.03 -2707.88 -2847.46 -2940.18 -1227.60 -1205.68 -1244.89 -2977.19 -3000.15 -3005.68 -3049.32 -3058.87 -3103.26 -3178.05 -3199.51 -3306.60 -3337.02 -3413.69 -3521.08 -3525.45 -3576.34 -3558.16 -3560.84
3721.87 3714.49 3776.29 3473.59 3523.92 3560.39 3612.10 3599.76 3552.11 3436.52 3372.89 3352.64 3327.99 3001.40 2976.24 2967.30 2976.49 2983.66 2971.91 2951.49 2943.77 2918.35 2918.61 2927.80 2964.15 2970.53 1176.78 1198.36 1170.09 1164.26 1146.27 1148.02 1094.88 1065.55 1068.64 1053.79 1065.51 1063.55 1087.84 -135.84 -114.40 -103.77 -111.20 -113.19 -108.12 -100.97 -88.08 -88.88 -91.91 -117.26 -130.27 -143.92 -330.75 -342.55 -334.12 -328.25 -331.50 -347.86 -359.22 -348.03 -341.18 -348.31 -356.50 -360.35 -366.54 -587.87 -586.60 -581.55 -584.44 -591.68 -591.58 -594.61 -601.57 -596.53 -593.85 -599.11 -600.01 -605.14 -720.40 -728.31 -722.03 -723.30 -718.47 -718.90 -720.49 -714.40 -727.30 -723.60 -722.77 -722.37 -728.32 -1191.58 -1197.28 -1193.34 -1188.98 -1192.59 -1188.54 -1196.34 -1194.55 -1194.16 -1191.10 -1194.33 -1192.03 -1197.58 -1898.10 -1897.39 -1890.78 -1898.85 -1906.57 -1911.75 -1946.35 -2153.77 -2269.36 -2515.68 -2714.09 -2876.85 -2898.88 -1154.13 -1155.09 -1169.24 -2909.40 -2891.53 -2894.97 -2956.05 -2934.90 -2981.59 -3049.94 -3097.18 -3219.13 -3252.90 -3301.52 -3366.08 -3433.70 -3472.65 -3493.56 -3492.48
3970.39 3969.29 3763.88 3613.39 3568.88 3621.33 3653.74 3642.20 3587.46 3487.76 3391.74 3373.07 3299.55 2985.13 2967.44 2955.62 2955.80 2963.47 2969.27 2962.57 2935.98 2913.73 2905.74 2914.64 2929.11 2956.83 1168.25 1171.53 1138.69 1138.43 1121.90 1087.17 1077.15 1057.01 1063.84 1060.89 1072.14 1079.42 1095.37 -127.89 -115.47 -98.05 -102.62 -88.40 -82.83 -83.24 -87.18 -89.47 -102.54 -112.30 -127.01 -134.86 -332.61 -330.49 -318.84 -326.51 -339.76 -343.82 -354.62 -354.24 -354.95 -354.88 -354.24 -356.26 -374.97 -598.10 -590.64 -576.13 -584.99 -587.13 -597.90 -593.52 -598.33 -595.59 -601.61 -603.45 -598.29 -605.81 -723.31 -731.75 -732.74 -727.78 -726.71 -728.65 -730.06 -725.42 -722.21 -727.52 -728.68 -734.45 -728.38 -1197.63 -1193.20 -1194.14 -1187.91 -1193.62 -1191.20 -1191.42 -1197.82 -1199.32 -1195.45 -1194.01 -1191.38 -1197.46 -1896.98 -1891.25 -1896.73 -1897.63 -1901.21 -1911.87 -2024.68 -2122.22 -2355.36 -2555.92 -2746.13 -2861.52 -2854.53 -1141.29 -1110.12 -1085.80 -2816.88 -2847.55 -2804.06 -2835.45 -2898.99 -2899.80 -2911.87 -3019.99 -3071.92 -3131.96 -3223.57 -3252.42 -3335.24 -3422.78 -3413.04 -3406.53
1719.15 1718.40 1618.19 1386.74 1342.61 1372.79 1396.04 1383.65 1317.92 1197.36 1128.01 1049.99 980.95 61.50 40.80 17.10 20.65 21.99 16.66 7.61 8.51 -7.62 -18.21 -17.56 0.06 19.33 731.35 729.55 717.40 693.16 677.05 662.04 655.36 657.78 653.60 657.09 678.24 690.62 703.07 684.58 715.96 735.90 728.38 731.68 742.14 735.11 730.71 726.10 715.55 701.58 684.34 674.49 -170.29 -161.54 -156.59 -170.64 -177.62 -194.44 -192.81 -189.40 -198.92 -195.62 -189.74 -199.99 -211.87 -260.02 -257.45 -259.21 -250.22 -254.14 -249.76 -261.91 -264.12 -257.95 -257.51 -251.24 -252.46 -261.29 -700.86 -693.66 -695.56 -699.84 -700.50 -692.70 -698.91 -699.32 -699.74 -696.44 -699.84 -699.84 -698.64 -1179.14 -1177.51 -1178.05 -1170.94 -1167.51 -1169.86 -1170.82 -1173.98 -1173.97 -1174.19 -1169.11 -1170.81 -1170.40 -1574.05 -1576.82 -1575.46 -1577.73 -1579.91 -1595.74 -1731.26 -1874.64 -2111.75 -2257.48 -2419.56 -2495.02 -2506.62 -1099.31 -1056.35 -1049.39 -2662.00 -2652.92 -2667.18 -2672.66 -2667.96 -2655.17 -2655.68 -2742.04 -2827.12 -2876.07 -2969.67 -3090.71 -3094.14 -3227.17 -3226.13 -3225.46
1893.79 1891.41 1691.83 1428.10 1426.34 1463.00 1429.81 1367.97 1271.55 1234.06 1115.67 1037.98 978.41 52.89 44.52 29.41 15.60 7.17 -2.77 -5.97 -9.06 -28.46 -34.96 -23.30 -5.97 -1.55 723.35 716.69 702.86 685.49 673.17 651.99 658.22 664.90 669.72 677.29 686.88 705.55 726.19 731.43 723.83 740.32 737.67 741.62 743.77 741.27 725.58 725.91 720.42 704.09 681.15 684.71 -166.88 -153.21 -151.28 -162.25 -174.74 -173.68 -186.01 -178.50 -196.22 -194.97 -182.88 -188.58 -204.13 -256.26 -259.13 -261.50 -265.02 -260.11 -254.53 -261.15 -257.50 -255.86 -250.56 -250.86 -247.98 -262.61 -686.32 -694.72 -692.93 -698.42 -698.65 -695.32 -691.32 -690.72 -697.01 -685.06 -698.01 -700.64 -700.53 -1169.61 -1174.11 -1173.39 -1170.59 -1165.47 -1171.89 -1173.29 -1171.56 -1176.29 -1174.35 -1173.65 -1172.89 -1172.51 -1574.99 -1578.28 -1574.88 -1577.88 -1586.88 -1589.88 -1712.35 -1952.61 -2183.61 -2221.90 -2372.97 -2411.27 -2474.02 -1055.65 -1040.97 -1029.10 -2662.78 -2622.81 -2602.57 -2594.57 -2598.54 -2627.12 -2635.84 -2629.49 -2672.25 -2790.42 -2905.94 -2970.98 -3033.90 -3060.54 -3141.38 -3138.62
1878.24 1882.71 1666.53 1555.58 1501.81 1493.67 1443.09 1352.04 1298.58 1161.55 1096.51 1009.53 1010.04 65.73 40.04 38.37 19.42 15.74 -8.36 -15.30 -22.72 -19.01 -26.61 -36.16 -33.79 -24.42 702.67 694.87 691.66 669.31 665.61 663.02 671.48 679.13 671.89 714.01 712.14 738.23 752.86 747.13 746.91 756.64 742.88 741.13 743.78 739.25 723.87 714.49 708.03 703.22 694.45 677.83 -158.08 -158.16 -151.95 -161.70 -168.94 -164.74 -157.80 -171.97 -181.82 -186.20 -180.17 -182.51 -197.79 -252.62 -243.85 -250.66 -257.12 -259.36 -270.33 -261.51 -253.67 -248.56 -243.12 -247.49 -241.47 -240.40 -683.35 -683.72 -684.92 -694.36 -689.23 -690.14 -696.51 -697.06 -693.77 -693.91 -693.49 -695.00 -699.60 -1171.11 -1172.05 -1169.66 -1175.51 -1161.67 -1169.65 -1165.22 -1172.02 -1175.44 -1166.22 -1180.84 -1172.93 -1178.26 -1573.14 -1581.84 -1575.96 -1580.05 -1584.91 -1599.67 -1600.59 -1915.51 -2143.45 -2198.77 -2308.61 -2436.19 -2449.20 -1047.17 -1021.60 -994.44 -2613.55 -2607.84 -2558.34 -2564.68 -2522.38 -2540.28 -2545.45 -2568.54 -2634.10 -2660.66 -2752.67 -2954.24 -2955.26 -3053.47 -3062.92 -3060.76
1783.53 1783.04 1795.12 1455.90 1481.10 1423.16 1312.51 1289.87 1252.90 1222.57 1101.85 1094.34 1034.03 129.38 91.03 63.57 49.63 21.84 8.16 -5.44 -3.12 -21.35 -29.42 -29.88 -36.93 -29.34 682.71 679.74 673.97 665.15 658.90 661.61 685.21 707.22 722.70 742.40 725.62 753.88 778.79 780.30 762.86 744.85 743.46 737.46 732.90 724.83 702.04 702.11 702.38 703.96 699.07 689.78 -159.79 -144.66 -147.98 -145.96 -156.40 -161.21 -153.23 -162.50 -170.25 -179.45 -176.93 -172.55 -178.24 -227.85 -238.28 -245.43 -248.71 -259.68 -266.44 -259.41 -255.11 -243.55 -245.81 -239.09 -228.42 -236.64 -673.99 -676.86 -685.49 -684.83 -687.57 -694.25 -685.92 -694.98 -694.24 -695.14 -690.99 -696.78 -696.84 -1173.48 -1167.53 -1174.44 -1166.90 -1169.90 -1171.61 -1170.96 -1181.78 -1170.14 -1174.66 -1171.84 -1168.10 -1175.29 -1580.74 -1576.55 -1575.16 -1583.10 -1589.63 -1597.31 -1617.97 -1980.32 -2208.62 -2227.36 -2291.07 -2417.22 -2430.52 -1013.45 -999.58 -979.53 -2562.86 -2525.19 -2499.61 -2506.99 -2481.40 -2471.54 -2477.73 -2478.46 -2551.48 -2582.68 -2651.69 -2765.06 -2863.74 -2938.70 -2991.42 -2987.53
1725.49 1728.05 1591.48 1430.16 1366.27 1330.80 1213.98 1251.45 1306.48 1310.60 1244.30 1127.40 1111.74 156.32 134.82 102.08 89.70 48.69 31.13 15.93 -5.04 -2.81 -3.81 -33.71 -38.03 -38.19 665.45 670.97 660.58 662.44 664.43 675.01 691.66 719.88 724.06 761.96 759.49 772.75 783.97 777.46 753.09 742.26 736.38 735.67 725.91 707.55 703.23 702.74 698.84 705.39 706.47 703.40 -152.12 -144.40 -130.79 -140.21 -145.67 -149.58 -141.13 -152.65 -165.27 -170.01 -180.71 -174.65 -177.22 -226.64 -224.78 -235.37 -243.88 -256.46 -262.18 -259.60 -247.77 -250.06 -232.59 -234.49 -232.81 -238.25 -671.39 -672.60 -677.15 -683.02 -691.62 -688.92 -693.06 -702.71 -695.90 -699.65 -693.74 -693.33 -696.75 -1171.28 -1178.62 -1169.63 -1168.30 -1175.33 -1176.46 -1174.19 -1176.92 -1174.11 -1175.59 -1174.04 -1175.49 -1172.85 -1575.45 -1585.47 -1580.13 -1586.92 -1596.60 -1605.02 -1632.17 -1867.43 -2116.08 -2226.56 -2339.92 -2394.75 -2404.89 -1001.91 -999.30 -934.70 -2534.71 -2514.85 -2489.88 -2443.53 -2431.70 -2435.76 -2437.52 -2462.51 -2499.13 -2513.77 -2545.18 -2658.99 -2778.50 -2894.80 -2923.93 -2928.79
1714.13 1720.80 1539.00 1368.73 1247.63 1185.36 1207.77 1227.81 1308.98 1309.10 1245.22 1170.14 1132.03 169.21 129.00 108.23 110.40 93.02 75.40 36.13 21.68 21.82 13.70 -5.82 -28.32 -38.00 673.89 665.42 671.31 661.58 665.73 676.19 699.26 710.80 749.77 769.28 794.18 798.53 796.55 770.95 745.45 738.83 737.95 721.32 714.06 707.78 705.84 705.01 706.24 717.21 717.75 711.78 -157.41 -143.32 -135.66 -135.11 -139.47 -144.66 -151.21 -155.26 -159.26 -172.50 -177.84 -179.39 -183.73 -228.88 -227.84 -240.88 -252.73 -260.75 -263.95 -246.37 -231.31 -235.05 -228.56 -227.39 -230.17 -234.69 -668.21 -672.22 -669.38 -686.11 -688.42 -701.58 -697.75 -697.24 -698.98 -696.39 -698.74 -699.26 -694.17 -1172.75 -1176.95 -1171.25 -1169.42 -1170.39 -1176.39 -1166.63 -1175.26 -1172.51 -1173.14 -1175.72 -1172.24 -1179.24 -1576.20 -1586.84 -1588.31 -1592.89 -1591.75 -1625.82 -1655.15 -1785.03 -2027.00 -2268.41 -2348.78 -2362.02 -2395.60 -975.12 -956.66 -910.44 -2514.19 -2495.92 -2447.41 -2406.79 -2382.13 -2375.27 -2391.03 -2395.51 -2440.57 -2463.61 -2530.38 -2616.76 -2680.73 -2881.21 -2877.28 -2875.80
1530.99 1535.56 1573.98 1252.45 1234.67 1175.20 1141.28 1192.52 1273.66 1277.73 1221.61 1209.53 1189.97 219.92 190.64 140.94 154.01 135.88 97.80 73.39 59.29 56.76 20.91 -2.83 -17.31 -10.81 681.98 671.75 677.47 678.39 680.34 689.96 714.11 716.09 749.60 784.21 805.85 798.16 794.11 765.52 743.67 731.04 728.43 721.65 712.86 710.29 718.29 719.07 730.35 729.86 722.24 715.37 -145.36 -144.15 -131.98 -129.49 -144.28 -149.12 -147.01 -162.31 -172.56 -174.83 -195.29 -197.13 -195.97 -242.88 -245.67 -242.29 -250.64 -249.16 -249.79 -247.13 -233.91 -228.61 -230.77 -222.33 -227.73 -232.10 -661.67 -677.34 -677.98 -687.04 -684.13 -692.88 -697.15 -700.51 -697.90 -699.25 -694.26 -700.94 -697.83 -1167.07 -1175.91 -1175.62 -1177.87 -1172.31 -1180.48 -1175.39 -1178.63 -1174.90 -1171.54 -1166.53 -1175.40 -1180.40 -1570.19 -1577.42 -1583.52 -1596.41 -1591.14 -1625.40 -1654.57 -1821.59 -1932.99 -2157.49 -2303.72 -2333.30 -2356.66 -962.12 -941.12 -898.24 -2490.71 -2476.02 -2442.18 -2391.31 -2368.63 -2362.82 -2358.68 -2347.12 -2379.33 -2423.26 -2494.43 -2589.59 -2674.92 -2772.37 -2831.34 -2831.22
1478.72 1481.87 1342.22 1257.45 1196.01 1142.32 1117.80 1177.11 1214.03 1201.09 1193.49 1202.82 1214.25 251.97 208.95 157.70 163.88 157.50 96.99 71.25 59.73 24.95 12.54 -17.38 -4.33 0.94 699.01 703.34 697.38 692.71 696.43 699.53 718.68 725.18 758.21 790.76 798.42 800.85 785.32 750.90 735.47 728.53 721.84 712.69 711.57 720.17 733.42 741.59 743.58 740.90 735.88 720.34 -141.36 -129.20 -133.11 -134.74 -146.93 -155.81 -163.10 -173.28 -177.05 -191.30 -191.84 -192.87 -197.58 -236.65 -244.10 -245.99 -236.86 -241.51 -241.75 -231.76 -238.09 -229.50 -221.27 -226.54 -235.85 -236.95 -676.24 -680.96 -686.18 -685.16 -696.30 -697.62 -696.03 -694.49 -695.89 -694.97 -692.96 -698.10 -697.69 -1173.96 -1172.93 -1176.30 -1172.02 -1175.12 -1169.04 -1172.72 -1171.41 -1172.38 -1173.74 -1169.53 -1181.53 -1180.65 -1580.43 -1578.98 -1571.58 -1588.68 -1589.53 -1615.58 -1711.95 -1757.24 -1938.67 -2119.98 -2291.69 -2315.57 -2346.22 -955.48 -910.41 -875.68 -2459.33 -2441.87 -2384.77 -2338.02 -2340.16 -2315.87 -2319.51 -2344.39 -2381.04 -2416.25 -2437.18 -2561.59 -2613.70 -2747.29 -2792.08 -2788.39
1468.89 1466.49 1347.02 1218.72 1150.33 1096.43 1115.65 1157.80 1184.93 1172.76 1146.67 1171.32 1188.55 288.26 253.53 200.08 171.23 147.84 81.12 31.50 29.60 7.69 1.82 -2.36 16.65 32.27 716.51 703.45 709.70 718.00 710.78 712.41 725.25 740.71 758.92 784.44 801.71 794.54 774.46 743.61 734.36 730.90 721.43 715.13 722.21 730.47 739.32 749.98 766.96 750.54 744.30 732.09 -126.22 -127.04 -137.38 -141.56 -151.04 -155.27 -163.88 -180.48 -184.53 -182.23 -176.95 -180.22 -182.09 -235.26 -242.18 -243.30 -229.36 -237.05 -228.14 -238.38 -232.96 -230.82 -229.59 -232.47 -237.10 -242.96 -682.05 -684.28 -691.47 -687.60 -697.48 -701.39 -700.84 -691.45 -691.36 -689.91 -684.28 -686.92 -695.07 -1173.50 -1180.24 -1168.78 -1173.35 -1174.62 -1164.27 -1169.63 -1170.51 -1169.88 -1175.72 -1177.57 -1176.85 -1175.09 -1574.13 -1576.12 -1580.36 -1588.26 -1591.18 -1600.98 -1691.10 -1841.63 -1962.37 -2048.84 -2249.87 -2278.66 -2314.64 -912.32 -875.35 -832.62 -2431.99 -2418.05 -2349.38 -2337.10 -2300.10 -2302.35 -2301.58 -2304.08 -2348.92 -2371.88 -2414.57 -2504.10 -2536.97 -2749.67 -2745.99 -2748.76
1521.07 1525.88 1395.36 1234.59 1160.74 1091.40 1084.18 1099.60 1126.15 1119.37 1119.91 1132.77 1177.39 274.47 247.86 190.20 183.93 153.90 85.32 15.77 19.70 14.76 20.79 13.02 24.84 20.51 730.43 716.94 731.11 742.95 747.41 741.88 729.50 751.55 774.03 796.31 804.28 794.73 780.64 749.61 736.34 724.66 725.38 729.32 739.48 739.28 752.80 773.12 769.27 762.15 745.12 742.45 -117.59 -124.16 -132.22 -145.56 -151.12 -173.05 -174.16 -171.81 -177.91 -169.78 -170.43 -162.23 -177.15 -227.96 -226.16 -226.41 -215.61 -228.72 -232.85 -234.08 -237.73 -228.52 -236.14 -226.69 -239.69 -248.92 -689.14 -688.82 -686.84 -698.84 -700.03 -696.42 -697.73 -695.26 -685.41 -678.95 -675.89 -690.63 -696.31 -1175.77 -1174.60 -1173.54 -1164.70 -1158.83 -1161.14 -1169.15 -1170.43 -1166.92 -1174.31 -1171.50 -1175.79 -1178.39 -1573.21 -1574.23 -1580.50 -1577.56 -1592.63 -1602.66 -1665.13 -1816.21 -1885.62 -2019.24 -2146.17 -2174.91 -2238.50 -882.60 -858.58 -795.26 -2401.28 -2354.77 -2309.15 -2255.93 -2265.20 -2271.68 -2264.76 -2268.83 -2306.44 -2326.87 -2384.31 -2424.37 -2514.18 -2600.03 -2693.53 -2694.96
1482.98 1485.94 1369.58 1236.20 1201.21 1109.97 1054.25 1056.70 1037.37 1060.82 1100.49 1139.88 1179.31 278.81 245.50 188.66 154.52 99.38 62.47 38.34 42.21 28.92 52.60 42.24 59.83 35.40 738.98 723.41 737.26 760.12 774.17 772.95 758.46 769.72 794.25 813.20 804.09 787.68 783.21 741.08 741.10 737.27 739.13 739.49 745.33 757.43 764.45 786.99 786.45 780.50 766.61 749.72 -121.37 -124.94 -130.38 -143.54 -137.31 -147.14 -163.65 -170.86 -164.78 -168.72 -154.98 -165.12 -165.02 -214.03 -216.37 -220.34 -224.22 -224.23 -235.30 -248.09 -243.58 -251.43 -240.66 -241.08 -242.47 -244.79 -688.83 -695.06 -692.41 -691.78 -698.48 -697.21 -702.06 -694.79 -678.79 -669.77 -676.58 -684.32 -695.60 -1164.59 -1166.86 -1162.66 -1160.79 -1161.30 -1158.03 -1166.35 -1166.22 -1173.23 -1173.81 -1174.13 -1174.96 -1170.77 -1572.63 -1577.28 -1573.60 -1577.11 -1586.24 -1601.45 -1609.56 -1694.79 -1756.89 -1947.52 -1996.22 -2072.53 -2167.57 -773.83 -773.37 -780.69 -2351.60 -2325.40 -2272.07 -2253.55 -2217.99 -2235.36 -2238.35 -2258.97 -2284.27 -2326.40 -2336.21 -2372.12 -2463.94 -2594.34 -2628.31 -2631.51
1441.55 1441.23 1354.91 1232.34 1209.64 1129.24 1060.95 1044.73 1033.31 1059.88 1095.33 1160.52 1177.47 283.43 276.14 209.67 146.62 93.44 98.05 68.00 68.31 55.91 70.26 73.56 67.04 60.50 755.29 741.20 750.57 754.39 782.49 783.31 781.73 798.13 824.78 827.56 815.76 796.12 788.41 757.92 754.88 747.77 745.82 761.76 769.64 763.15 776.36 794.94 808.04 782.59 769.05 743.38 -117.86 -129.38 -125.35 -142.92 -134.95 -145.28 -161.17 -165.85 -163.85 -157.21 -156.92 -160.36 -160.63 -214.63 -213.19 -219.35 -228.44 -225.40 -243.41 -249.22 -253.83 -246.75 -247.32 -247.96 -244.39 -248.54 -683.08 -695.94 -694.02 -697.67 -687.11 -686.44 -692.27 -685.90 -681.58 -672.82 -675.44 -676.97 -685.66 -1164.57 -1160.31 -1160.21 -1162.05 -1162.14 -1162.13 -1164.40 -1169.43 -1161.75 -1177.28 -1176.62 -1168.51 -1172.77 -1572.23 -1570.83 -1575.39 -1577.37 -1585.95 -1590.15 -1599.21 -1603.26 -1611.60 -1700.69 -1757.89 -1802.43 -1961.57 -706.06 -734.30 -718.94 -2314.20 -2258.12 -2231.76 -2213.03 -2207.40 -2185.18 -2199.57 -2217.34 -2215.23 -2254.49 -2283.66 -2339.41 -2357.53 -2561.45 -2558.17 -2553.95
3427.74 3423.28 3333.34 3197.82 3143.51 3131.40 3082.69 3038.97 3020.71 3056.76 3080.28 3151.35 3205.15 3225.23 3211.34 3174.39 3104.52 3053.76 3025.18 3011.33 2999.39 3000.40 3004.83 3031.97 3024.33 3006.70 668.55 641.26 641.72 660.90 678.29 696.95 697.89 724.69 736.03 732.27 710.81 704.45 683.05 713.19 700.91 687.17 686.55 706.34 723.71 725.38 733.02 740.47 743.30 724.98 683.53 665.49 131.91 122.28 109.80 118.47 115.26 109.62 93.10 78.33 73.47 89.81 96.05 94.81 87.26 -55.08 -56.61 -61.48 -58.59 -71.58 -84.04 -89.65 -93.59 -94.44 -91.48 -89.20 -97.63 -102.01 -270.48 -275.64 -260.93 -261.56 -262.89 -261.83 -257.03 -257.43 -245.95 -248.28 -249.79 -247.77 -252.94 -260.50 -262.48 -266.82 -269.05 -266.12 -270.33 -272.88 -279.16 -283.65 -283.65 -279.17 -282.64 -285.35 -278.21 -279.86 -280.06 -283.92 -286.83 -277.76 -294.23 -293.40 -302.37 -310.34 -321.22 -417.26 -484.51 -578.85 -667.37 -673.72 -1827.76 -1799.06 -1760.78 -1728.82 -1727.21 -1722.01 -1724.58 -1749.27 -1733.69 -1773.38 -1792.07 -1858.14 -1922.06 -2002.24 -2058.67 -2060.70
3346.76 3347.67 3345.29 3187.25 3115.05 3094.86 3055.14 3036.91 3018.18 3047.66 3093.05 3151.75 3168.16 3224.69 3201.90 3179.93 3145.79 3104.91 3091.07 3048.75 3037.58 3040.58 3033.93 3048.03 3062.07 3043.11 689.05 653.36 650.69 666.71 692.14 728.40 736.18 748.25 759.84 736.74 712.49 697.02 702.54 722.95 713.64 698.63 704.00 728.98 739.30 732.87 743.33 743.35 736.25 695.29 664.81 655.83 118.62 110.09 98.24 99.97 105.65 102.72 94.05 71.61 68.93 68.47 74.45 85.58 78.12 -70.13 -69.68 -62.12 -66.08 -67.97 -82.51 -92.90 -91.39 -95.24 -100.95 -95.57 -101.64 -101.14 -265.48 -260.74 -258.73 -254.01 -253.36 -253.82 -247.52 -247.78 -248.54 -246.74 -239.62 -251.95 -255.21 -265.61 -262.97 -268.68 -271.83 -269.42 -273.18 -282.23 -273.45 -275.34 -280.46 -273.69 -285.11 -279.05 -276.74 -275.02 -274.11 -274.73 -282.62 -286.67 -279.65 -283.46 -283.61 -292.62 -322.58 -339.17 -443.80 -377.71 -635.39 -597.06 -1800.05 -1729.06 -1704.46 -1694.25 -1679.14 -1671.31 -1690.44 -1688.53 -1712.92 -1710.08 -1763.47 -1820.20 -1855.55 -1967.04 -1988.64 -1982.16
3254.08 3250.86 3269.55 3109.91 3080.31 3075.82 3045.39 3004.71 3011.96 3040.29 3085.78 3126.07 3164.06 3176.53 3186.66 3180.50 3166.65 3146.86 3118.30 3089.14 3101.01 3113.49 3092.97 3088.72 3060.86 3055.14 709.67 688.21 662.44 680.99 732.30 769.51 776.18 771.28 750.14 713.92 697.06 689.94 710.59 744.28 726.38 728.64 727.18 730.84 731.01 722.46 727.41 720.28 710.86 686.74 655.60 653.25 100.30 100.03 89.84 96.41 106.15 105.43 86.64 71.16 62.11 64.44 75.42 72.14 61.23 -88.02 -84.81 -81.19 -70.73 -75.99 -85.15 -93.06 -91.52 -86.56 -92.84 -93.82 -95.68 -91.88 -270.50 -265.07 -246.83 -248.93 -244.51 -243.03 -239.59 -242.63 -236.86 -242.46 -239.97 -245.93 -248.74 -260.83 -265.27 -264.78 -272.23 -271.91 -278.57 -278.16 -277.68 -277.11 -284.39 -278.75 -275.70 -285.61 -280.53 -278.90 -282.11 -278.81 -280.74 -284.00 -282.32 -279.50 -283.56 -282.81 -304.64 -321.69 -339.87 -316.18 -421.40 -508.64 -1724.10 -1710.06 -1691.02 -1655.46 -1664.78 -1651.43 -1643.15 -1648.54 -1670.50 -1683.08 -1702.67 -1731.52 -1787.36 -1839.83 -1911.23 -1913.26
3219.29 3224.66 3154.94 3071.79 3058.34 3056.12 3030.45 3011.85 3006.27 3022.22 3073.78 3106.63 3129.84 3162.59 3176.89 3187.87 3172.32 3158.51 3186.28 3189.71 3191.99 3148.56 3149.12 3117.19 3091.27 3088.58 751.64 723.69 738.61 753.82 808.89 804.26 798.36 768.27 735.60 687.82 678.11 689.14 700.68 734.26 721.44 718.85 720.11 713.38 722.59 715.02 705.11 683.43 678.43 663.75 654.21 638.91 104.48 92.77 83.81 93.81 84.46 80.53 78.83 67.21 64.04 63.03 57.65 59.02 49.20 -88.86 -93.43 -89.48 -87.16 -81.90 -87.40 -91.17 -87.84 -85.05 -84.97 -81.86 -89.28 -93.70 -265.15 -254.88 -246.96 -242.23 -234.75 -231.06 -239.31 -237.82 -240.09 -237.90 -240.02 -243.47 -248.51 -257.13 -269.47 -269.32 -273.84 -280.55 -274.24 -275.33 -278.50 -280.67 -285.44 -278.41 -277.77 -286.25 -275.24 -283.68 -283.14 -279.96 -284.93 -280.67 -283.05 -280.28 -280.26 -276.52 -277.35 -304.95 -335.25 -312.29 -371.21 -501.45 -1690.57 -1662.91 -1642.01 -1635.58 -1629.94 -1626.32 -1633.26 -1631.24 -1655.44 -1673.01 -1678.16 -1720.71 -1766.30 -1840.08 -1846.31 -1844.04
3218.61 3223.80 3155.73 3064.65 3043.73 3029.17 3017.60 3006.47 2993.14 3015.31 3049.48 3107.78 3121.41 3143.75 3134.81 3143.55 3171.86 3198.01 3219.83 3238.88 3211.37 3152.98 3149.71 3131.52 3119.94 3121.83 792.93 775.24 771.35 832.50 824.53 821.02 776.34 761.89 710.90 666.85 657.33 664.92 692.73 719.75 707.09 702.78 686.95 703.03 705.66 709.52 688.59 668.78 651.93 650.39 645.72 636.99 97.80 94.27 86.61 74.56 66.58 67.24 59.42 64.03 60.55 63.58 64.65 53.52 46.74 -86.07 -99.04 -92.79 -89.38 -90.66 -92.17 -86.11 -85.79 -70.31 -69.02 -73.61 -80.82 -75.83 -252.59 -248.00 -242.25 -237.36 -238.85 -234.51 -231.34 -232.31 -236.83 -242.96 -249.41 -252.47 -251.36 -264.00 -265.00 -274.49 -273.70 -274.05 -274.23 -270.41 -274.76 -275.10 -283.36 -288.15 -283.94 -281.44 -275.63 -280.81 -276.18 -281.08 -281.77 -277.07 -282.67 -283.81 -283.12 -277.96 -280.46 -295.25 -321.88 -231.70 -362.24 -405.74 -1663.11 -1629.65 -1618.84 -1594.98 -1602.84 -1601.47 -1614.56 -1629.85 -1634.00 -1650.16 -1665.80 -1709.14 -1733.81 -1783.59 -1802.56 -1799.25
3209.29 3205.38 3133.51 3031.79 3032.69 3000.07 2993.31 2992.44 3000.36 3028.01 3039.12 3081.81 3092.92 3102.49 3109.60 3106.43 3175.80 3214.99 3225.11 3236.71 3201.08 3172.39 3153.26 3113.05 3104.48 3126.83 798.46 803.29 823.93 843.41 859.06 808.55 737.96 723.82 681.54 647.64 642.71 644.35 640.80 684.15 669.59 674.33 659.92 676.24 684.19 679.17 666.47 641.38 635.53 629.07 630.12 625.10 100.65 91.63 84.48 74.19 74.35 64.68 56.71 65.44 73.01 60.09 56.93 46.87 57.81 -75.01 -80.06 -88.78 -80.45 -74.28 -75.54 -80.66 -72.15 -64.04 -64.98 -61.18 -73.68 -63.80 -237.52 -242.67 -238.99 -235.76 -238.07 -236.64 -237.36 -244.01 -244.18 -246.14 -249.97 -257.25 -256.50 -275.50 -272.10 -272.25 -272.93 -268.94 -273.49 -276.92 -271.42 -279.89 -279.96 -281.11 -284.06 -283.01 -278.70 -272.56 -276.94 -274.66 -282.41 -278.99 -280.45 -275.06 -278.70 -282.19 -276.47 -290.93 -304.20 -232.87 -278.66 -330.76 -1627.76 -1590.85 -1586.30 -1574.97 -1572.02 -1576.38 -1583.44 -1613.06 -1621.00 -1642.05 -1663.54 -1689.35 -1707.89 -1743.29 -1767.05 -1766.05
3210.03 3214.63 3146.40 3028.82 2997.17 2996.24 2991.59 2978.91 2989.39 3016.22 3026.27 3040.30 3034.63 3070.59 3072.61 3106.35 3130.76 3197.34 3208.05 3190.82 3169.20 3148.88 3113.71 3095.44 3076.67 3092.25 793.85 797.92 815.72 848.14 861.24 843.47 791.94 705.44 682.24 646.75 637.28 627.35 639.85 671.62 670.10 658.84 660.58 659.20 671.34 653.86 643.18 641.06 627.03 620.49 619.17 622.20 97.54 85.22 74.47 82.35 78.85 75.24 68.17 76.34 75.27 68.90 64.87 59.81 62.05 -62.59 -77.52 -81.40 -67.12 -62.24 -65.20 -59.58 -53.83 -56.29 -57.28 -56.27 -55.93 -63.80 -232.13 -234.00 -240.90 -235.02 -239.75 -235.54 -239.17 -244.03 -247.63 -248.10 -255.68 -259.68 -268.10 -272.14 -274.33 -276.64 -268.92 -269.97 -277.18 -270.94 -275.22 -280.75 -279.20 -280.92 -286.82 -279.44 -278.34 -272.31 -279.96 -280.45 -279.83 -283.11 -281.22 -282.08 -286.48 -273.44 -283.36 -284.53 -302.23 -221.07 -276.57 -319.75 -1572.07 -1563.16 -1538.99 -1541.49 -1553.55 -1562.26 -1584.79 -1593.80 -1616.50 -1636.36 -1666.88 -1690.16 -1718.26 -1774.54 -1755.81 -1755.61
3270.14 3265.97 3153.01 3029.36 3019.23 3005.87 3008.46 3007.51 2995.24 2977.25 2989.95 3000.69 3009.66 3026.36 3056.17 3083.28 3117.10 3133.44 3119.30 3106.65 3095.35 3094.28 3066.70 3051.13 3039.74 3074.85 765.25 786.16 804.58 825.11 865.08 834.10 765.55 708.57 685.55 650.88 640.69 629.93 628.68 656.43 647.91 637.95 641.13 647.07 648.62 644.70 631.21 621.00 626.26 617.90 619.25 621.53 83.67 78.06 81.26 93.08 100.99 97.36 86.60 75.54 92.25 80.24 73.13 84.04 80.38 -68.70 -74.11 -72.20 -65.50 -60.89 -43.73 -54.85 -54.39 -59.37 -52.30 -56.59 -59.18 -62.88 -233.11 -238.37 -234.96 -238.61 -241.29 -245.58 -245.29 -250.66 -249.08 -251.24 -259.57 -264.98 -269.85 -279.02 -274.57 -272.83 -274.38 -273.21 -271.77 -273.54 -284.37 -284.02 -289.02 -281.58 -282.60 -283.64 -276.32 -280.81 -282.58 -278.97 -279.94 -283.62 -281.40 -282.85 -277.49 -285.76 -279.19 -279.91 -283.76 -215.09 -241.79 -270.97 -1516.40 -1510.93 -1522.98 -1503.41 -1507.97 -1516.13 -1532.75 -1579.82 -1597.46 -1644.40 -1658.71 -1697.37 -1743.47 -1793.34 -1789.18 -1792.24
3230.82 3220.48 3151.63 3035.36 3029.60 3040.71 3056.10 3029.94 3003.78 2991.57 2977.05 2985.13 2983.24 3012.43 3043.89 3060.20 3072.61 3068.49 3071.62 3075.47 3076.19 3064.56 3027.08 3019.80 3022.86 3045.63 756.73 770.71 758.75 794.92 831.49 814.92 770.89 709.73 684.01 661.29 665.55 629.50 630.21 662.86 657.83 645.18 641.95 642.24 632.20 629.72 626.84 620.75 619.42 619.29 616.70 626.19 84.84 82.98 87.38 91.74 106.63 100.49 99.46 92.82 103.57 98.02 96.34 94.41 83.89 -57.10 -64.30 -61.69 -53.31 -44.93 -45.76 -38.25 -46.09 -57.52 -54.62 -53.24 -62.04 -67.29 -234.05 -235.65 -242.01 -237.34 -240.91 -253.93 -255.24 -249.96 -252.48 -250.10 -251.19 -266.47 -270.76 -280.32 -280.84 -273.66 -278.74 -281.69 -284.52 -283.91 -278.69 -285.02 -283.18 -277.56 -281.91 -282.84 -282.67 -279.45 -279.45 -273.78 -285.47 -281.38 -282.05 -280.34 -278.83 -288.09 -281.73 -281.94 -281.91 -193.79 -233.63 -269.33 -1506.60 -1500.10 -1471.88 -1490.49 -1477.43 -1495.05 -1515.66 -1530.90 -1597.10 -1620.53 -1651.26 -1749.46 -1756.93 -1797.56 -1847.64 -1844.62
3259.92 3255.07 3277.70 3094.76 3073.13 3087.17 3073.25 3062.90 3012.06 2988.29 2986.21 2975.49 2981.14 3003.56 3039.29 3044.37 3055.14 3054.82 3047.28 3058.71 3089.69 3075.99 3037.47 3018.42 3002.46 3021.67 724.04 723.02 721.12 765.40 814.85 785.54 785.72 737.38 696.71 703.94 730.42 691.14 669.12 695.44 692.63 676.53 656.58 655.91 644.65 641.47 640.59 635.00 631.03 628.23 647.09 638.36 101.46 88.12 96.02 101.79 108.84 116.62 120.86 111.61 98.76 108.11 110.64 106.54 89.71 -50.06 -57.63 -53.83 -54.50 -38.93 -38.77 -34.27 -40.58 -53.53 -54.71 -58.34 -66.50 -67.96 -246.66 -241.94 -245.97 -247.89 -250.39 -257.48 -264.32 -262.01 -253.76 -245.94 -254.93 -258.49 -274.17 -281.73 -275.14 -277.06 -284.92 -280.29 -282.68 -285.57 -283.16 -278.29 -282.77 -282.76 -284.54 -281.07 -278.97 -275.83 -283.06 -279.49 -279.53 -280.17 -278.20 -280.54 -285.22 -279.98 -281.59 -279.23 -282.97 -188.52 -226.27 -255.03 -1475.12 -1445.00 -1457.32 -1441.69 -1468.16 -1458.74 -1491.47 -1522.60 -1576.76 -1613.21 -1684.26 -1751.41 -1805.99 -1831.40 -1860.88 -1857.90
3327.79 3327.56 3319.28 3137.55 3091.83 3108.30 3100.52 3054.12 3009.46 2997.24 2972.57 2960.98 2966.36 2994.64 3012.65 3008.69 3024.37 3028.78 3043.33 3073.16 3096.70 3101.45 3051.59 3012.88 3001.45 2992.97 695.33 700.84 704.28 750.44 787.46 803.72 779.47 754.55 732.01 731.98 738.87 730.48 715.08 727.93 724.26 696.89 674.21 660.59 651.40 646.94 651.62 647.03 643.01 640.76 651.54 666.10 129.97 125.77 125.41 119.91 123.57 135.04 134.09 119.23 110.51 109.46 125.70 121.86 90.75 -41.66 -33.40 -30.48 -40.44 -30.97 -39.91 -35.86 -46.28 -50.05 -59.59 -69.63 -71.90 -73.75 -248.68 -252.57 -241.97 -253.26 -258.56 -267.30 -264.10 -258.14 -261.16 -256.81 -255.08 -263.25 -269.01 -282.72 -277.50 -278.51 -280.94 -278.82 -280.23 -278.07 -282.29 -276.42 -273.70 -275.70 -279.72 -281.51 -277.41 -277.12 -277.46 -272.81 -277.05 -278.24 -280.47 -286.27 -276.85 -279.24 -278.58 -281.34 -280.73 -183.13 -201.14 -213.17 -1413.42 -1415.50 -1426.09 -1435.65 -1433.92 -1436.62 -1459.58 -1488.33 -1546.43 -1595.91 -1686.28 -1733.65 -1795.03 -1834.86 -1846.72 -1838.84
3362.04 3364.26 3266.13 3151.61 3163.69 3106.13 3093.05 3041.69 3010.60 2983.53 2960.33 2957.40 2956.76 2985.63 2998.58 2996.59 2988.70 3019.50 3036.60 3064.28 3090.88 3091.86 3080.39 3041.88 3010.24 2988.18 681.43 687.63 701.01 743.65 775.65 798.57 793.86 782.58 783.32 781.12 785.76 761.72 736.90 748.03 740.91 708.44 668.32 660.01 663.62 670.27 658.68 657.77 652.84 651.10 662.62 673.46 154.82 151.20 133.77 127.65 140.77 137.30 142.51 132.73 128.98 132.56 131.28 121.72 120.11 -27.93 -31.57 -36.57 -34.21 -40.89 -37.44 -38.74 -46.72 -56.04 -61.00 -70.43 -69.24 -65.61 -251.27 -255.60 -263.01 -258.50 -267.76 -269.78 -268.26 -275.71 -264.09 -266.45 -259.66 -271.42 -271.81 -281.86 -275.42 -275.24 -275.85 -272.05 -273.81 -276.99 -276.57 -280.09 -275.93 -278.63 -275.07 -278.23 -275.57 -274.20 -273.30 -286.96 -281.90 -280.91 -284.15 -279.15 -280.07 -278.05 -281.97 -283.19 -276.24 -170.84 -167.99 -193.41 -1395.24 -1390.05 -1398.40 -1399.29 -1403.42 -1406.84 -1430.16 -1467.01 -1510.84 -1544.74 -1635.06 -1723.58 -1742.96 -1803.01 -1809.24 -1808.55
1190.16 1187.78 1084.45 1050.50 1042.14 979.68 919.39 878.49 838.82 832.38 808.64 794.10 779.79 563.34 554.17 554.73 562.14 583.68 609.65 642.49 645.38 665.03 633.12 617.41 586.02 576.63 406.71 419.91 458.39 486.92 497.04 503.87 495.14 490.99 503.48 522.50 519.37 507.75 499.00 675.27 640.20 606.36 585.76 573.47 572.90 582.49 572.23 562.13 546.21 544.97 553.84 564.56 169.24 171.14 164.79 168.55 162.73 164.67 169.82 165.18 166.45 159.75 159.74 148.19 147.95 -42.36 -40.08 -49.23 -52.76 -51.98 -62.87 -55.73 -69.16 -75.77 -79.04 -90.16 -88.08 -81.51 -246.35 -250.12 -247.49 -262.16 -263.79 -275.00 -271.97 -273.44 -264.15 -267.92 -266.23 -271.44 -269.93 -276.29 -272.26 -268.96 -278.07 -274.71 -278.62 -281.29 -283.98 -283.89 -280.76 -283.42 -282.11 -287.01 -711.14 -703.28 -712.81 -711.13 -713.76 -713.92 -713.99 -711.05 -715.99 -711.86 -709.04 -711.30 -711.08 -177.22 -176.21 -176.17 -684.47 -685.69 -684.57 -685.83 -686.19 -692.86 -712.87 -746.78 -759.31 -794.31 -895.68 -992.32 -1024.21 -1052.05 -1057.61 -1065.90
1240.89 1245.05 1214.29 1088.15 1104.06 1036.84 976.96 914.95 872.10 846.97 828.13 813.68 789.48 568.04 562.91 554.57 547.51 558.03 585.41 616.80 627.90 629.20 616.04 582.42 577.27 569.54 404.56 445.92 451.58 477.82 493.29 480.16 471.56 466.88 475.16 510.15 518.83 513.78 510.02 692.90 675.91 631.19 606.13 587.68 606.42 616.24 604.03 585.33 573.88 573.65 556.82 571.43 168.82 179.15 166.65 158.52 167.56 161.24 160.46 157.19 162.13 167.30 169.99 172.51 155.54 -24.68 -25.98 -44.60 -43.67 -57.63 -54.19 -57.34 -59.13 -66.03 -75.41 -83.95 -85.98 -84.01 -240.96 -242.61 -253.17 -246.40 -260.61 -262.90 -273.94 -275.03 -273.58 -274.45 -275.35 -263.07 -266.79 -268.38 -269.74 -278.74 -285.75 -282.05 -281.11 -284.00 -279.65 -291.52 -285.62 -285.17 -280.14 -284.00 -715.66 -716.13 -718.63 -710.98 -718.77 -714.12 -719.58 -719.67 -713.32 -707.69 -715.31 -719.47 -714.38 -171.73 -174.62 -177.80 -686.79 -685.88 -687.07 -690.07 -683.56 -690.29 -692.23 -718.69 -751.53 -783.30 -877.37 -945.58 -946.20 -998.18 -1006.00 -1005.45
1353.18 1342.85 1242.16 1139.87 1121.35 1050.28 990.53 937.69 886.15 865.57 862.66 838.37 822.30 580.11 560.18 545.36 550.21 559.64 586.89 591.96 595.39 586.38 597.80 576.15 569.03 556.46 411.18 434.85 449.84 453.53 453.28 456.12 449.12 453.65 468.96 483.38 486.72 496.03 504.97 700.15 690.23 651.85 613.35 611.88 610.22 624.46 620.06 605.60 589.51 595.02 571.98 578.69 179.61 174.15 167.73 158.46 168.99 156.28 158.14 153.00 148.98 165.85 170.01 179.23 166.68 -15.94 -24.72 -37.85 -41.58 -54.14 -55.81 -58.76 -70.66 -64.03 -84.36 -91.40 -90.99 -86.93 -239.53 -244.94 -252.92 -259.01 -257.36 -261.62 -269.84 -269.39 -268.62 -266.94 -263.61 -260.82 -258.90 -267.48 -273.27 -280.16 -282.70 -275.96 -277.47 -281.15 -285.59 -281.14 -284.43 -283.63 -282.51 -280.00 -714.66 -718.83 -709.83 -713.69 -710.83 -719.69 -713.22 -712.69 -716.71 -720.06 -711.64 -710.05 -719.98 -173.97 -169.02 -168.50 -682.83 -687.33 -681.54 -685.78 -686.31 -682.25 -686.20 -702.14 -713.00 -779.99 -810.87 -903.66 -902.62 -941.89 -956.58 -956.77
1319.63 1324.37 1323.79 1150.85 1135.95 1089.78 1008.37 965.92 926.29 896.50 876.71 843.92 824.66 576.27 559.65 546.93 544.61 565.81 574.62 588.84 584.11 572.13 566.35 560.40 556.50 560.95 405.51 446.56 442.89 451.77 442.49 418.52 417.44 446.26 440.98 440.89 443.71 460.49 490.43 693.82 704.99 670.66 646.88 636.21 626.04 630.28 624.87 610.60 611.01 593.68 592.97 576.53 172.02 164.96 156.68 161.05 160.69 154.02 148.71 138.76 134.86 140.13 153.57 163.87 162.95 -17.40 -26.81 -47.99 -47.73 -55.33 -61.05 -66.24 -67.53 -74.13 -84.55 -82.99 -92.03 -96.00 -255.09 -252.60 -248.12 -264.47 -259.38 -260.72 -256.80 -265.11 -270.13 -262.27 -258.07 -267.06 -263.48 -274.78 -280.30 -277.54 -276.80 -276.60 -270.89 -285.01 -282.48 -278.73 -284.75 -277.25 -285.80 -277.42 -710.46 -709.14 -714.68 -713.91 -715.54 -708.62 -714.79 -712.55 -713.24 -716.85 -715.96 -713.49 -716.40 -176.56 -175.76 -170.15 -679.98 -683.95 -684.30 -680.85 -682.92 -683.14 -681.95 -686.11 -701.00 -716.00 -742.60 -840.58 -852.50 -904.95 -894.80 -904.88
1299.15 1300.27 1219.06 1174.36 1131.07 1070.14 980.76 927.13 912.46 889.37 862.51 849.22 827.74 585.28 566.90 560.69 558.78 550.85 562.55 566.95 554.73 560.87 561.59 549.00 555.86 568.52 418.11 441.97 456.70 436.47 417.07 405.98 410.19 427.01 426.62 418.19 422.49 432.65 482.62 693.51 706.68 676.70 653.59 638.35 626.71 622.64 610.15 607.00 601.60 592.55 583.32 577.30 157.11 156.99 151.31 144.32 145.54 140.12 132.83 134.63 138.12 132.87 153.78 154.09 153.40 -18.81 -41.64 -47.82 -62.83 -53.47 -64.99 -73.57 -71.54 -68.39 -71.12 -82.32 -89.13 -101.13 -254.89 -253.84 -266.89 -268.91 -264.81 -264.17 -259.37 -265.06 -261.93 -254.28 -261.59 -264.39 -267.61 -280.11 -278.03 -276.17 -274.36 -272.47 -272.62 -279.01 -284.64 -285.05 -278.72 -283.02 -274.20 -282.91 -710.72 -712.27 -712.63 -714.35 -714.93 -715.05 -716.43 -711.01 -720.98 -716.95 -716.13 -713.00 -716.46 -176.77 -171.88 -164.71 -679.36 -679.44 -677.52 -675.55 -678.67 -685.73 -687.14 -679.61 -690.86 -688.08 -690.79 -755.51 -785.40 -819.16 -851.82 -845.66
1294.58 1289.42 1212.45 1121.77 1105.53 1021.23 920.41 882.46 855.15 854.32 852.71 819.62 818.95 565.30 586.55 560.10 551.77 543.47 542.72 540.16 546.18 547.20 549.00 543.95 562.33 560.94 422.91 436.46 441.19 434.71 415.78 385.20 389.80 404.43 403.12 407.51 430.75 435.45 473.90 698.56 690.98 679.50 642.79 632.58 622.07 617.10 608.64 598.32 595.60 582.91 579.14 563.41 155.19 151.85 154.41 144.97 151.67 144.35 143.88 139.70 131.70 122.88 138.10 155.13 154.05 -21.23 -31.93 -48.73 -50.63 -65.33 -63.26 -64.29 -64.51 -76.46 -66.40 -82.03 -90.10 -95.90 -263.03 -252.96 -260.72 -262.66 -267.69 -267.04 -266.76 -264.61 -257.29 -261.97 -255.51 -257.07 -270.01 -280.54 -278.84 -278.31 -274.91 -269.41 -281.70 -278.80 -281.02 -278.76 -280.97 -279.97 -273.08 -274.52 -702.50 -710.55 -714.22 -713.72 -712.26 -708.71 -713.99 -720.33 -716.82 -711.03 -708.08 -713.04 -714.87 -165.68 -169.01 -162.25 -668.48 -674.12 -677.01 -670.44 -672.86 -677.15 -680.60 -689.36 -684.07 -686.06 -689.00 -706.37 -716.76 -754.15 -782.50 -782.45
1213.60 1217.40 1164.01 1068.95 1003.14 959.40 900.85 871.61 854.21 824.59 802.36 804.96 809.90 600.49 599.12 586.45 562.54 546.48 542.31 544.51 547.27 539.75 527.88 542.45 550.90 557.60 386.28 421.81 413.52 415.29 395.75 389.71 379.99 389.96 394.57 418.67 435.07 469.50 473.80 677.87 675.41 643.58 632.06 618.87 606.83 599.89 587.35 589.60 589.76 583.38 566.18 557.56 158.04 162.07 158.63 161.99 159.06 165.65 154.20 148.59 130.22 123.58 127.50 142.56 152.02 -23.60 -22.54 -35.24 -49.14 -50.88 -54.69 -53.14 -56.59 -54.19 -63.77 -79.17 -93.96 -94.69 -252.19 -262.23 -262.10 -257.83 -269.52 -267.90 -262.37 -261.11 -258.13 -260.41 -261.81 -268.80 -269.03 -270.44 -264.23 -272.57 -272.39 -280.51 -278.91 -274.14 -277.92 -277.72 -269.67 -273.27 -273.83 -280.21 -705.82 -708.05 -719.75 -708.04 -717.15 -719.77 -710.98 -712.53 -717.94 -716.72 -713.23 -714.23 -711.86 -172.95 -171.95 -161.48 -669.14 -661.25 -665.64 -666.64 -671.21 -675.31 -672.90 -681.86 -689.72 -680.78 -688.63 -701.89 -694.80 -727.98 -732.80 -732.36
1134.51 1134.54 1124.73 1064.86 1010.71 961.99 904.28 910.50 877.22 839.19 794.96 795.87 816.17 615.53 631.32 591.08 578.00 564.82 569.97 565.71 559.17 550.33 543.04 536.95 543.86 554.37 376.27 370.29 397.95 389.03 388.17 377.55 376.24 377.32 378.32 400.10 442.48 449.50 457.61 663.36 652.95 630.08 614.34 611.80 590.24 599.85 584.14 584.03 578.57 571.67 574.52 570.87 176.25 180.80 176.85 177.47 166.15 161.25 163.14 153.13 136.73 125.98 121.49 128.64 150.06 -32.60 -27.84 -37.30 -35.71 -41.28 -45.44 -48.59 -58.04 -59.78 -65.63 -73.08 -88.95 -94.57 -246.51 -247.37 -251.94 -260.64 -262.16 -254.32 -252.22 -257.66 -247.27 -257.40 -265.96 -267.38 -263.78 -264.83 -265.18 -266.05 -273.25 -273.33 -266.79 -262.58 -270.65 -266.13 -268.51 -268.82 -271.33 -275.89 -704.91 -713.74 -713.06 -713.12 -717.35 -713.23 -719.90 -713.10 -713.87 -715.40 -716.31 -708.87 -713.70 -173.24 -168.09 -160.71 -678.44 -664.25 -663.63 -658.45 -659.10 -673.69 -680.07 -679.67 -677.30 -685.35 -685.71 -687.71 -688.91 -705.20 -734.65 -731.12
1053.48 1055.30 1097.17 1039.20 1029.20 994.97 967.68 960.49 927.48 854.26 799.96 819.61 859.78 660.59 649.38 628.01 585.19 581.60 592.55 597.83 577.97 567.59 538.29 537.55 529.76 537.44 355.00 360.64 375.43 382.36 378.55 377.35 369.32 374.17 372.30 381.46 413.99 443.56 452.22 657.97 643.50 634.09 607.70 600.24 596.80 591.07 589.62 572.73 576.94 585.53 582.32 572.94 184.85 189.47 179.76 173.80 163.20 167.02 166.95 157.31 147.47 132.87 121.38 115.19 132.26 -30.14 -24.41 -32.03 -39.93 -41.06 -48.54 -52.86 -55.63 -56.61 -64.84 -74.65 -83.19 -82.45 -236.52 -236.52 -250.05 -244.64 -251.76 -249.43 -246.00 -241.80 -241.47 -260.62 -263.85 -265.63 -255.52 -265.67 -264.30 -266.95 -265.66 -266.77 -256.57 -260.99 -262.05 -263.63 -263.80 -264.44 -268.32 -274.13 -705.91 -711.36 -712.31 -707.77 -713.16 -716.09 -715.81 -711.07 -709.45 -719.02 -712.48 -707.09 -707.25 -171.19 -174.03 -172.86 -669.35 -659.25 -651.93 -650.79 -657.59 -662.73 -670.92 -682.13 -677.33 -683.86 -690.55 -687.70 -686.04 -700.70 -681.94 -684.33
1123.79 1122.69 1066.33 1034.49 1030.27 1032.74 1015.83 986.91 978.26 913.84 864.25 852.16 878.24 668.01 658.54 635.94 605.67 584.52 605.74 620.47 595.73 575.55 552.34 539.19 531.26 532.78 354.87 350.61 355.81 369.59 376.60 379.64 365.40 368.41 370.46 375.40 410.47 431.24 443.64 651.93 643.73 619.24 613.80 602.00 598.61 590.36 590.97 594.78 598.47 590.71 599.03 594.75 194.04 186.02 190.24 177.17 166.06 162.97 151.72 156.74 148.07 150.69 131.96 122.62 112.80 -40.28 -32.77 -29.11 -32.76 -43.33 -49.77 -58.56 -59.63 -62.38 -72.15 -83.37 -79.64 -75.64 -224.08 -223.50 -229.93 -234.81 -233.44 -242.27 -240.44 -243.97 -249.68 -258.24 -263.14 -254.19 -252.18 -257.95 -256.16 -254.56 -264.27 -260.73 -264.68 -256.86 -266.32 -258.65 -264.93 -272.69 -274.31 -273.96 -709.69 -712.02 -708.30 -710.59 -708.79 -703.07 -710.40 -711.26 -712.56 -710.87 -712.64 -706.51 -709.38 -175.71 -170.65 -165.78 -668.35 -663.59 -664.05 -655.22 -654.73 -669.72 -675.67 -676.57 -681.54 -682.36 -686.96 -686.34 -689.87 -678.12 -679.50 -684.09
1117.07 1118.71 1080.98 1024.33 1017.52 1037.52 1026.14 1008.55 964.82 969.46 887.40 879.00 889.37 666.61 648.79 615.77 595.04 590.55 614.55 638.54 610.31 591.89 570.32 553.68 545.00 532.69 357.08 349.26 350.04 351.80 359.82 355.66 351.80 358.87 372.63 371.96 407.42 422.27 450.65 663.24 654.99 640.72 627.97 628.25 607.28 620.18 616.15 616.79 601.60 608.85 599.49 595.47 193.76 182.86 183.24 170.46 155.90 149.79 143.70 139.96 147.52 152.80 137.97 117.76 102.82 -48.51 -40.61 -32.22 -31.43 -37.32 -41.00 -53.72 -66.78 -65.31 -71.15 -76.60 -71.64 -71.51 -222.25 -231.24 -230.83 -236.44 -236.94 -228.92 -240.57 -247.48 -254.00 -251.57 -260.73 -261.01 -250.22 -254.15 -249.20 -251.19 -259.26 -260.41 -259.92 -257.10 -254.28 -262.18 -267.33 -263.30 -273.48 -273.66 -707.22 -713.47 -710.18 -706.59 -711.05 -701.34 -702.41 -706.33 -712.65 -713.95 -718.10 -711.74 -711.65 -166.99 -165.74 -164.34 -663.16 -658.53 -661.64 -647.43 -653.01 -660.43 -667.87 -674.85 -685.99 -686.95 -683.56 -686.36 -687.84 -681.46 -683.07 -685.28
1096.36 1097.26 1062.76 998.92 997.64 1025.63 1043.48 1028.48 1027.85 978.56 935.78 906.12 935.12 682.16 654.21 618.07 609.88 607.86 654.57 662.16 632.70 614.80 576.22 553.72 553.17 551.77 366.33 370.77 353.29 341.75 353.92 346.86 348.99 363.19 368.57 390.18 429.21 439.77 440.28 664.57 668.83 653.41 647.29 630.00 638.68 642.58 650.11 627.09 612.65 605.84 607.85 599.47 185.11 176.78 163.06 156.22 159.77 144.84 129.01 126.96 129.93 139.06 128.99 112.75 102.26 -60.64 -44.56 -28.17 -33.22 -29.54 -40.46 -44.91 -58.93 -59.70 -56.82 -62.05 -58.16 -57.39 -216.93 -225.54 -228.65 -228.86 -234.74 -240.37 -248.86 -245.55 -253.38 -257.85 -252.46 -247.30 -246.90 -248.86 -254.56 -248.18 -253.33 -252.29 -250.31 -249.60 -253.96 -255.00 -260.43 -265.34 -270.39 -275.70 -706.60 -709.95 -709.33 -715.12 -702.98 -718.01 -705.03 -704.91 -707.00 -706.04 -713.17 -708.97 -705.26 -164.29 -164.98 -149.32 -661.40 -655.90 -652.84 -651.63 -660.81 -663.65 -669.67 -678.91 -678.86 -683.72 -684.58 -689.31 -684.48 -680.47 -676.12 -677.21
2278.24 2278.58 2231.20 2195.55 2185.71 2196.46 2228.23 2224.17 2245.38 2196.02 2153.85 2161.68 2145.83 2350.20 2306.30 2275.58 2237.66 2273.82 2315.94 2308.12 2289.64 2246.47 2226.26 2208.13 2185.56 2173.86 811.19 808.32 783.70 773.79 761.12 766.21 771.47 796.70 802.25 831.19 859.17 853.68 869.90 891.51 905.15 900.91 899.80 881.09 884.76 897.57 892.24 887.12 860.81 847.02 850.63 850.04 163.29 142.26 129.83 129.93 119.06 114.05 94.60 97.64 95.14 104.34 98.10 78.87 81.02 -56.49 -36.59 -32.28 -28.52 -26.48 -32.19 -27.64 -47.13 -48.62 -45.74 -50.23 -53.88 -55.72 -167.83 -174.11 -181.08 -183.03 -183.65 -193.13 -202.63 -198.35 -204.76 -203.48 -202.00 -201.46 -198.98 -192.69 -188.07 -185.00 -187.28 -187.60 -190.61 -187.45 -191.06 -195.09 -204.36 -208.73 -215.59 -212.44 -211.34 -224.07 -221.01 -225.33 -226.92 -216.82 -216.23 -212.43 -218.00 -218.55 -219.45 -216.55 -218.19 -168.27 -151.72 -153.98 -197.82 -196.35 -185.09 -187.44 -190.42 -195.50 -207.21 -212.24 -217.12 -225.54 -223.60 -216.47 -216.47 -218.45 -214.97 -219.65
2261.50 2256.22 2255.51 2171.69 2177.58 2193.14 2213.83 2224.36 2238.76 2214.38 2184.50 2190.13 2170.79 2350.29 2310.66 2285.30 2273.16 2325.45 2363.05 2363.45 2332.78 2289.70 2229.31 2232.32 2209.82 2198.72 811.62 806.31 785.91 759.42 761.89 753.22 765.74 778.84 805.72 825.53 851.11 859.45 868.50 879.24 884.60 892.57 873.10 885.89 877.47 889.16 899.05 879.18 853.79 850.94 855.98 853.66 173.68 149.13 142.98 124.29 112.11 103.00 94.34 89.22 78.98 90.74 87.04 68.73 68.74 -59.36 -52.12 -41.24 -37.63 -28.52 -31.95 -32.99 -37.58 -39.63 -44.41 -39.20 -56.78 -56.83 -170.50 -175.50 -180.72 -189.04 -189.13 -191.90 -196.31 -205.81 -197.69 -190.20 -197.80 -201.09 -196.61 -191.75 -185.98 -180.71 -174.36 -179.50 -185.19 -181.51 -185.46 -198.44 -203.47 -202.28 -210.28 -210.43 -209.60 -214.75 -224.63 -223.03 -222.48 -210.93 -215.31 -211.47 -213.20 -214.54 -218.94 -215.46 -212.27 -156.23 -156.00 -148.63 -191.24 -191.49 -182.93 -189.23 -187.62 -193.70 -199.77 -202.29 -208.58 -214.87 -219.17 -220.25 -220.39 -217.39 -228.34 -227.75
2238.53 2238.75 2215.39 2185.26 2175.37 2184.61 2196.04 2208.36 2221.30 2222.89 2201.91 2195.37 2181.67 2394.03 2396.73 2343.29 2345.28 2338.28 2405.73 2413.55 2368.59 2358.36 2291.27 2268.48 2225.69 2208.13 823.35 813.03 783.89 767.74 763.10 757.01 753.50 776.38 795.90 816.94 842.27 855.10 864.26 865.25 844.66 867.33 857.34 867.72 881.97 881.46 871.87 867.52 846.04 851.43 847.73 854.20 171.71 166.45 151.01 137.83 127.96 117.77 109.49 91.54 80.41 79.84 72.49 67.23 75.21 -62.02 -65.81 -53.29 -37.43 -31.28 -19.48 -25.54 -31.70 -32.68 -38.29 -49.08 -51.26 -55.91 -164.22 -175.78 -184.05 -184.40 -189.60 -191.01 -187.21 -189.23 -187.02 -189.13 -192.47 -197.93 -185.98 -184.31 -184.05 -182.90 -182.61 -188.25 -181.47 -186.95 -188.47 -193.20 -197.60 -201.61 -197.13 -203.98 -207.26 -215.00 -211.22 -216.40 -215.45 -219.92 -212.78 -211.34 -205.88 -210.62 -208.43 -210.58 -209.19 -154.26 -156.26 -155.26 -195.41 -194.92 -187.58 -187.33 -191.97 -188.18 -198.64 -202.83 -203.21 -205.12 -207.25 -217.19 -216.65 -218.44 -207.03 -209.33
2232.02 2230.52 2205.84 2180.35 2177.81 2187.79 2193.70 2194.81 2193.51 2196.14 2188.62 2184.65 2195.64 2412.82 2404.02 2392.55 2385.42 2411.10 2426.75 2427.58 2424.15 2376.07 2326.46 2272.07 2213.47 2211.11 821.21 798.54 785.41 774.91 768.96 763.19 750.29 766.27 773.68 809.26 824.91 844.76 830.45 836.49 833.09 841.87 837.94 858.11 850.87 852.58 861.18 855.43 833.69 841.56 841.69 845.45 174.77 165.94 155.52 148.97 132.56 122.78 122.14 113.04 101.27 70.69 71.09 77.62 70.33 -75.79 -74.09 -70.15 -48.78 -40.61 -23.57 -29.53 -24.35 -31.01 -40.79 -47.15 -56.06 -59.88 -171.44 -177.25 -181.20 -180.89 -183.74 -186.05 -186.75 -184.22 -190.28 -185.84 -182.31 -183.79 -182.75 -191.48 -178.28 -169.65 -180.11 -178.42 -184.85 -180.43 -192.22 -182.95 -188.87 -195.84 -195.66 -203.57 -207.10 -208.75 -206.57 -209.28 -214.58 -204.26 -213.89 -204.97 -206.40 -204.65 -203.68 -209.23 -211.25 -153.34 -158.19 -156.87 -190.68 -195.27 -196.76 -192.56 -199.62 -188.88 -195.31 -196.04 -204.86 -204.96 -211.06 -210.38 -217.22 -216.94 -204.13 -206.85
2211.40 2209.44 2211.00 2172.76 2172.29 2186.03 2195.85 2191.45 2187.20 2185.48 2179.22 2184.22 2185.59 2417.58 2425.20 2418.05 2416.75 2430.17 2437.08 2419.45 2414.52 2371.83 2305.96 2275.56 2220.60 2196.77 816.32 800.49 795.54 800.82 795.89 776.41 751.32 756.74 772.28 800.49 810.74 808.91 807.40 817.21 812.61 818.51 815.07 816.08 828.91 828.72 844.38 839.18 835.82 822.71 826.53 826.31 161.75 164.63 157.63 150.23 133.53 137.35 129.67 114.84 104.21 98.78 91.96 81.02 74.16 -95.88 -74.34 -68.96 -58.55 -38.52 -27.11 -26.27 -26.35 -35.54 -45.05 -44.38 -61.49 -70.61 -170.30 -175.60 -181.64 -183.66 -186.57 -181.25 -179.51 -180.09 -180.66 -181.32 -180.65 -178.54 -174.16 -181.16 -174.21 -181.66 -179.61 -174.07 -176.12 -182.26 -187.52 -182.11 -195.06 -195.05 -191.29 -200.20 -206.18 -214.14 -207.22 -205.41 -206.94 -204.89 -209.64 -209.44 -207.78 -203.30 -207.09 -207.82 -202.65 -159.81 -158.06 -164.69 -210.40 -201.01 -200.92 -205.63 -199.19 -194.99 -192.96 -198.25 -194.79 -197.54 -197.55 -203.88 -208.62 -198.66 -193.31 -203.45
2199.25 2198.94 2186.41 2169.32 2168.67 2176.47 2187.30 2188.01 2189.89 2182.43 2177.15 2177.56 2198.59 2420.83 2420.79 2422.56 2428.63 2423.27 2430.38 2416.26 2388.43 2337.01 2308.77 2252.99 2225.31 2205.64 817.07 812.63 814.48 820.00 800.71 773.82 764.44 755.88 783.36 785.71 797.50 795.24 779.06 803.66 797.94 807.39 808.44 800.45 811.15 828.87 838.99 837.93 840.81 823.01 816.79 801.39 139.05 145.82 154.02 144.34 137.89 139.99 128.52 118.34 118.62 105.62 93.69 89.91 63.22 -98.02 -78.26 -70.89 -61.74 -38.29 -31.92 -25.52 -31.52 -35.79 -48.78 -58.90 -61.61 -70.23 -176.38 -175.21 -184.16 -192.56 -196.74 -188.33 -195.51 -182.96 -183.05 -182.76 -180.31 -170.12 -171.25 -174.03 -171.40 -172.72 -176.80 -179.05 -182.84 -183.12 -188.28 -189.51 -195.40 -200.72 -195.57 -206.64 -209.05 -210.79 -211.09 -208.89 -212.33 -215.69 -211.37 -212.94 -204.45 -207.86 -212.23 -207.59 -214.07 -162.12 -168.37 -171.88 -209.79 -203.10 -202.79 -204.25 -202.03 -199.58 -191.36 -189.63 -190.70 -194.95 -193.23 -202.36 -195.22 -196.35 -190.10 -184.13
2198.54 2199.18 2180.99 2173.25 2168.71 2171.91 2185.32 2179.87 2183.17 2174.04 2172.68 2178.14 2193.81 2422.09 2429.36 2426.23 2428.03 2430.61 2418.93 2402.30 2362.04 2339.00 2317.83 2291.62 2238.90 2202.52 834.90 830.25 823.94 826.36 789.48 783.11 759.17 753.32 758.61 765.79 769.12 768.18 755.09 790.19 786.72 792.66 797.16 789.27 800.83 828.35 835.69 842.90 838.61 828.95 814.47 814.83 132.46 136.95 151.23 144.64 132.54 120.86 124.30 123.16 118.63 99.91 80.67 70.91 58.35 -103.54 -80.75 -66.67 -56.83 -39.03 -22.12 -25.37 -42.51 -43.18 -55.27 -59.18 -72.14 -80.10 -186.43 -181.45 -194.53 -201.24 -200.47 -201.54 -196.24 -189.85 -184.15 -174.37 -178.35 -171.25 -170.95 -175.92 -179.59 -180.22 -183.61 -174.80 -183.30 -185.36 -201.75 -202.22 -195.31 -209.70 -205.89 -217.94 -214.05 -217.38 -217.60 -214.03 -216.04 -216.99 -213.89 -215.42 -211.77 -210.47 -208.20 -215.50 -218.40 -169.03 -170.69 -165.52 -209.99 -207.07 -214.23 -219.84 -208.50 -206.23 -194.84 -195.64 -188.75 -187.64 -188.98 -195.78 -200.66 -197.40 -188.63 -195.03
2207.48 2206.35 2198.94 2163.29 2166.73 2179.45 2178.16 2170.32 2168.77 2172.27 2173.04 2184.25 2197.76 2410.05 2411.58 2412.59 2410.41 2418.22 2419.57 2395.20 2370.18 2350.82 2339.10 2299.42 2272.18 2226.05 846.40 822.01 821.44 799.18 779.97 760.84 748.31 746.81 741.02 744.91 736.81 743.31 750.95 772.48 783.87 780.86 770.95 764.46 789.93 806.30 821.83 832.56 846.14 838.79 818.93 807.92 135.46 127.13 129.45 129.76 129.75 112.24 123.19 112.32 104.32 93.83 78.97 60.81 46.63 -98.96 -80.28 -70.17 -57.04 -38.61 -49.38 -56.38 -58.54 -57.51 -62.52 -71.98 -79.78 -91.09 -197.15 -200.26 -199.73 -211.55 -218.29 -210.66 -206.89 -207.73 -195.75 -189.47 -183.98 -175.19 -175.97 -177.69 -188.63 -190.73 -189.63 -182.42 -183.47 -187.81 -199.75 -193.53 -211.64 -212.91 -220.28 -219.59 -217.85 -222.32 -218.03 -223.46 -220.21 -221.53 -217.70 -221.10 -219.67 -218.61 -217.08 -219.35 -221.81 -172.69 -173.23 -171.30 -211.51 -215.80 -209.89 -221.33 -220.62 -213.51 -201.91 -195.82 -195.09 -190.48 -191.86 -200.17 -203.07 -195.72 -196.09 -200.74
