3495.64 3496.36 3379.89 3226.62 3148.50 3125.40 3121.51 3155.60 3164.08 3175.37 3148.27 3133.99 3108.22 3360.58 3344.22 3347.58 3325.35 3313.57 3309.36 3336.61 3363.66 3369.63 3366.38 3343.29 3349.50 3364.87 -93.55 -93.12 -105.89 -115.23 -122.11 -141.68 -150.28 -152.40 -156.89 -157.55 -165.74 -170.09 -169.14 -476.38 -490.22 -474.82 -485.54 -487.53 -490.32 -490.45 -486.17 -493.59 -479.11 -475.21 -473.02 -481.51 -738.96 -733.55 -747.20 -742.12 -752.60 -748.95 -747.39 -751.33 -751.08 -762.06 -752.98 -752.49 -754.14 -1157.46 -1165.59 -1160.91 -1158.70 -1164.49 -1161.99 -1161.65 -1162.35 -1162.29 -1177.04 -1194.73 -1202.70 -1218.80 -1245.61 -1261.57 -1264.38 -1275.25 -1268.33 -1257.81 -1280.80 -1255.19 -1237.39 -1258.52 -1257.03 -1267.42 -1253.56 -1416.18 -1458.00 -1475.84 -1649.78 -1827.78 -2142.01 -2351.84 -2580.82 -2614.34 -2661.73 -2712.04 -2719.52 -2837.09 -3571.85 -3624.19 -3681.91 -3720.90 -3728.27 -3742.02 -3735.92 -3748.59 -3739.61 -3752.75 -3760.46 -3768.28 -3790.32 -1924.74 -1937.61 -1948.69 -1952.34 -1965.87 -1989.08 -2002.58 -2010.33 -2006.47 -2021.90 -2032.60 -2040.96 -2072.49 -2102.81 -2122.96 -2129.95 -2177.43 -2186.78 -2183.43
3473.42 3470.35 3374.98 3260.86 3205.04 3125.48 3137.72 3151.78 3175.35 3160.64 3140.97 3116.74 3105.77 3356.17 3349.26 3337.64 3316.08 3315.71 3321.22 3334.72 3356.94 3367.44 3360.55 3350.56 3358.86 3369.36 -88.98 -87.09 -112.98 -118.46 -135.24 -136.71 -141.39 -148.56 -144.42 -145.01 -152.21 -155.89 -152.91 -466.28 -470.02 -471.43 -490.67 -486.88 -483.92 -488.29 -478.33 -485.50 -471.46 -475.38 -477.08 -476.85 -738.08 -740.44 -748.12 -746.28 -752.64 -754.99 -752.67 -754.96 -755.16 -755.75 -755.08 -753.64 -750.98 -1167.73 -1164.85 -1156.92 -1154.38 -1158.50 -1159.45 -1160.32 -1160.92 -1163.41 -1164.05 -1177.28 -1176.22 -1199.64 -1220.56 -1241.39 -1251.22 -1253.44 -1253.08 -1256.80 -1229.91 -1228.78 -1231.08 -1220.93 -1232.40 -1240.21 -1238.27 -1402.15 -1446.79 -1486.59 -1632.07 -1805.78 -1969.49 -2006.53 -2236.98 -2487.09 -2587.36 -2591.58 -2734.27 -2812.65 -3586.39 -3630.68 -3701.66 -3744.00 -3747.42 -3753.50 -3762.28 -3768.42 -3767.35 -3760.73 -3774.21 -3779.13 -3788.73 -1940.75 -1942.23 -1953.32 -1966.56 -1974.32 -1983.78 -1991.71 -1991.11 -2000.30 -2005.09 -2024.15 -2034.12 -2036.16 -2061.71 -2087.34 -2110.36 -2164.73 -2152.89 -2154.90
3692.86 3695.58 3580.74 3322.06 3312.16 3190.08 3140.86 3147.82 3189.81 3173.10 3162.14 3120.40 3126.22 3391.71 3388.60 3356.72 3346.36 3323.85 3321.64 3347.51 3354.36 3387.68 3374.68 3361.11 3367.22 3374.13 -82.20 -84.05 -111.20 -108.85 -118.51 -116.74 -121.38 -130.43 -131.34 -125.71 -135.37 -143.54 -143.17 -461.08 -455.90 -471.68 -477.37 -484.23 -487.93 -481.64 -481.01 -477.19 -469.30 -466.31 -464.83 -472.30 -739.89 -742.98 -749.53 -750.41 -750.26 -744.65 -749.68 -748.66 -748.63 -746.97 -754.90 -750.62 -751.42 -1160.28 -1157.79 -1156.88 -1161.47 -1156.61 -1159.78 -1163.22 -1164.31 -1157.13 -1162.86 -1161.76 -1164.80 -1179.57 -1200.13 -1226.58 -1233.72 -1235.08 -1241.12 -1221.61 -1220.63 -1221.48 -1220.03 -1210.29 -1219.47 -1217.93 -1214.15 -1379.95 -1422.03 -1436.16 -1468.43 -1676.70 -1733.56 -1840.46 -2204.09 -2195.75 -2420.25 -2574.31 -2796.83 -2840.20 -3614.18 -3668.51 -3702.10 -3746.18 -3774.57 -3783.01 -3794.79 -3780.48 -3793.62 -3789.10 -3801.81 -3800.23 -3796.80 -1944.91 -1953.66 -1975.30 -1978.33 -1979.23 -1986.10 -1988.04 -1990.92 -1996.97 -2001.81 -2017.19 -2024.85 -2036.11 -2054.17 -2068.89 -2086.19 -2122.62 -2129.43 -2136.84
3822.61 3825.73 3638.41 3446.46 3328.54 3244.46 3193.36 3245.82 3208.42 3242.80 3225.46 3195.31 3183.61 3409.94 3393.79 3374.52 3349.94 3322.03 3323.42 3344.99 3378.56 3390.82 3387.99 3377.34 3370.92 3380.30 -75.80 -92.86 -112.24 -111.03 -100.93 -107.04 -115.84 -121.31 -124.10 -120.76 -123.94 -132.79 -138.91 -454.36 -462.43 -471.69 -481.23 -487.40 -479.73 -473.51 -473.11 -483.73 -472.00 -463.59 -458.63 -466.91 -735.66 -742.83 -743.34 -746.70 -745.68 -744.30 -747.29 -746.22 -742.17 -749.85 -746.84 -747.67 -748.01 -1160.12 -1155.98 -1154.56 -1156.98 -1160.49 -1162.20 -1163.39 -1164.51 -1161.27 -1157.47 -1161.14 -1167.19 -1163.48 -1186.27 -1207.66 -1198.67 -1215.49 -1215.68 -1215.82 -1206.52 -1204.49 -1196.43 -1202.79 -1205.91 -1203.40 -1213.49 -1364.81 -1381.67 -1403.87 -1417.76 -1457.38 -1550.19 -1620.41 -1847.80 -2127.12 -2206.11 -2535.72 -2759.86 -2841.42 -3630.00 -3664.03 -3740.57 -3761.79 -3785.81 -3805.19 -3802.07 -3813.98 -3803.97 -3810.94 -3804.74 -3816.81 -3822.19 -1960.31 -1978.76 -1980.98 -1995.82 -1999.72 -1999.15 -2002.42 -2001.31 -2010.93 -2010.41 -2015.52 -2027.10 -2031.35 -2045.39 -2064.43 -2080.63 -2110.75 -2122.09 -2118.84
3894.59 3899.96 3859.36 3398.95 3362.27 3260.52 3268.64 3324.14 3276.47 3283.41 3254.59 3253.61 3205.44 3406.58 3387.01 3371.29 3355.35 3349.44 3332.79 3339.98 3375.86 3401.85 3395.24 3389.65 3391.34 3390.85 -68.09 -98.44 -97.62 -108.58 -102.58 -99.22 -117.85 -123.73 -130.54 -129.65 -117.74 -131.22 -154.49 -459.07 -476.19 -481.68 -480.42 -483.98 -476.77 -469.44 -469.70 -472.04 -462.85 -459.77 -460.15 -466.38 -731.95 -738.97 -740.35 -740.54 -735.20 -737.03 -736.17 -739.35 -741.29 -741.04 -753.99 -749.97 -753.98 -1154.70 -1154.45 -1157.26 -1159.04 -1151.48 -1156.57 -1156.70 -1160.98 -1163.10 -1161.89 -1167.03 -1162.09 -1163.39 -1178.49 -1191.01 -1200.27 -1205.04 -1207.33 -1197.09 -1197.84 -1196.88 -1197.24 -1189.89 -1202.12 -1201.16 -1207.85 -1364.73 -1367.90 -1376.99 -1409.76 -1445.14 -1477.66 -1578.07 -1795.68 -2046.27 -2270.00 -2675.19 -2756.56 -2860.45 -3638.15 -3698.38 -3754.28 -3771.43 -3802.56 -3815.92 -3830.07 -3826.92 -3826.17 -3829.62 -3823.29 -3830.47 -3837.79 -1974.30 -1983.09 -1989.34 -2011.18 -2008.11 -2027.20 -2024.20 -2014.36 -2008.76 -2010.58 -2023.45 -2021.88 -2028.65 -2044.99 -2062.64 -2077.38 -2094.66 -2104.95 -2108.82
3850.77 3849.45 3744.86 3524.03 3388.65 3326.73 3350.19 3395.79 3387.96 3314.87 3280.46 3269.13 3222.46 3416.17 3404.71 3402.94 3380.58 3372.26 3352.42 3349.37 3384.47 3409.65 3413.65 3405.25 3402.49 3407.54 -70.29 -82.84 -99.61 -100.31 -98.68 -105.29 -116.28 -137.78 -135.49 -136.83 -131.00 -150.30 -161.44 -472.11 -479.54 -482.13 -481.83 -483.34 -470.61 -463.72 -458.51 -459.93 -461.30 -453.94 -456.44 -459.94 -733.11 -735.21 -742.34 -741.80 -727.86 -731.26 -738.50 -731.86 -744.10 -745.22 -748.83 -742.50 -752.44 -1153.20 -1150.02 -1156.28 -1148.72 -1159.75 -1154.16 -1158.90 -1159.78 -1168.15 -1162.77 -1161.50 -1171.42 -1164.24 -1180.81 -1195.56 -1195.81 -1200.99 -1187.69 -1186.20 -1185.04 -1189.95 -1187.45 -1182.28 -1187.13 -1193.01 -1204.99 -1356.73 -1357.48 -1364.64 -1376.72 -1404.14 -1470.15 -1530.84 -1709.38 -1942.52 -2069.01 -2466.84 -2754.81 -2852.63 -3654.16 -3717.18 -3768.90 -3766.83 -3803.38 -3825.51 -3837.07 -3829.78 -3834.04 -3837.28 -3828.74 -3841.71 -3847.79 -1994.31 -2001.88 -2011.36 -2018.28 -2031.85 -2031.57 -2027.65 -2025.49 -2023.33 -2017.64 -2024.92 -2026.67 -2033.43 -2048.71 -2057.03 -2062.60 -2087.70 -2090.51 -2093.80
3772.36 3773.89 3658.50 3538.22 3492.07 3412.92 3404.75 3458.22 3425.05 3417.11 3375.52 3282.01 3203.61 3435.28 3443.16 3421.59 3396.55 3363.89 3349.63 3360.31 3404.51 3411.03 3424.17 3424.12 3424.89 3414.23 -58.24 -63.13 -80.76 -94.60 -103.75 -102.78 -127.19 -137.09 -160.12 -137.82 -154.54 -165.68 -165.91 -474.23 -485.79 -488.15 -480.38 -477.07 -472.65 -464.24 -447.32 -451.21 -458.16 -458.53 -457.31 -467.22 -727.08 -737.93 -743.01 -737.41 -733.19 -725.73 -727.68 -733.26 -741.63 -738.35 -749.32 -742.70 -750.67 -1157.27 -1154.49 -1153.16 -1154.06 -1162.81 -1158.42 -1155.06 -1158.95 -1157.51 -1164.82 -1161.92 -1161.55 -1160.46 -1176.32 -1191.96 -1200.70 -1191.86 -1184.82 -1185.05 -1187.32 -1183.39 -1183.29 -1186.95 -1179.32 -1189.62 -1189.19 -1347.36 -1339.79 -1353.45 -1365.30 -1408.09 -1422.95 -1524.95 -1691.91 -1780.30 -1880.17 -2403.88 -2760.98 -2835.64 -3652.33 -3708.04 -3737.89 -3783.29 -3810.42 -3834.87 -3847.03 -3846.28 -3844.74 -3844.63 -3854.12 -3860.54 -3863.25 -2002.73 -2017.39 -2029.77 -2034.70 -2036.49 -2042.74 -2039.24 -2039.29 -2030.00 -2020.33 -2032.45 -2030.98 -2040.05 -2042.05 -2051.49 -2059.34 -2087.68 -2084.40 -2093.26
3712.58 3709.07 3638.12 3540.84 3497.37 3495.11 3491.65 3467.21 3484.82 3457.65 3425.07 3298.25 3242.86 3476.18 3476.07 3446.51 3421.62 3362.54 3352.54 3393.77 3411.59 3442.06 3447.83 3445.65 3432.78 3414.91 -49.38 -58.24 -72.87 -91.70 -96.98 -117.50 -138.63 -161.19 -160.90 -167.55 -171.40 -173.92 -170.18 -477.63 -492.87 -486.17 -487.50 -478.50 -470.68 -454.32 -440.03 -442.48 -440.86 -445.27 -465.54 -462.72 -729.46 -734.24 -737.31 -721.69 -719.08 -723.33 -724.60 -723.71 -729.99 -734.68 -737.50 -735.74 -747.91 -1150.82 -1149.26 -1153.14 -1152.38 -1158.06 -1158.57 -1156.47 -1164.61 -1161.46 -1161.17 -1164.34 -1156.49 -1161.62 -1183.08 -1186.68 -1188.19 -1184.21 -1175.91 -1179.70 -1187.07 -1178.05 -1179.93 -1175.49 -1175.44 -1179.88 -1180.32 -1332.44 -1337.75 -1349.03 -1357.14 -1364.62 -1383.74 -1412.90 -1502.09 -1683.06 -1950.70 -2100.96 -2795.33 -2819.25 -3607.32 -3689.75 -3730.76 -3782.15 -3812.40 -3841.24 -3842.50 -3853.15 -3859.30 -3859.55 -3864.46 -3865.26 -3872.76 -2009.47 -2035.16 -2041.93 -2043.65 -2042.04 -2045.15 -2038.23 -2033.18 -2031.03 -2024.67 -2031.22 -2031.30 -2036.37 -2049.57 -2051.62 -2063.74 -2073.54 -2085.59 -2077.74
3694.33 3697.43 3639.91 3534.98 3501.96 3502.06 3507.06 3502.03 3498.93 3465.88 3408.57 3363.99 3265.36 3501.27 3475.04 3427.11 3404.02 3368.39 3376.29 3419.43 3444.25 3449.62 3457.69 3441.61 3429.16 3406.88 -46.96 -56.25 -74.99 -84.62 -100.64 -99.06 -138.39 -163.48 -164.71 -179.52 -178.61 -182.22 -187.16 -487.91 -486.21 -495.25 -483.69 -476.18 -471.11 -455.46 -439.25 -434.95 -433.01 -446.57 -456.58 -457.52 -721.46 -721.59 -720.85 -719.04 -715.19 -716.80 -716.21 -720.82 -717.40 -729.95 -730.40 -740.07 -735.11 -1148.23 -1147.98 -1151.60 -1150.89 -1158.82 -1158.13 -1152.17 -1157.07 -1159.11 -1157.62 -1159.70 -1161.32 -1158.82 -1179.38 -1184.53 -1184.22 -1176.49 -1177.90 -1178.38 -1179.48 -1180.69 -1181.51 -1175.11 -1177.17 -1172.82 -1180.63 -1327.67 -1330.88 -1337.71 -1346.72 -1359.75 -1372.09 -1385.92 -1490.08 -1642.08 -1735.39 -2086.30 -2423.96 -2824.62 -3594.96 -3673.39 -3720.86 -3748.22 -3805.96 -3833.39 -3844.62 -3855.20 -3857.34 -3858.81 -3861.79 -3878.48 -3878.42 -2034.73 -2042.41 -2042.02 -2043.72 -2048.16 -2042.89 -2037.93 -2032.35 -2035.24 -2035.74 -2028.96 -2031.76 -2036.48 -2041.73 -2049.21 -2063.93 -2075.75 -2080.58 -2084.67
3669.76 3670.46 3671.31 3476.54 3476.88 3500.08 3498.76 3506.03 3509.10 3485.07 3463.10 3399.75 3330.34 3514.71 3461.81 3412.16 3391.63 3380.55 3402.21 3435.47 3453.44 3438.18 3446.22 3430.41 3411.24 3400.48 -49.72 -54.36 -62.83 -74.49 -97.00 -107.92 -139.33 -140.65 -153.83 -168.18 -182.21 -174.95 -169.50 -478.08 -479.64 -484.77 -480.29 -482.72 -461.97 -450.66 -436.37 -431.01 -429.15 -438.57 -450.02 -457.59 -717.98 -726.87 -719.87 -723.61 -714.44 -719.29 -712.37 -720.82 -725.77 -727.37 -729.73 -732.93 -732.64 -1138.86 -1147.79 -1145.30 -1154.12 -1153.92 -1155.63 -1158.45 -1153.69 -1165.86 -1158.35 -1158.79 -1158.52 -1164.72 -1179.06 -1179.97 -1178.72 -1180.20 -1176.76 -1177.09 -1175.72 -1175.60 -1175.60 -1173.94 -1174.69 -1180.20 -1180.71 -1329.06 -1331.98 -1336.54 -1336.11 -1338.26 -1363.49 -1386.15 -1420.10 -1526.02 -1718.21 -2032.97 -2172.88 -2576.03 -3601.36 -3657.49 -3694.52 -3758.00 -3777.10 -3814.23 -3841.86 -3849.12 -3859.20 -3862.64 -3860.20 -3877.62 -3884.48 -2027.52 -2044.60 -2040.03 -2049.36 -2050.33 -2049.71 -2042.29 -2040.77 -2039.47 -2040.57 -2033.90 -2030.68 -2040.47 -2044.67 -2050.93 -2063.50 -2081.49 -2085.84 -2082.14
3648.96 3647.21 3573.74 3492.10 3466.94 3485.62 3496.14 3500.01 3500.18 3512.85 3509.76 3460.50 3336.15 3513.14 3473.02 3419.51 3392.16 3404.70 3450.19 3460.74 3456.41 3445.14 3426.64 3401.59 3391.40 3378.03 -61.35 -63.36 -59.64 -75.61 -109.37 -106.95 -121.62 -129.63 -143.07 -165.70 -178.36 -167.23 -168.56 -469.42 -464.57 -465.21 -478.04 -471.40 -472.65 -451.17 -432.52 -444.62 -439.35 -449.45 -447.59 -453.73 -721.32 -724.51 -733.11 -731.64 -734.57 -717.29 -717.41 -721.67 -723.06 -728.22 -733.42 -725.29 -734.70 -1134.50 -1142.29 -1142.77 -1146.27 -1151.89 -1150.73 -1152.55 -1158.69 -1160.92 -1161.07 -1154.62 -1161.49 -1164.74 -1169.23 -1174.22 -1171.76 -1175.55 -1175.56 -1177.23 -1171.88 -1181.51 -1177.50 -1181.09 -1174.78 -1177.30 -1178.42 -1327.80 -1327.72 -1327.73 -1334.26 -1334.20 -1346.76 -1356.84 -1380.58 -1491.99 -1668.83 -1790.94 -2123.72 -2344.37 -3430.09 -3644.66 -3665.05 -3720.23 -3771.20 -3805.97 -3825.72 -3843.28 -3846.75 -3859.75 -3860.17 -3871.03 -3884.02 -2024.88 -2029.85 -2039.98 -2050.37 -2051.46 -2047.56 -2047.12 -2043.43 -2042.46 -2036.31 -2034.83 -2033.13 -2037.97 -2038.32 -2056.64 -2063.36 -2072.75 -2082.79 -2081.64
3645.69 3650.63 3557.55 3506.85 3413.56 3389.15 3437.19 3454.16 3491.50 3498.83 3516.20 3445.93 3371.98 3522.55 3493.01 3445.42 3447.11 3456.53 3477.09 3451.44 3448.40 3434.05 3418.67 3388.54 3366.65 3367.04 -82.13 -78.59 -79.24 -92.87 -115.44 -110.33 -115.30 -131.30 -141.52 -150.94 -177.45 -175.63 -150.45 -457.41 -443.19 -453.58 -467.56 -468.56 -457.20 -458.73 -458.22 -457.63 -455.25 -460.20 -451.29 -457.78 -722.07 -727.90 -735.00 -743.27 -734.61 -724.45 -719.48 -719.58 -729.42 -730.05 -732.50 -732.38 -726.12 -1138.92 -1144.14 -1146.92 -1145.21 -1152.27 -1149.19 -1152.72 -1156.51 -1158.28 -1153.22 -1155.80 -1157.00 -1162.27 -1179.41 -1177.43 -1176.24 -1177.72 -1172.18 -1172.91 -1179.49 -1180.24 -1180.60 -1172.94 -1180.85 -1176.78 -1173.39 -1328.22 -1325.67 -1328.76 -1328.64 -1327.56 -1335.25 -1346.65 -1374.71 -1399.78 -1541.99 -1635.74 -1945.74 -2252.60 -3304.62 -3507.65 -3639.53 -3665.52 -3741.21 -3769.86 -3820.17 -3846.49 -3850.80 -3857.74 -3867.48 -3871.40 -3874.93 -2026.67 -2027.26 -2037.87 -2042.78 -2047.53 -2041.21 -2046.67 -2041.57 -2037.39 -2041.53 -2039.16 -2033.83 -2041.71 -2048.44 -2061.43 -2062.70 -2072.83 -2088.14 -2083.00
1559.48 1561.78 1579.51 1376.82 1357.42 1346.99 1404.25 1449.94 1474.67 1489.72 1506.43 1447.91 1380.67 2377.63 2283.49 2321.03 2278.60 2260.66 2245.81 2206.60 2196.93 2178.38 2170.70 2125.28 2128.85 2123.12 -97.91 -77.87 -78.67 -108.28 -119.04 -118.73 -125.90 -130.16 -152.44 -157.83 -173.91 -166.92 -151.73 -441.66 -440.76 -439.60 -440.88 -450.27 -453.12 -454.81 -462.31 -456.25 -467.38 -465.58 -464.60 -460.60 -675.84 -686.01 -703.83 -695.74 -688.50 -687.87 -681.58 -682.53 -677.92 -682.17 -687.93 -688.45 -684.19 -1064.11 -1066.57 -1065.50 -1064.89 -1074.66 -1076.92 -1075.73 -1075.65 -1074.36 -1077.34 -1080.09 -1081.82 -1079.82 -1180.50 -1175.65 -1181.65 -1179.42 -1175.31 -1179.45 -1184.51 -1179.05 -1177.77 -1181.71 -1184.99 -1176.15 -1179.49 -1234.43 -1231.20 -1231.56 -1234.88 -1238.30 -1238.29 -1250.92 -1268.05 -1280.87 -1337.77 -1475.12 -1735.00 -1953.45 -3571.94 -3751.24 -3790.62 -3898.47 -3930.97 -3986.01 -4002.61 -4049.34 -4076.28 -4080.82 -4083.33 -4086.88 -4095.62 -2012.36 -2016.53 -2022.10 -2028.21 -2028.83 -2031.82 -2038.93 -2038.31 -2039.79 -2032.56 -2034.90 -2037.30 -2042.08 -2041.84 -2048.77 -2063.87 -2084.64 -2087.85 -2082.90
1528.43 1527.01 1441.17 1354.85 1300.70 1340.72 1395.13 1439.53 1464.44 1472.49 1480.34 1491.83 1454.33 2464.69 2395.63 2350.37 2335.03 2308.16 2230.39 2185.58 2192.09 2167.39 2137.89 2128.09 2121.88 2116.17 -110.29 -97.10 -102.10 -106.69 -138.34 -134.47 -145.74 -170.37 -162.15 -164.11 -162.56 -154.75 -149.24 -445.06 -431.05 -434.13 -450.04 -443.97 -441.13 -452.78 -467.40 -473.52 -477.32 -474.44 -467.26 -469.89 -681.13 -688.93 -701.47 -699.65 -698.29 -691.35 -682.12 -687.69 -686.02 -692.92 -697.76 -693.35 -688.64 -1071.13 -1075.42 -1071.97 -1074.88 -1075.57 -1082.51 -1073.19 -1069.17 -1081.12 -1078.91 -1073.00 -1077.94 -1080.58 -1174.01 -1177.70 -1178.79 -1179.15 -1185.42 -1183.76 -1178.54 -1183.16 -1182.65 -1177.13 -1180.04 -1182.37 -1184.05 -1230.49 -1229.93 -1233.36 -1233.53 -1233.35 -1233.31 -1243.58 -1246.35 -1305.34 -1359.36 -1403.07 -1618.77 -1995.70 -3421.91 -3635.40 -3701.33 -3808.50 -3926.34 -3945.04 -3989.19 -4009.86 -4049.81 -4060.38 -4084.04 -4077.74 -4086.24 -2002.88 -2004.81 -2012.13 -2024.15 -2020.33 -2031.12 -2031.92 -2033.22 -2034.73 -2036.23 -2038.57 -2040.35 -2034.21 -2047.65 -2055.72 -2068.64 -2094.41 -2088.16 -2087.60
1516.48 1513.21 1424.58 1333.88 1299.66 1349.40 1389.52 1437.86 1439.12 1455.28 1468.54 1459.06 1483.28 2543.84 2443.07 2420.71 2351.90 2294.24 2215.66 2210.84 2210.28 2178.62 2173.39 2150.68 2137.75 2109.56 -117.50 -122.93 -126.08 -138.52 -149.24 -154.96 -165.95 -166.13 -177.00 -163.31 -160.83 -148.90 -139.65 -434.20 -422.59 -423.55 -432.82 -436.41 -447.22 -466.07 -466.19 -482.57 -480.04 -482.84 -472.87 -481.00 -690.51 -692.06 -697.81 -704.31 -700.95 -699.32 -695.27 -690.09 -693.54 -691.48 -703.44 -707.44 -704.63 -1072.77 -1077.17 -1076.97 -1076.04 -1069.73 -1081.45 -1080.42 -1079.44 -1077.18 -1080.68 -1078.66 -1079.01 -1080.77 -1171.31 -1182.50 -1178.13 -1178.32 -1179.92 -1182.04 -1183.30 -1181.67 -1182.03 -1178.81 -1179.19 -1179.43 -1181.39 -1232.40 -1224.82 -1229.62 -1227.59 -1233.88 -1235.36 -1238.12 -1244.42 -1280.33 -1352.50 -1422.23 -1641.45 -1962.52 -3345.98 -3425.96 -3591.94 -3677.44 -3854.08 -3912.94 -3957.21 -4007.33 -4026.91 -4039.10 -4048.23 -4067.38 -4065.23 -1994.20 -2005.81 -2009.81 -2014.77 -2016.91 -2029.43 -2027.79 -2032.54 -2035.37 -2035.31 -2038.40 -2039.79 -2041.25 -2052.39 -2066.08 -2069.24 -2082.63 -2095.35 -2092.02
1442.30 1444.13 1452.90 1257.88 1234.59 1291.17 1349.91 1371.71 1397.36 1401.89 1428.12 1454.85 1463.74 2519.40 2475.15 2446.06 2373.18 2312.93 2248.33 2248.77 2215.84 2188.93 2172.91 2156.17 2139.81 2113.75 -142.39 -137.51 -131.45 -138.27 -158.30 -160.47 -172.42 -173.30 -163.88 -152.08 -140.61 -132.35 -133.62 -413.55 -417.32 -416.52 -427.46 -434.24 -448.14 -449.99 -484.10 -487.53 -489.90 -482.05 -484.84 -486.56 -704.34 -697.27 -696.80 -700.73 -698.04 -700.36 -703.40 -697.35 -697.29 -703.18 -698.88 -708.49 -707.00 -1080.17 -1077.18 -1072.02 -1075.38 -1074.22 -1084.24 -1080.95 -1081.71 -1082.74 -1081.21 -1074.55 -1074.76 -1084.83 -1178.41 -1179.19 -1185.29 -1176.55 -1175.24 -1178.67 -1184.05 -1177.54 -1180.35 -1179.98 -1180.73 -1176.38 -1183.75 -1231.96 -1230.41 -1236.81 -1231.11 -1227.73 -1238.81 -1226.06 -1237.29 -1292.04 -1325.57 -1403.33 -1557.56 -1581.75 -3023.55 -3435.88 -3503.17 -3578.13 -3742.03 -3869.13 -3885.06 -3954.15 -3999.36 -4010.50 -4042.22 -4045.10 -4059.72 -1990.59 -1990.81 -2001.70 -2016.89 -2016.78 -2028.04 -2031.92 -2038.43 -2045.70 -2036.02 -2039.32 -2046.13 -2057.86 -2057.60 -2078.81 -2076.95 -2095.66 -2097.73 -2099.44
1411.29 1416.63 1350.59 1245.70 1226.82 1230.46 1272.83 1304.86 1355.58 1382.03 1401.04 1404.52 1426.21 2464.69 2397.32 2386.65 2405.56 2340.42 2323.76 2269.95 2221.04 2163.97 2152.94 2141.30 2138.44 2110.49 -141.15 -144.28 -146.36 -147.84 -140.23 -150.75 -169.67 -174.72 -155.40 -136.69 -131.89 -120.42 -118.23 -414.90 -412.96 -408.18 -423.99 -437.46 -458.92 -465.66 -485.98 -484.58 -486.27 -476.31 -484.40 -483.81 -702.73 -699.19 -699.56 -693.18 -699.78 -698.16 -704.77 -702.58 -701.92 -695.58 -701.52 -699.96 -703.88 -1078.53 -1078.05 -1075.46 -1084.30 -1080.32 -1079.82 -1082.52 -1082.76 -1084.75 -1086.98 -1084.92 -1083.45 -1078.81 -1183.57 -1180.79 -1180.06 -1179.53 -1175.51 -1178.04 -1178.71 -1177.41 -1179.74 -1175.70 -1184.22 -1180.21 -1181.92 -1234.62 -1231.60 -1230.09 -1235.91 -1232.21 -1234.00 -1234.12 -1228.78 -1243.44 -1295.17 -1361.07 -1398.84 -1665.87 -3061.00 -3353.67 -3410.68 -3587.74 -3700.59 -3742.90 -3837.08 -3917.29 -3942.11 -3991.03 -4005.77 -4013.85 -4043.58 -1984.68 -1987.13 -2001.26 -2004.05 -2016.69 -2027.89 -2030.42 -2040.04 -2048.08 -2047.26 -2052.85 -2055.27 -2062.59 -2073.47 -2072.18 -2081.98 -2104.19 -2109.35 -2119.24
1415.21 1420.98 1364.47 1261.10 1235.50 1202.81 1220.14 1243.23 1283.64 1306.21 1310.49 1306.10 1293.71 2343.85 2300.67 2360.80 2389.35 2379.90 2334.21 2280.97 2209.62 2189.54 2152.32 2128.46 2118.97 2111.31 -140.95 -132.80 -131.44 -122.89 -126.35 -148.38 -172.12 -156.60 -137.05 -119.84 -120.23 -109.72 -108.38 -420.33 -419.19 -417.97 -423.48 -459.01 -462.56 -475.96 -489.51 -490.27 -484.58 -472.64 -473.15 -487.72 -706.08 -697.88 -695.09 -683.34 -686.99 -692.68 -706.46 -699.94 -703.16 -699.44 -697.87 -696.11 -699.57 -1075.71 -1075.56 -1080.79 -1079.88 -1086.17 -1083.81 -1075.75 -1081.82 -1084.00 -1080.32 -1083.45 -1082.42 -1081.39 -1175.59 -1178.79 -1178.49 -1179.79 -1177.96 -1181.52 -1177.48 -1183.50 -1177.29 -1179.47 -1172.38 -1176.90 -1178.26 -1236.27 -1233.37 -1238.47 -1234.24 -1229.95 -1237.33 -1233.32 -1237.53 -1247.01 -1268.31 -1314.78 -1394.70 -1734.28 -3024.22 -3296.94 -3443.59 -3595.57 -3643.61 -3714.19 -3776.75 -3839.46 -3872.48 -3957.28 -3990.72 -3998.51 -4043.63 -1965.69 -1982.33 -1998.91 -2015.50 -2023.02 -2024.65 -2035.54 -2040.51 -2049.00 -2046.82 -2051.92 -2057.12 -2070.76 -2077.54 -2090.04 -2088.44 -2110.08 -2122.35 -2124.98
1487.27 1487.63 1400.39 1292.85 1282.85 1216.53 1191.57 1223.39 1237.24 1245.64 1228.84 1224.96 1223.67 2263.69 2247.83 2300.53 2377.86 2365.25 2324.47 2280.76 2219.74 2179.88 2152.77 2137.56 2119.24 2110.61 -115.51 -119.35 -108.35 -120.85 -128.15 -149.54 -152.64 -145.77 -138.07 -116.97 -119.01 -105.60 -119.35 -430.08 -439.05 -438.21 -458.83 -454.66 -464.92 -479.47 -485.88 -483.47 -479.48 -466.74 -469.51 -461.86 -684.87 -681.89 -682.73 -678.50 -686.10 -695.46 -697.14 -699.89 -700.21 -698.25 -696.58 -697.60 -699.74 -1079.83 -1083.08 -1077.19 -1086.38 -1080.19 -1082.67 -1076.40 -1070.77 -1083.00 -1083.35 -1078.79 -1083.23 -1083.91 -1180.50 -1180.00 -1179.30 -1181.62 -1180.07 -1182.17 -1183.31 -1182.64 -1173.57 -1183.86 -1176.52 -1183.36 -1177.34 -1229.81 -1226.10 -1233.44 -1234.76 -1231.54 -1239.59 -1238.84 -1244.20 -1256.27 -1298.87 -1359.33 -1389.13 -1564.05 -2930.40 -3282.25 -3388.68 -3520.07 -3559.41 -3638.12 -3700.11 -3750.22 -3862.59 -3915.34 -3949.63 -4009.03 -4044.04 -1966.38 -1985.22 -1996.91 -2022.97 -2033.41 -2037.30 -2042.89 -2043.48 -2048.70 -2060.55 -2065.61 -2073.92 -2075.81 -2091.11 -2100.06 -2106.57 -2119.59 -2134.27 -2127.14
1492.27 1490.50 1420.11 1344.23 1280.34 1219.17 1188.63 1209.05 1211.81 1227.46 1225.01 1196.69 1183.37 2222.13 2237.82 2289.12 2342.83 2356.35 2326.01 2274.99 2252.65 2193.55 2154.88 2151.85 2139.15 2128.92 -111.08 -103.49 -102.35 -113.37 -144.86 -144.34 -137.35 -131.92 -111.57 -116.98 -108.64 -125.27 -129.97 -460.85 -459.33 -451.05 -460.12 -463.87 -469.12 -482.65 -488.93 -480.88 -472.70 -465.74 -464.74 -463.10 -673.26 -680.12 -674.18 -671.10 -667.79 -683.58 -693.12 -692.71 -696.54 -694.97 -701.06 -702.73 -707.42 -1078.95 -1083.03 -1083.03 -1077.18 -1083.46 -1079.54 -1072.45 -1074.99 -1079.40 -1083.21 -1078.39 -1082.24 -1078.64 -1182.16 -1183.82 -1176.74 -1174.63 -1176.25 -1176.76 -1184.84 -1177.82 -1179.63 -1185.67 -1180.09 -1178.56 -1179.57 -1231.43 -1232.43 -1230.06 -1236.52 -1227.56 -1235.03 -1233.69 -1257.04 -1284.52 -1325.01 -1379.12 -1393.65 -1529.59 -2855.81 -3055.22 -3261.27 -3364.81 -3513.12 -3557.17 -3639.65 -3724.25 -3805.98 -3880.83 -3933.30 -4014.07 -4048.45 -1970.17 -1991.07 -2004.67 -2030.99 -2026.02 -2035.90 -2045.71 -2055.04 -2056.87 -2071.26 -2068.89 -2080.44 -2095.28 -2089.69 -2102.94 -2104.94 -2126.37 -2144.69 -2141.73
1484.40 1484.20 1486.81 1301.15 1286.55 1233.78 1189.85 1188.14 1185.72 1221.65 1221.77 1200.39 1186.16 2198.94 2206.78 2253.44 2323.75 2344.35 2313.65 2290.90 2266.73 2177.40 2162.16 2145.42 2149.58 2145.23 -91.50 -106.53 -115.40 -132.41 -141.05 -131.45 -124.70 -107.65 -109.70 -106.49 -117.81 -121.27 -139.09 -462.11 -465.72 -470.08 -474.89 -475.27 -485.53 -493.07 -477.84 -464.72 -467.35 -462.99 -459.14 -448.40 -666.65 -667.93 -671.67 -669.84 -664.27 -671.82 -682.52 -688.96 -694.09 -705.75 -700.99 -696.94 -696.54 -1079.41 -1081.51 -1083.29 -1081.76 -1075.27 -1079.09 -1075.70 -1074.98 -1083.56 -1085.61 -1080.40 -1079.82 -1084.27 -1180.43 -1172.06 -1176.24 -1183.69 -1177.75 -1173.05 -1181.37 -1181.76 -1181.56 -1178.86 -1186.05 -1184.62 -1178.96 -1229.82 -1233.24 -1231.23 -1234.80 -1228.95 -1233.54 -1239.95 -1252.63 -1274.84 -1307.70 -1315.96 -1354.95 -1544.22 -2901.91 -3110.00 -3285.42 -3322.22 -3366.08 -3478.85 -3548.51 -3643.33 -3693.98 -3858.42 -3882.78 -3987.09 -4032.71 -1967.35 -2004.56 -2007.16 -2023.11 -2032.46 -2033.71 -2044.25 -2050.97 -2061.24 -2071.19 -2075.51 -2083.60 -2092.70 -2093.78 -2104.72 -2119.97 -2146.34 -2153.80 -2153.75
1480.68 1488.02 1412.13 1308.07 1265.83 1226.88 1187.87 1156.13 1173.23 1179.28 1211.36 1197.67 1166.30 2185.33 2195.90 2254.79 2269.28 2304.63 2313.80 2259.93 2226.83 2171.79 2166.31 2139.42 2140.36 2134.94 -98.25 -119.50 -136.66 -133.47 -122.34 -111.70 -103.97 -110.97 -92.71 -100.63 -125.19 -128.43 -153.85 -471.07 -486.63 -480.74 -482.68 -486.06 -484.31 -483.10 -469.93 -460.35 -457.09 -459.70 -450.86 -440.78 -658.30 -658.03 -664.09 -666.57 -668.99 -678.62 -677.56 -685.35 -695.65 -701.16 -705.64 -701.20 -701.81 -1078.27 -1077.87 -1073.65 -1076.67 -1078.50 -1078.38 -1078.55 -1073.22 -1078.17 -1075.17 -1083.70 -1077.74 -1080.09 -1176.24 -1172.26 -1178.85 -1181.55 -1182.86 -1181.20 -1183.06 -1174.55 -1178.38 -1177.78 -1182.53 -1182.77 -1178.24 -1233.45 -1234.91 -1230.60 -1234.52 -1226.97 -1237.45 -1247.30 -1244.90 -1260.19 -1296.76 -1309.66 -1313.47 -1537.43 -2898.20 -3048.42 -3184.45 -3307.61 -3328.15 -3400.93 -3498.80 -3528.36 -3692.75 -3787.38 -3890.99 -3936.25 -3993.02 -1969.92 -2006.43 -2014.20 -2029.52 -2032.84 -2033.18 -2043.61 -2050.33 -2057.01 -2055.28 -2072.45 -2082.36 -2096.07 -2100.49 -2115.06 -2124.77 -2146.74 -2156.54 -2152.57
1494.08 1491.46 1414.39 1299.62 1234.98 1192.66 1159.14 1150.67 1151.01 1170.05 1187.75 1168.89 1152.76 2166.57 2192.16 2226.09 2266.79 2290.12 2291.43 2257.27 2201.05 2188.19 2158.73 2150.33 2134.46 2121.22 -105.89 -126.10 -124.73 -118.32 -113.06 -97.98 -94.24 -97.33 -96.24 -101.96 -122.43 -151.39 -155.79 -464.98 -474.10 -473.26 -477.72 -482.18 -480.85 -471.52 -462.35 -447.83 -441.86 -445.41 -440.62 -450.49 -661.48 -661.07 -666.41 -667.14 -679.20 -682.98 -688.67 -694.75 -704.91 -704.19 -700.70 -697.67 -694.28 -1067.22 -1068.09 -1073.66 -1078.22 -1075.79 -1076.75 -1074.80 -1077.83 -1078.58 -1080.12 -1072.40 -1079.63 -1080.31 -1172.88 -1181.51 -1183.49 -1176.31 -1177.47 -1179.42 -1182.25 -1182.34 -1183.46 -1178.82 -1178.55 -1176.65 -1177.64 -1228.41 -1231.63 -1228.26 -1237.67 -1226.85 -1231.55 -1231.19 -1233.09 -1240.13 -1245.17 -1293.76 -1318.42 -1494.51 -2816.27 -3083.69 -3122.22 -3237.88 -3307.02 -3366.13 -3403.25 -3555.48 -3599.95 -3784.43 -3869.65 -3903.44 -3966.23 -1995.32 -2007.57 -2020.26 -2020.99 -2023.12 -2030.68 -2035.84 -2039.65 -2050.99 -2061.10 -2071.64 -2081.25 -2085.54 -2098.99 -2105.42 -2118.99 -2136.08 -2152.92 -2150.56
1481.94 1476.20 1392.92 1300.08 1231.79 1148.31 1144.67 1140.30 1166.25 1170.60 1156.84 1161.60 1129.28 2166.29 2175.01 2247.48 2264.90 2291.26 2286.77 2263.27 2242.23 2196.93 2185.86 2164.49 2155.05 2130.76 -111.04 -108.42 -113.11 -107.27 -91.85 -83.71 -80.92 -77.31 -87.56 -99.07 -120.78 -122.74 -140.09 -453.40 -459.63 -462.00 -465.16 -474.20 -472.71 -469.57 -454.13 -443.42 -435.64 -430.45 -436.66 -443.01 -675.95 -674.27 -679.11 -667.59 -680.18 -686.75 -692.49 -698.60 -692.80 -700.47 -693.19 -695.55 -687.65 -1064.28 -1067.27 -1075.25 -1082.22 -1088.90 -1078.82 -1075.55 -1070.34 -1071.97 -1066.14 -1071.87 -1074.28 -1082.31 -1180.90 -1176.80 -1179.91 -1181.57 -1180.78 -1178.31 -1176.77 -1179.20 -1181.90 -1175.35 -1181.06 -1183.41 -1185.51 -1234.20 -1233.10 -1227.70 -1233.91 -1233.77 -1234.83 -1232.17 -1230.15 -1235.65 -1261.62 -1283.89 -1347.84 -1382.88 -2619.75 -2879.51 -3159.79 -3182.07 -3273.16 -3288.69 -3347.22 -3514.46 -3587.35 -3777.37 -3849.03 -3890.71 -3922.27 -1948.02 -1981.79 -1993.10 -1995.59 -2016.25 -2014.93 -2032.28 -2029.96 -2036.78 -2054.17 -2071.43 -2083.65 -2082.57 -2098.21 -2112.85 -2119.72 -2138.11 -2148.81 -2149.09
3709.26 3707.81 3636.52 3518.51 3484.34 3438.24 3414.38 3389.52 3422.05 3411.55 3420.43 3405.36 3390.18 3051.90 3079.73 3142.81 3170.10 3200.05 3189.63 3163.78 3161.61 3129.84 3107.55 3096.91 3070.16 3052.76 1229.83 1217.28 1214.33 1206.35 1224.60 1249.36 1242.30 1239.76 1233.35 1217.83 1199.22 1209.80 1191.37 -143.27 -155.40 -164.11 -167.09 -175.19 -182.76 -174.79 -160.26 -150.77 -128.53 -126.68 -134.51 -141.80 -363.03 -362.25 -375.79 -368.97 -379.32 -376.20 -387.94 -386.87 -377.67 -374.30 -375.80 -367.93 -385.54 -609.85 -617.00 -619.54 -626.05 -616.79 -624.48 -610.69 -606.23 -605.21 -601.51 -610.48 -616.01 -619.81 -744.97 -751.15 -754.93 -751.66 -760.16 -754.13 -755.06 -752.74 -754.09 -753.09 -754.12 -753.13 -753.13 -1253.84 -1245.04 -1249.42 -1245.63 -1248.25 -1250.85 -1242.91 -1250.25 -1254.81 -1248.91 -1293.82 -1373.37 -1389.48 -2318.19 -2528.80 -2668.04 -2770.71 -2955.20 -2995.53 -3023.11 -3115.71 -3357.15 -3470.11 -3522.20 -3597.98 -3644.25 -1899.44 -1944.26 -1959.08 -1962.83 -1984.66 -2005.37 -2017.76 -2020.85 -2031.77 -2039.85 -2061.89 -2073.04 -2083.15 -2089.59 -2101.85 -2114.44 -2123.66 -2142.73 -2143.89
3673.40 3671.84 3582.11 3474.60 3452.06 3450.79 3413.35 3404.95 3380.17 3392.30 3378.34 3392.03 3391.85 3058.63 3074.11 3103.44 3143.62 3148.54 3179.42 3162.56 3158.91 3156.39 3144.81 3116.05 3092.94 3061.88 1233.34 1233.14 1230.23 1228.19 1229.93 1240.69 1237.17 1240.04 1231.02 1208.08 1201.21 1198.17 1177.13 -144.83 -164.27 -168.62 -175.31 -174.39 -176.75 -171.67 -172.43 -156.52 -139.72 -139.64 -137.16 -138.88 -347.10 -360.98 -357.88 -361.66 -368.71 -371.80 -384.99 -372.02 -365.85 -364.22 -366.27 -377.15 -377.67 -618.09 -623.97 -615.72 -617.33 -610.02 -606.02 -614.67 -607.26 -606.30 -604.02 -608.79 -621.03 -619.94 -752.51 -751.14 -754.38 -756.44 -755.15 -757.93 -756.81 -755.74 -752.13 -747.21 -757.11 -748.22 -749.77 -1247.51 -1248.79 -1253.28 -1250.88 -1243.64 -1245.87 -1249.71 -1243.87 -1252.35 -1253.12 -1254.13 -1319.99 -1379.09 -2207.49 -2465.67 -2525.18 -2669.73 -2728.07 -2855.38 -2999.27 -3105.55 -3260.99 -3402.53 -3492.85 -3554.56 -3596.21 -1851.20 -1900.69 -1907.74 -1950.07 -1932.80 -1957.63 -1963.50 -1995.28 -2000.01 -2013.25 -2048.46 -2064.09 -2069.84 -2092.30 -2095.03 -2105.75 -2126.95 -2134.40 -2127.78
3675.49 3672.17 3581.00 3450.29 3438.13 3423.22 3420.96 3400.34 3389.96 3381.27 3373.64 3366.16 3364.90 3033.62 3048.39 3059.21 3077.62 3135.41 3132.93 3147.53 3157.58 3159.07 3150.97 3132.97 3108.50 3070.88 1232.86 1233.82 1235.91 1247.54 1249.10 1243.66 1231.78 1229.19 1212.32 1192.63 1175.89 1177.89 1177.33 -163.37 -177.80 -178.77 -178.99 -169.93 -157.81 -157.44 -165.34 -159.87 -141.23 -127.26 -134.52 -133.33 -343.63 -341.75 -350.82 -355.76 -355.98 -361.77 -375.43 -356.91 -355.77 -357.07 -362.11 -372.36 -378.02 -613.87 -613.16 -612.38 -606.19 -606.51 -602.13 -605.55 -606.58 -595.90 -599.79 -615.84 -614.74 -617.65 -750.56 -746.56 -748.43 -760.48 -750.52 -753.64 -749.47 -753.26 -760.40 -762.55 -758.19 -753.72 -754.30 -1247.44 -1245.65 -1242.58 -1253.86 -1246.53 -1253.29 -1249.10 -1246.14 -1249.70 -1250.26 -1253.35 -1252.93 -1300.96 -2089.26 -2234.76 -2372.72 -2388.74 -2606.23 -2765.61 -2903.34 -2989.06 -3176.12 -3320.04 -3453.24 -3495.09 -3574.11 -1777.31 -1824.21 -1853.43 -1852.47 -1843.60 -1856.20 -1883.79 -1890.23 -1943.79 -1988.74 -2009.17 -2044.79 -2048.01 -2064.46 -2080.82 -2085.83 -2105.86 -2114.27 -2117.48
3757.08 3752.82 3621.69 3461.00 3437.70 3424.04 3421.17 3412.42 3394.23 3384.93 3381.32 3368.49 3374.51 3050.69 3039.86 3050.95 3039.73 3073.34 3087.42 3132.80 3139.39 3146.36 3141.65 3131.24 3137.98 3100.24 1270.02 1257.94 1256.96 1259.70 1253.56 1240.20 1221.67 1219.51 1197.54 1179.48 1163.33 1170.08 1159.61 -162.74 -173.71 -182.68 -175.26 -168.15 -155.55 -150.36 -148.28 -138.19 -135.85 -131.26 -126.12 -131.60 -338.74 -343.15 -337.52 -345.72 -349.50 -349.66 -354.09 -348.67 -342.52 -344.22 -358.38 -364.85 -367.67 -612.91 -613.59 -597.09 -591.97 -602.61 -605.33 -592.92 -599.39 -601.27 -609.48 -609.01 -613.87 -608.58 -741.97 -743.26 -747.32 -751.27 -753.96 -749.72 -752.48 -750.16 -749.26 -754.86 -754.69 -754.70 -757.10 -1250.75 -1246.62 -1248.03 -1242.06 -1245.37 -1246.55 -1250.11 -1247.56 -1249.45 -1247.45 -1255.05 -1246.55 -1263.91 -2047.32 -2051.41 -2238.97 -2314.38 -2425.16 -2598.63 -2691.10 -2836.61 -3128.95 -3223.47 -3321.84 -3385.85 -3500.32 -1726.67 -1763.00 -1764.93 -1770.12 -1821.36 -1834.71 -1869.42 -1875.04 -1896.49 -1931.33 -1955.31 -2012.63 -2040.09 -2051.83 -2064.97 -2085.45 -2099.86 -2097.45 -2102.27
3707.25 3703.01 3628.12 3468.31 3453.59 3445.59 3461.78 3421.70 3430.78 3402.76 3403.77 3388.38 3378.81 3066.06 3057.01 3037.07 3027.05 3053.28 3080.96 3059.92 3107.68 3121.01 3147.60 3141.62 3147.09 3124.22 1275.94 1262.66 1261.76 1250.76 1231.89 1225.30 1218.24 1200.74 1189.64 1175.30 1158.47 1161.93 1145.27 -171.58 -169.57 -167.12 -177.73 -175.02 -163.33 -146.01 -135.16 -123.13 -121.16 -121.63 -108.95 -125.50 -331.63 -333.54 -329.66 -329.95 -339.20 -338.65 -347.34 -345.33 -340.20 -341.03 -343.01 -358.26 -369.90 -602.97 -604.58 -600.98 -591.30 -588.93 -592.68 -591.43 -593.68 -591.97 -601.37 -608.34 -602.94 -611.52 -740.02 -742.59 -742.62 -746.13 -747.58 -754.53 -746.64 -750.85 -755.38 -755.36 -756.07 -753.72 -756.37 -1246.37 -1247.86 -1252.48 -1255.60 -1249.17 -1251.48 -1248.36 -1245.80 -1250.55 -1240.92 -1248.29 -1255.44 -1266.56 -2049.59 -2050.94 -2052.30 -2161.81 -2342.97 -2404.65 -2602.91 -2844.26 -2940.08 -3150.93 -3282.02 -3326.11 -3376.69 -1543.99 -1652.48 -1739.54 -1720.29 -1750.44 -1727.62 -1787.66 -1815.83 -1866.93 -1864.77 -1910.55 -1997.24 -2014.12 -2011.86 -2043.12 -2052.23 -2071.90 -2076.13 -2072.38
3794.87 3794.58 3753.81 3474.46 3477.35 3491.67 3503.34 3484.41 3436.52 3431.91 3433.63 3403.68 3407.65 3098.62 3082.76 3038.78 3023.15 3051.47 3062.26 3054.65 3057.05 3085.41 3113.56 3131.88 3138.72 3135.06 1308.26 1277.96 1263.90 1249.62 1225.54 1199.47 1192.46 1194.19 1167.49 1162.55 1142.39 1140.78 1147.82 -167.13 -148.10 -160.38 -170.35 -174.87 -166.62 -147.67 -114.85 -112.13 -109.25 -109.82 -108.43 -109.12 -318.34 -324.69 -318.26 -328.46 -322.53 -337.76 -334.55 -340.20 -334.79 -335.52 -343.88 -349.99 -354.02 -594.80 -591.40 -595.96 -585.61 -592.23 -586.93 -591.79 -581.06 -590.69 -593.18 -595.54 -599.05 -604.88 -733.29 -735.01 -742.18 -746.65 -747.38 -747.40 -746.10 -751.53 -751.24 -751.20 -749.56 -748.83 -755.78 -1242.27 -1250.89 -1243.87 -1249.06 -1254.03 -1244.10 -1246.86 -1254.00 -1247.58 -1245.12 -1254.16 -1254.44 -1256.03 -2047.07 -2039.60 -2053.83 -2053.47 -2158.64 -2388.47 -2543.64 -2852.15 -2990.02 -3046.32 -3213.89 -3274.63 -3294.16 -1505.75 -1535.06 -1605.96 -1627.03 -1636.75 -1659.76 -1708.67 -1715.32 -1773.51 -1820.99 -1824.81 -1925.67 -1976.07 -2004.81 -2023.32 -2015.70 -2037.83 -2044.34 -2044.00
3725.41 3727.69 3633.51 3513.34 3488.54 3522.52 3569.20 3559.33 3497.18 3461.31 3437.84 3434.74 3425.04 3094.68 3077.62 3041.71 3025.21 3029.81 3040.55 3034.62 3044.54 3085.49 3097.82 3112.22 3118.45 3138.68 1321.29 1294.82 1267.80 1252.76 1232.39 1206.28 1188.18 1178.62 1168.88 1151.61 1140.53 1152.29 1156.55 -148.56 -148.59 -144.02 -160.04 -165.14 -159.42 -153.74 -111.29 -90.58 -100.78 -96.40 -103.13 -108.23 -322.44 -321.26 -318.85 -332.31 -331.59 -333.04 -337.74 -343.77 -337.07 -333.64 -340.69 -343.20 -344.16 -579.17 -586.96 -582.26 -593.31 -587.99 -591.99 -588.06 -595.45 -585.92 -599.43 -593.34 -602.82 -599.91 -720.29 -729.94 -746.70 -746.36 -742.83 -745.90 -738.79 -746.29 -745.33 -744.80 -754.81 -755.96 -756.14 -1244.52 -1250.19 -1249.77 -1248.68 -1249.27 -1250.81 -1251.67 -1248.50 -1246.56 -1250.21 -1245.05 -1250.80 -1255.42 -2037.17 -2041.12 -2038.66 -2049.79 -2144.71 -2234.14 -2634.83 -2832.91 -2986.89 -3002.05 -3103.12 -3217.98 -3225.51 -1392.58 -1394.38 -1392.10 -1471.02 -1505.92 -1542.42 -1601.74 -1645.68 -1712.79 -1740.52 -1799.25 -1844.82 -1900.08 -1926.89 -1937.17 -1974.74 -2008.72 -1999.53 -1994.42
3728.47 3732.76 3617.97 3491.21 3532.40 3585.50 3615.87 3620.83 3544.70 3516.18 3464.84 3455.53 3449.57 3097.27 3097.67 3072.32 3036.02 3022.46 3017.02 3012.18 3022.74 3046.09 3070.08 3085.85 3115.41 3129.43 1329.86 1301.31 1302.33 1276.70 1246.45 1199.59 1192.08 1181.86 1161.45 1150.15 1140.30 1154.32 1165.85 -132.68 -125.90 -137.22 -153.75 -162.96 -159.03 -136.24 -106.70 -89.40 -98.22 -97.32 -104.87 -106.17 -329.76 -335.63 -326.99 -339.12 -346.13 -349.20 -352.95 -341.40 -339.69 -342.94 -338.91 -344.06 -339.70 -582.12 -574.77 -585.48 -579.79 -589.52 -588.59 -588.90 -585.92 -592.36 -595.45 -608.10 -612.48 -604.57 -739.74 -733.12 -744.61 -740.95 -738.82 -739.98 -748.24 -744.38 -741.44 -747.32 -743.94 -750.34 -745.52 -1241.25 -1247.04 -1250.72 -1248.04 -1247.13 -1250.64 -1247.67 -1252.91 -1250.41 -1247.86 -1247.15 -1251.00 -1253.00 -2029.72 -2038.04 -2034.37 -2033.84 -2045.15 -2186.35 -2367.45 -2721.80 -2833.93 -2933.76 -3074.59 -3145.06 -3139.07 -1332.41 -1322.03 -1369.47 -1391.06 -1426.65 -1489.11 -1496.83 -1517.23 -1604.47 -1695.51 -1723.73 -1753.26 -1769.36 -1825.10 -1891.88 -1900.81 -1950.85 -1954.31 -1952.02
3853.83 3843.62 3699.92 3536.08 3607.66 3661.07 3645.87 3652.03 3604.25 3527.00 3494.03 3484.97 3461.50 3113.08 3087.34 3084.61 3073.75 3058.18 3024.94 3024.57 3006.83 3024.60 3042.87 3076.95 3088.83 3120.05 1307.46 1309.43 1282.91 1268.24 1265.00 1229.19 1198.63 1185.54 1168.17 1153.58 1142.36 1146.08 1161.90 -127.82 -117.08 -122.48 -138.89 -146.79 -146.88 -117.38 -102.94 -92.14 -97.57 -108.03 -111.80 -121.57 -327.82 -337.57 -346.52 -347.70 -355.80 -362.80 -355.54 -348.69 -346.52 -344.11 -349.59 -339.02 -346.55 -579.41 -581.91 -585.47 -578.02 -592.70 -599.88 -599.48 -606.03 -605.12 -605.12 -617.95 -623.01 -618.23 -738.18 -740.12 -745.47 -744.38 -743.20 -748.00 -738.63 -743.39 -748.24 -743.42 -743.84 -747.14 -754.62 -1245.49 -1250.36 -1249.02 -1243.31 -1249.23 -1247.69 -1253.44 -1245.96 -1248.55 -1249.96 -1244.10 -1247.13 -1253.41 -2035.86 -2033.07 -2033.07 -2036.10 -2041.49 -2136.06 -2288.81 -2554.39 -2660.82 -2791.13 -2913.26 -3001.89 -3118.48 -1264.92 -1285.48 -1310.54 -1353.25 -1359.99 -1386.85 -1407.23 -1467.19 -1469.63 -1522.29 -1559.19 -1612.43 -1725.56 -1784.35 -1830.49 -1850.26 -1852.12 -1902.15 -1894.02
3823.14 3823.89 3698.32 3606.69 3597.34 3682.40 3684.41 3691.13 3630.41 3562.81 3509.84 3514.60 3485.14 3100.59 3080.54 3089.69 3080.35 3061.83 3050.93 3031.52 3005.71 3023.35 3014.86 3055.53 3068.34 3088.21 1281.03 1283.78 1284.43 1262.88 1255.97 1233.32 1186.24 1182.78 1167.09 1149.04 1137.30 1145.26 1160.29 -132.60 -109.29 -116.44 -128.32 -131.33 -119.51 -110.42 -100.25 -89.00 -94.19 -105.51 -112.75 -131.26 -341.78 -357.67 -359.08 -357.14 -361.88 -374.47 -366.52 -356.03 -357.96 -353.91 -360.13 -368.11 -372.11 -602.54 -595.99 -589.03 -595.67 -607.64 -616.63 -619.50 -611.57 -605.41 -624.16 -621.11 -621.31 -621.00 -745.93 -750.46 -746.58 -747.99 -741.51 -744.53 -739.03 -741.13 -739.52 -748.09 -748.80 -751.40 -751.12 -1248.60 -1246.62 -1250.44 -1246.01 -1250.66 -1247.92 -1247.40 -1243.88 -1253.61 -1250.54 -1244.16 -1252.39 -1250.53 -2029.09 -2031.11 -2033.80 -2037.31 -2048.27 -2054.26 -2204.52 -2387.52 -2456.16 -2613.74 -2842.59 -2982.17 -3074.89 -1227.60 -1205.68 -1244.89 -1246.63 -1269.58 -1275.11 -1318.75 -1328.31 -1372.69 -1447.48 -1468.95 -1576.04 -1606.45 -1683.12 -1790.51 -1794.89 -1845.77 -1827.60 -1830.27
3861.99 3854.61 3916.41 3613.71 3664.05 3700.52 3752.22 3739.89 3692.24 3576.65 3513.01 3492.77 3468.11 3096.88 3071.71 3062.78 3071.97 3079.14 3067.39 3046.97 3039.25 3013.83 3014.08 3023.28 3059.63 3066.01 1259.66 1281.24 1252.97 1247.15 1229.15 1230.90 1177.77 1148.43 1151.52 1136.68 1148.39 1146.44 1170.72 -136.30 -114.86 -104.23 -111.66 -113.65 -108.58 -101.43 -88.54 -89.34 -92.37 -117.72 -130.73 -144.38 -348.97 -360.77 -352.35 -346.47 -349.73 -366.09 -377.44 -366.25 -359.41 -366.53 -374.73 -378.57 -384.76 -611.57 -610.31 -605.25 -608.14 -615.39 -615.29 -618.32 -625.28 -620.24 -617.56 -622.82 -623.72 -628.84 -747.95 -755.85 -749.57 -750.84 -746.02 -746.44 -748.03 -741.95 -754.84 -751.14 -750.31 -749.92 -755.86 -1244.87 -1250.58 -1246.64 -1242.28 -1245.88 -1241.84 -1249.64 -1247.85 -1247.45 -1244.40 -1247.63 -1245.33 -1250.88 -2032.81 -2032.10 -2025.49 -2033.56 -2041.28 -2046.46 -2081.06 -2288.48 -2404.07 -2650.39 -2848.80 -3011.56 -3033.59 -1154.13 -1155.09 -1169.24 -1178.84 -1160.97 -1164.40 -1225.49 -1204.33 -1251.03 -1319.37 -1366.62 -1488.56 -1522.34 -1570.95 -1635.51 -1703.13 -1742.08 -1763.00 -1761.91
4110.51 4109.41 3904.00 3753.51 3709.00 3761.46 3793.87 3782.32 3727.59 3627.88 3531.86 3513.19 3439.68 3080.61 3062.91 3051.10 3051.28 3058.95 3064.75 3058.05 3031.46 3009.21 3001.22 3010.12 3024.58 3052.31 1251.13 1254.42 1221.57 1221.32 1204.78 1170.05 1160.03 1139.89 1146.72 1143.78 1155.03 1162.30 1178.26 -128.35 -115.93 -98.51 -103.08 -88.86 -83.29 -83.71 -87.64 -89.93 -103.00 -112.76 -127.47 -135.32 -350.83 -348.71 -337.06 -344.74 -357.99 -362.04 -372.84 -372.47 -373.18 -373.10 -372.46 -374.49 -393.19 -621.81 -614.34 -599.84 -608.69 -610.84 -621.61 -617.23 -622.04 -619.29 -625.32 -627.16 -622.00 -629.52 -750.86 -759.30 -760.29 -755.32 -754.26 -756.20 -757.60 -752.96 -749.76 -755.07 -756.22 -761.99 -755.92 -1250.93 -1246.50 -1247.44 -1241.20 -1246.92 -1244.50 -1244.72 -1251.11 -1252.62 -1248.75 -1247.31 -1244.68 -1250.76 -2031.69 -2025.96 -2031.44 -2032.34 -2035.92 -2046.58 -2159.39 -2256.93 -2490.07 -2690.63 -2880.84 -2996.23 -2989.24 -1141.29 -1110.12 -1085.80 -1086.31 -1116.98 -1073.50 -1104.88 -1168.43 -1169.23 -1181.31 -1289.42 -1341.35 -1401.40 -1493.01 -1521.85 -1604.68 -1692.21 -1682.47 -1675.96
1813.53 1812.78 1712.56 1481.11 1436.98 1467.16 1490.42 1478.02 1412.29 1291.73 1222.38 1144.36 1075.32 68.74 48.04 24.34 27.89 29.23 23.91 14.86 15.75 -0.38 -10.97 -10.31 7.30 26.58 784.64 782.84 770.68 746.45 730.33 715.33 708.64 711.07 706.89 710.37 731.52 743.91 756.35 719.55 750.93 770.87 763.35 766.65 777.11 770.07 765.67 761.06 750.51 736.55 719.30 709.46 -173.81 -165.05 -160.10 -174.15 -181.13 -197.95 -196.32 -192.92 -202.44 -199.14 -193.25 -203.50 -215.39 -264.47 -261.91 -263.67 -254.67 -258.60 -254.22 -266.37 -268.58 -262.41 -261.97 -255.70 -256.92 -265.75 -714.73 -707.53 -709.43 -713.71 -714.37 -706.57 -712.78 -713.19 -713.61 -710.31 -713.71 -713.71 -712.51 -1236.60 -1234.96 -1235.50 -1228.40 -1224.97 -1227.31 -1228.27 -1231.43 -1231.42 -1231.65 -1226.57 -1228.27 -1227.85 -1639.10 -1641.87 -1640.51 -1642.78 -1644.96 -1660.79 -1796.31 -1939.69 -2176.80 -2322.53 -2484.61 -2560.07 -2571.67 -1099.31 -1056.35 -1049.39 -1034.33 -1025.25 -1039.50 -1044.99 -1040.28 -1027.50 -1028.01 -1114.37 -1199.45 -1248.39 -1341.99 -1463.04 -1466.46 -1599.49 -1598.46 -1597.79
1988.17 1985.78 1786.20 1522.47 1520.71 1557.37 1524.18 1462.35 1365.92 1328.43 1210.05 1132.35 1072.78 60.13 51.76 36.65 22.84 14.41 4.47 1.27 -1.82 -21.22 -27.72 -16.05 1.27 5.69 776.64 769.98 756.15 738.78 726.46 705.28 711.51 718.18 723.01 730.58 740.17 758.83 779.47 766.39 758.79 775.29 772.63 776.58 778.73 776.23 760.55 760.88 755.38 739.05 716.12 719.68 -170.39 -156.73 -154.79 -165.77 -178.26 -177.20 -189.53 -182.01 -199.73 -198.49 -186.40 -192.10 -207.65 -260.72 -263.59 -265.96 -269.47 -264.57 -258.99 -265.61 -261.96 -260.32 -255.02 -255.32 -252.44 -267.07 -700.19 -708.59 -706.80 -712.29 -712.52 -709.19 -705.19 -704.59 -710.88 -698.93 -711.88 -714.51 -714.40 -1227.07 -1231.56 -1230.85 -1228.04 -1222.93 -1229.34 -1230.74 -1229.01 -1233.75 -1231.81 -1231.10 -1230.35 -1229.97 -1640.04 -1643.33 -1639.93 -1642.93 -1651.93 -1654.93 -1777.40 -2017.67 -2248.66 -2286.96 -2438.02 -2476.32 -2539.08 -1055.65 -1040.97 -1029.10 -1035.11 -995.13 -974.89 -966.90 -970.86 -999.44 -1008.17 -1001.81 -1044.58 -1162.75 -1278.26 -1343.31 -1406.22 -1432.87 -1513.71 -1510.94
1972.61 1977.08 1760.90 1649.95 1596.18 1588.04 1537.46 1446.42 1392.95 1255.92 1190.88 1103.90 1104.41 72.97 47.28 45.61 26.67 22.98 -1.12 -8.06 -15.47 -11.77 -19.37 -28.92 -26.55 -17.17 755.96 748.16 744.95 722.60 718.90 716.30 724.77 732.41 725.18 767.29 765.43 791.52 806.15 782.09 781.88 791.60 777.84 776.10 778.74 774.21 758.84 749.45 743.00 738.19 729.41 712.79 -161.59 -161.67 -155.47 -165.21 -172.46 -168.25 -161.31 -175.48 -185.34 -189.71 -183.69 -186.03 -201.30 -257.08 -248.30 -255.11 -261.58 -263.82 -274.79 -265.97 -258.13 -253.01 -247.58 -251.95 -245.92 -244.86 -697.22 -697.59 -698.79 -708.23 -703.10 -704.01 -710.38 -710.92 -707.64 -707.78 -707.36 -708.87 -713.46 -1228.56 -1229.50 -1227.11 -1232.96 -1219.12 -1227.11 -1222.68 -1229.48 -1232.90 -1223.67 -1238.29 -1230.38 -1235.72 -1638.19 -1646.89 -1641.01 -1645.10 -1649.97 -1664.72 -1665.64 -1980.57 -2208.50 -2263.82 -2373.66 -2501.24 -2514.25 -1047.17 -1021.60 -994.44 -985.87 -980.17 -930.66 -937.01 -894.71 -912.61 -917.78 -940.86 -1006.42 -1032.99 -1124.99 -1326.56 -1327.59 -1425.80 -1435.25 -1433.08
1877.90 1877.41 1889.49 1550.27 1575.47 1517.53 1406.89 1384.25 1347.28 1316.94 1196.22 1188.71 1128.40 136.62 98.27 70.82 56.87 29.08 15.40 1.80 4.12 -14.11 -22.18 -22.64 -29.69 -22.10 736.00 733.02 727.26 718.44 712.19 714.90 738.50 760.51 775.99 795.69 778.90 807.16 832.07 815.27 797.82 779.81 778.42 772.43 767.87 759.80 737.00 737.08 737.35 738.92 734.04 724.74 -163.31 -148.17 -151.50 -149.48 -159.92 -164.72 -156.74 -166.02 -173.76 -182.96 -180.45 -176.06 -181.76 -232.30 -242.74 -249.88 -253.17 -264.14 -270.89 -263.87 -259.57 -248.00 -250.27 -243.54 -232.87 -241.10 -687.86 -690.72 -699.36 -698.70 -701.43 -708.12 -699.79 -708.85 -708.11 -709.01 -704.86 -710.65 -710.71 -1230.93 -1224.99 -1231.89 -1224.35 -1227.35 -1229.07 -1228.42 -1239.23 -1227.59 -1232.11 -1229.29 -1225.56 -1232.74 -1645.79 -1641.60 -1640.21 -1648.15 -1654.68 -1662.36 -1683.02 -2045.37 -2273.67 -2292.41 -2356.12 -2482.27 -2495.58 -1013.45 -999.58 -979.53 -935.19 -897.51 -871.94 -879.32 -853.73 -843.87 -850.05 -850.79 -923.81 -955.01 -1024.01 -1137.38 -1236.07 -1311.03 -1363.75 -1359.86
1819.86 1822.42 1685.85 1524.53 1460.64 1425.17 1308.35 1345.82 1400.85 1404.98 1338.67 1221.77 1206.12 163.57 142.06 109.33 96.94 55.94 38.37 23.17 2.20 4.44 3.43 -26.46 -30.79 -30.95 718.74 724.25 713.86 715.72 717.72 728.30 744.95 773.16 777.35 815.24 812.77 826.04 837.26 812.42 788.06 777.22 771.35 770.64 760.88 742.52 738.20 737.71 733.81 740.35 741.44 738.37 -155.63 -147.91 -134.31 -143.73 -149.18 -153.10 -144.64 -156.16 -168.78 -173.53 -184.23 -178.17 -180.73 -231.10 -229.23 -239.82 -248.34 -260.92 -266.64 -264.05 -252.22 -254.52 -237.04 -238.95 -237.27 -242.70 -685.26 -686.47 -691.02 -696.89 -705.49 -702.79 -706.93 -716.58 -709.77 -713.52 -707.61 -707.19 -710.62 -1228.73 -1236.08 -1227.08 -1225.75 -1232.78 -1233.91 -1231.64 -1234.38 -1231.56 -1233.04 -1231.49 -1232.94 -1230.31 -1640.50 -1650.53 -1645.18 -1651.97 -1661.65 -1670.08 -1697.22 -1932.48 -2181.13 -2291.61 -2404.97 -2459.80 -2469.94 -1001.91 -999.30 -934.70 -907.04 -887.18 -862.20 -815.85 -804.02 -808.09 -809.85 -834.83 -871.45 -886.10 -917.50 -1031.32 -1150.82 -1267.13 -1296.26 -1301.11
1808.50 1815.17 1633.38 1463.10 1342.01 1279.74 1302.14 1322.18 1403.36 1403.47 1339.60 1264.52 1226.40 176.45 136.24 115.47 117.64 100.26 82.64 43.37 28.92 29.07 20.94 1.42 -21.08 -30.76 727.17 718.71 724.59 714.86 719.01 729.47 752.55 764.08 803.05 822.56 847.47 851.82 849.84 805.91 780.41 773.79 772.92 756.28 749.03 742.75 740.80 739.97 741.20 752.18 752.72 746.74 -160.93 -146.84 -139.17 -138.62 -142.99 -148.17 -154.72 -158.77 -162.77 -176.01 -181.35 -182.90 -187.24 -233.34 -232.30 -245.33 -257.19 -265.20 -268.41 -250.82 -235.77 -239.50 -233.02 -231.85 -234.63 -239.15 -682.08 -686.09 -683.25 -699.98 -702.29 -715.45 -711.62 -711.10 -712.85 -710.26 -712.61 -713.13 -708.04 -1230.21 -1234.40 -1228.70 -1226.88 -1227.84 -1233.85 -1224.09 -1232.72 -1229.97 -1230.60 -1233.18 -1229.70 -1236.70 -1641.25 -1651.89 -1653.36 -1657.94 -1656.80 -1690.88 -1720.20 -1850.08 -2092.05 -2333.46 -2413.83 -2427.07 -2460.65 -975.12 -956.66 -910.44 -886.52 -868.25 -819.74 -779.11 -754.45 -747.60 -763.35 -767.84 -812.90 -835.94 -902.71 -989.08 -1053.06 -1253.54 -1249.60 -1248.12
1625.36 1629.93 1668.35 1346.82 1329.04 1269.57 1235.65 1286.89 1368.03 1372.10 1315.98 1303.91 1284.34 227.16 197.88 148.18 161.25 143.12 105.04 80.63 66.54 64.00 28.15 4.41 -10.07 -3.57 735.27 725.03 730.76 731.67 733.62 743.24 767.40 769.38 802.88 837.50 859.13 851.44 847.39 800.48 778.64 766.00 763.39 756.61 747.82 745.25 753.26 754.03 765.32 764.82 757.20 750.34 -148.87 -147.67 -135.50 -133.00 -147.79 -152.63 -150.52 -165.82 -176.08 -178.35 -198.81 -200.65 -199.48 -247.33 -250.13 -246.75 -255.10 -253.62 -254.25 -251.59 -238.36 -233.06 -235.23 -226.79 -232.19 -236.56 -675.54 -691.21 -691.85 -700.91 -698.00 -706.75 -711.02 -714.38 -711.77 -713.12 -708.13 -714.81 -711.70 -1224.52 -1233.37 -1233.08 -1235.33 -1229.77 -1237.94 -1232.84 -1236.08 -1232.36 -1229.00 -1223.99 -1232.86 -1237.85 -1635.24 -1642.47 -1648.57 -1661.46 -1656.19 -1690.46 -1719.62 -1886.65 -1998.04 -2222.54 -2368.78 -2398.35 -2421.71 -962.12 -941.12 -898.24 -863.04 -848.35 -814.51 -763.63 -740.95 -735.14 -731.00 -719.45 -751.66 -795.59 -866.76 -961.91 -1047.25 -1144.70 -1203.67 -1203.55
1573.09 1576.24 1436.59 1351.83 1290.38 1236.69 1212.17 1271.48 1308.41 1295.46 1287.86 1297.19 1308.62 259.21 216.19 164.95 171.13 164.74 104.23 78.49 66.97 32.20 19.78 -10.14 2.92 8.18 752.29 756.63 750.66 746.00 749.71 752.81 771.96 778.47 811.50 844.04 851.71 854.13 838.61 785.87 770.43 763.50 756.80 747.65 746.54 755.14 768.38 776.55 778.55 775.87 770.85 755.31 -144.87 -132.72 -136.62 -138.26 -150.45 -159.33 -166.62 -176.80 -180.57 -194.81 -195.36 -196.39 -201.09 -241.11 -248.56 -250.44 -241.32 -245.97 -246.21 -236.22 -242.54 -233.96 -225.72 -231.00 -240.31 -241.41 -690.11 -694.83 -700.05 -699.03 -710.17 -711.49 -709.90 -708.36 -709.76 -708.83 -706.83 -711.97 -711.56 -1231.42 -1230.39 -1233.76 -1229.47 -1232.57 -1226.49 -1230.17 -1228.86 -1229.84 -1231.19 -1226.99 -1238.98 -1238.11 -1645.48 -1644.04 -1636.63 -1653.73 -1654.58 -1680.63 -1777.00 -1822.29 -2003.73 -2185.03 -2356.74 -2380.62 -2411.27 -955.48 -910.41 -875.68 -831.65 -814.19 -757.10 -710.35 -712.49 -688.20 -691.83 -716.71 -753.37 -788.57 -809.50 -933.92 -986.02 -1119.62 -1164.41 -1160.72
1563.26 1560.87 1441.39 1313.09 1244.71 1190.81 1210.02 1252.17 1279.30 1267.13 1241.05 1265.69 1282.92 295.50 260.78 207.32 178.47 155.08 88.37 38.74 36.84 14.93 9.06 4.89 23.89 39.51 769.79 756.74 762.99 771.29 764.06 765.69 778.53 793.99 812.21 837.72 854.99 847.82 827.74 778.57 769.33 765.86 756.40 750.10 757.17 765.43 774.29 784.95 801.92 785.50 779.27 767.06 -129.73 -130.56 -140.90 -145.07 -154.55 -158.78 -167.39 -183.99 -188.05 -185.74 -180.47 -183.74 -185.60 -239.72 -246.64 -247.76 -233.82 -241.51 -232.60 -242.84 -237.42 -235.28 -234.05 -236.92 -241.55 -247.42 -695.92 -698.15 -705.34 -701.47 -711.34 -715.26 -714.71 -705.32 -705.23 -703.78 -698.14 -700.79 -708.93 -1230.96 -1237.70 -1226.24 -1230.81 -1232.08 -1221.73 -1227.08 -1227.97 -1227.34 -1233.18 -1235.03 -1234.31 -1232.55 -1639.18 -1641.17 -1645.41 -1653.31 -1656.23 -1666.03 -1756.15 -1906.68 -2027.42 -2113.90 -2314.92 -2343.71 -2379.69 -912.32 -875.35 -832.62 -804.32 -790.37 -721.70 -709.42 -672.43 -674.67 -673.91 -676.40 -721.25 -744.21 -786.89 -876.42 -909.30 -1122.00 -1118.32 -1121.09
1615.45 1620.25 1489.73 1328.97 1255.11 1185.78 1178.56 1193.97 1220.52 1213.75 1214.29 1227.14 1271.76 281.72 255.10 197.44 191.17 161.15 92.56 23.02 26.94 22.01 28.03 20.27 32.08 27.75 783.71 770.23 784.39 796.24 800.70 795.16 782.79 804.84 827.32 849.59 857.56 848.02 833.93 784.58 771.30 759.62 760.35 764.28 774.45 774.24 787.77 808.08 804.24 797.11 780.08 777.41 -121.10 -127.68 -135.73 -149.08 -154.64 -176.57 -177.68 -175.32 -181.42 -173.29 -173.95 -165.75 -180.66 -232.42 -230.62 -230.87 -220.07 -233.18 -237.30 -238.54 -242.19 -232.98 -240.60 -231.15 -244.15 -253.38 -703.01 -702.69 -700.71 -712.71 -713.90 -710.29 -711.60 -709.13 -699.28 -692.82 -689.76 -704.50 -710.17 -1233.22 -1232.05 -1231.00 -1222.16 -1216.28 -1218.60 -1226.61 -1227.89 -1224.37 -1231.77 -1228.95 -1233.25 -1235.85 -1638.26 -1639.28 -1645.55 -1642.62 -1657.68 -1667.72 -1730.18 -1881.26 -1950.68 -2084.29 -2211.22 -2239.96 -2303.55 -882.60 -858.58 -795.26 -773.61 -727.10 -681.48 -628.25 -637.52 -644.01 -637.09 -641.16 -678.76 -699.20 -756.64 -796.69 -886.50 -972.35 -1065.86 -1067.29
1577.36 1580.32 1463.96 1330.57 1295.58 1204.34 1148.62 1151.07 1131.74 1155.19 1194.87 1234.25 1273.69 286.05 252.74 195.90 161.76 106.62 69.71 45.58 49.45 36.16 59.85 49.48 67.07 42.64 792.27 776.69 790.54 813.41 827.46 826.23 811.75 823.00 847.54 866.49 857.38 840.97 836.49 776.04 776.07 772.24 774.10 774.45 780.29 792.39 799.41 821.96 821.42 815.47 801.57 784.68 -124.88 -128.46 -133.90 -147.05 -140.83 -150.66 -167.17 -174.37 -168.29 -172.23 -158.50 -168.63 -168.53 -218.49 -220.83 -224.79 -228.68 -228.69 -239.76 -252.55 -248.04 -255.89 -245.12 -245.54 -246.93 -249.25 -702.70 -708.93 -706.28 -705.65 -712.34 -711.08 -715.93 -708.66 -692.66 -683.64 -690.45 -698.19 -709.47 -1222.05 -1224.32 -1220.11 -1218.24 -1218.76 -1215.49 -1223.80 -1223.67 -1230.69 -1231.26 -1231.58 -1232.42 -1228.23 -1637.68 -1642.33 -1638.65 -1642.16 -1651.29 -1666.50 -1674.61 -1759.84 -1821.94 -2012.57 -2061.27 -2137.58 -2232.62 -773.83 -773.37 -780.69 -723.92 -697.73 -644.40 -625.88 -590.32 -607.69 -610.68 -631.29 -656.60 -698.73 -708.54 -744.45 -836.27 -966.67 -1000.64 -1003.83
1535.92 1535.61 1449.28 1326.71 1304.01 1223.61 1155.32 1139.10 1127.68 1154.25 1189.70 1254.90 1271.84 290.68 283.39 216.91 153.86 100.68 105.30 75.24 75.55 63.16 77.50 80.80 74.28 67.74 808.57 794.48 803.86 807.67 835.78 836.59 835.01 851.41 878.07 880.84 869.05 849.41 841.69 792.88 789.85 782.74 780.79 796.73 804.60 798.12 811.33 829.91 843.01 817.55 804.02 778.34 -121.38 -132.89 -128.86 -146.43 -138.47 -148.80 -164.69 -169.37 -167.36 -160.73 -160.44 -163.87 -164.15 -219.09 -217.65 -223.81 -232.90 -229.86 -247.86 -253.67 -258.29 -251.20 -251.77 -252.42 -248.85 -252.99 -696.95 -709.81 -707.89 -711.54 -700.98 -700.31 -706.14 -699.77 -695.45 -686.69 -689.31 -690.84 -699.52 -1222.02 -1217.77 -1217.66 -1219.50 -1219.59 -1219.58 -1221.86 -1226.89 -1219.21 -1234.73 -1234.08 -1225.96 -1230.23 -1637.29 -1635.88 -1640.44 -1642.42 -1651.00 -1655.20 -1664.26 -1668.31 -1676.65 -1765.75 -1822.94 -1867.48 -2026.62 -706.06 -734.30 -718.94 -686.53 -630.45 -604.09 -585.36 -579.72 -557.51 -571.89 -589.66 -587.56 -626.82 -655.98 -711.74 -729.86 -933.78 -930.49 -926.28
3587.65 3583.19 3493.25 3357.73 3303.42 3291.31 3242.60 3198.88 3180.62 3216.67 3240.18 3311.26 3365.06 3412.27 3398.38 3361.43 3291.56 3240.80 3212.21 3198.37 3186.43 3187.44 3191.87 3219.01 3211.37 3193.74 715.55 688.26 688.72 707.90 725.29 743.94 744.88 771.69 783.03 779.27 757.80 751.45 730.05 770.13 757.85 744.11 743.49 763.28 780.65 782.31 789.96 797.40 800.24 781.92 740.47 722.42 140.95 131.32 118.84 127.51 124.29 118.66 102.14 87.37 82.50 98.85 105.09 103.84 96.29 -52.80 -54.32 -59.20 -56.31 -69.30 -81.76 -87.36 -91.31 -92.15 -89.20 -86.92 -95.34 -99.73 -277.11 -282.28 -267.57 -268.20 -269.52 -268.46 -263.66 -264.06 -252.58 -254.91 -256.43 -254.40 -259.57 -267.33 -269.30 -273.65 -275.88 -272.95 -277.16 -279.71 -285.99 -290.48 -290.48 -286.00 -289.47 -292.18 -285.20 -286.84 -287.04 -290.90 -293.82 -284.74 -301.21 -300.39 -309.36 -317.32 -328.20 -424.24 -491.49 -578.85 -667.37 -673.72 -617.97 -589.27 -550.99 -519.03 -517.42 -512.22 -514.80 -539.48 -523.90 -563.59 -582.28 -648.35 -712.27 -792.45 -848.88 -850.91
3506.67 3507.58 3505.20 3347.16 3274.96 3254.77 3215.05 3196.81 3178.09 3207.57 3252.96 3311.65 3328.07 3411.73 3388.94 3366.97 3332.83 3291.95 3278.11 3235.79 3224.62 3227.62 3220.97 3235.07 3249.11 3230.15 736.05 700.35 697.69 713.71 739.13 775.39 783.17 795.24 806.83 783.73 759.48 744.01 749.53 779.89 770.58 755.57 760.94 785.92 796.24 789.81 800.27 800.29 793.19 752.23 721.75 712.77 127.66 119.13 107.28 109.01 114.69 111.75 103.09 80.65 77.97 77.51 83.49 94.62 87.16 -67.85 -67.40 -59.84 -63.79 -65.68 -80.23 -90.62 -89.11 -92.96 -98.67 -93.29 -99.36 -98.86 -272.11 -267.38 -265.36 -260.64 -259.99 -260.45 -254.16 -254.41 -255.17 -253.37 -246.25 -258.59 -261.85 -272.44 -269.80 -275.51 -278.65 -276.24 -280.01 -289.06 -280.27 -282.17 -287.29 -280.52 -291.94 -285.88 -283.73 -282.01 -281.10 -281.71 -289.60 -293.65 -286.63 -290.44 -290.59 -299.60 -329.57 -346.16 -450.78 -377.71 -635.39 -597.06 -590.27 -519.27 -494.67 -484.46 -469.35 -461.52 -480.65 -478.75 -503.13 -500.29 -553.68 -610.41 -645.76 -757.25 -778.85 -772.38
3413.99 3410.77 3429.46 3269.82 3240.22 3235.73 3205.30 3164.62 3171.87 3200.20 3245.69 3285.98 3323.97 3363.57 3373.70 3367.54 3353.69 3333.90 3305.34 3276.18 3288.05 3300.53 3280.01 3275.76 3247.90 3242.18 756.66 735.21 709.44 727.99 779.29 816.50 823.17 818.27 797.14 760.92 744.05 736.94 757.59 801.22 783.32 785.58 784.12 787.78 787.95 779.39 784.35 777.22 767.80 743.68 712.54 710.19 109.34 109.06 98.87 105.45 115.19 114.47 95.68 80.20 71.14 73.48 84.46 81.18 70.27 -85.74 -82.53 -78.91 -68.45 -73.71 -82.87 -90.78 -89.23 -84.28 -90.56 -91.54 -93.40 -89.60 -277.13 -271.70 -253.47 -255.56 -251.15 -249.66 -246.23 -249.26 -243.50 -249.10 -246.60 -252.56 -255.37 -267.66 -272.10 -271.61 -279.06 -278.74 -285.40 -284.99 -284.51 -283.94 -291.22 -285.58 -282.52 -292.44 -287.52 -285.89 -289.09 -285.79 -287.72 -290.98 -289.31 -286.49 -290.54 -289.79 -311.62 -328.67 -346.86 -316.18 -421.40 -508.64 -514.31 -500.27 -481.23 -445.67 -454.99 -441.64 -433.37 -438.75 -460.71 -473.29 -492.88 -521.73 -577.57 -630.04 -701.44 -703.47
3379.20 3384.57 3314.85 3231.70 3218.25 3216.03 3190.36 3171.76 3166.18 3182.13 3233.69 3266.54 3289.75 3349.63 3363.93 3374.91 3359.36 3345.55 3373.32 3376.75 3379.03 3335.60 3336.16 3304.23 3278.31 3275.62 798.63 770.68 785.61 800.81 855.88 851.25 845.36 815.26 782.59 734.81 725.11 736.13 747.68 791.19 778.38 775.79 777.05 770.32 779.53 771.96 762.05 740.37 735.37 720.69 711.14 695.85 113.52 101.80 92.85 102.84 93.50 89.57 87.87 76.24 73.08 72.07 66.69 68.06 58.23 -86.58 -91.15 -87.20 -84.88 -79.61 -85.12 -88.89 -85.56 -82.77 -82.69 -79.58 -87.00 -91.42 -271.79 -261.52 -253.59 -248.87 -241.38 -237.70 -245.94 -244.45 -246.73 -244.53 -246.66 -250.11 -255.14 -263.96 -276.30 -276.15 -280.67 -287.38 -281.07 -282.16 -285.33 -287.50 -292.27 -285.23 -284.60 -293.08 -282.22 -290.67 -290.12 -286.95 -291.92 -287.65 -290.04 -287.26 -287.25 -283.50 -284.33 -311.93 -342.23 -312.29 -371.21 -501.45 -480.78 -453.12 -432.22 -425.79 -420.15 -416.54 -423.47 -421.45 -445.65 -463.22 -468.37 -510.92 -556.51 -630.29 -636.52 -634.25
3378.52 3383.71 3315.64 3224.56 3203.64 3189.08 3177.51 3166.38 3153.05 3175.22 3209.39 3267.69 3281.32 3330.79 3321.85 3330.59 3358.90 3385.05 3406.87 3425.92 3398.41 3340.01 3336.75 3318.56 3306.98 3308.87 839.93 822.23 818.34 879.50 871.52 868.01 823.33 808.88 757.89 713.85 704.33 711.91 739.72 776.69 764.03 759.72 743.89 759.97 762.60 766.45 745.53 725.72 708.87 707.32 702.66 693.92 106.84 103.31 95.64 83.60 75.62 76.28 68.46 73.07 69.58 72.62 73.69 62.56 55.78 -83.79 -96.76 -90.51 -87.10 -88.38 -89.88 -83.83 -83.51 -68.03 -66.74 -71.33 -78.54 -73.55 -259.22 -254.63 -248.88 -243.99 -245.48 -241.14 -237.97 -238.94 -243.47 -249.59 -256.05 -259.11 -257.99 -270.83 -271.83 -281.32 -280.53 -280.88 -281.06 -277.24 -281.59 -281.92 -290.19 -294.98 -290.77 -288.27 -282.61 -287.80 -283.16 -288.06 -288.76 -284.05 -289.65 -290.80 -290.10 -284.94 -287.44 -302.23 -328.87 -231.70 -362.24 -405.74 -453.32 -419.86 -409.05 -385.19 -393.05 -391.68 -404.77 -420.06 -424.21 -440.38 -456.01 -499.35 -524.03 -573.81 -592.77 -589.46
3369.20 3365.29 3293.42 3191.70 3192.59 3159.98 3153.22 3152.35 3160.27 3187.92 3199.03 3241.72 3252.83 3289.53 3296.64 3293.47 3362.84 3402.03 3412.15 3423.75 3388.12 3359.43 3340.30 3300.09 3291.52 3313.87 845.46 850.29 870.93 890.41 906.06 855.54 784.96 770.81 728.53 694.63 689.70 691.35 687.79 741.08 726.53 731.27 716.86 733.18 741.13 736.11 723.41 698.32 692.47 686.00 687.05 682.04 109.69 100.66 93.52 83.23 83.39 73.71 65.75 74.48 82.05 69.13 65.97 55.91 66.85 -72.73 -77.77 -86.49 -78.17 -72.00 -73.26 -78.38 -69.87 -61.76 -62.70 -58.89 -71.40 -61.52 -244.15 -249.30 -245.62 -242.40 -244.70 -243.27 -243.99 -250.65 -250.81 -252.77 -256.60 -263.88 -263.14 -282.33 -278.93 -279.08 -279.76 -275.77 -280.31 -283.75 -278.25 -286.71 -286.79 -287.94 -290.89 -289.84 -285.68 -279.54 -283.92 -281.64 -289.40 -285.97 -287.44 -282.05 -285.68 -289.18 -283.45 -297.91 -311.18 -232.87 -278.66 -330.76 -417.97 -381.07 -376.51 -365.18 -362.23 -366.59 -373.66 -403.27 -411.21 -432.26 -453.75 -479.56 -498.10 -533.50 -557.26 -556.26
3369.94 3374.54 3306.31 3188.73 3157.08 3156.15 3151.50 3138.82 3149.30 3176.13 3186.18 3200.21 3194.54 3257.63 3259.65 3293.39 3317.79 3384.38 3395.09 3377.86 3356.24 3335.92 3300.74 3282.48 3263.71 3279.29 840.85 844.92 862.72 895.13 908.23 890.47 838.94 752.43 729.23 693.74 684.28 674.34 686.84 728.56 727.04 715.78 717.51 716.13 728.28 710.80 700.12 698.00 683.96 677.43 676.11 679.14 106.58 94.25 83.50 91.39 87.89 84.27 77.21 85.38 84.31 77.94 73.91 68.85 71.09 -60.31 -75.24 -79.12 -64.84 -59.96 -62.92 -57.30 -51.55 -54.01 -55.00 -53.99 -53.65 -61.51 -238.76 -240.64 -247.53 -241.65 -246.38 -242.17 -245.80 -250.67 -254.27 -254.73 -262.31 -266.32 -274.73 -278.97 -281.16 -283.47 -275.75 -276.80 -284.01 -277.76 -282.05 -287.58 -286.02 -287.74 -293.64 -286.27 -285.32 -279.29 -286.94 -287.43 -286.81 -290.10 -288.21 -289.07 -293.46 -280.42 -290.35 -291.51 -309.21 -221.07 -276.57 -319.75 -362.28 -353.38 -329.21 -331.70 -343.76 -352.47 -375.00 -384.01 -406.72 -426.58 -457.09 -480.37 -508.47 -564.75 -546.02 -545.82
3430.05 3425.88 3312.92 3189.27 3179.14 3165.78 3168.37 3167.42 3155.15 3137.16 3149.86 3160.60 3169.57 3213.40 3243.21 3270.32 3304.14 3320.48 3306.34 3293.68 3282.39 3281.32 3253.74 3238.17 3226.78 3261.89 812.24 833.15 851.57 872.10 912.08 881.10 812.54 755.56 732.55 697.88 687.68 676.92 675.68 713.36 704.85 694.89 698.07 704.01 705.56 701.64 688.15 677.94 683.19 674.84 676.19 678.47 92.71 87.09 90.30 102.12 110.03 106.40 95.63 84.58 101.29 89.27 82.17 93.08 89.41 -66.42 -71.83 -69.92 -63.21 -58.61 -41.45 -52.57 -52.11 -57.09 -50.01 -54.31 -56.90 -60.60 -239.75 -245.00 -241.59 -245.25 -247.92 -252.21 -251.92 -257.29 -255.72 -257.88 -266.20 -271.61 -276.48 -285.84 -281.39 -279.66 -281.21 -280.04 -278.60 -280.37 -291.20 -290.85 -295.85 -288.40 -289.43 -290.47 -283.30 -287.79 -289.56 -285.95 -286.93 -290.61 -288.38 -289.84 -284.48 -292.75 -286.18 -286.89 -290.74 -215.09 -241.79 -270.97 -306.61 -301.14 -313.20 -293.63 -298.18 -306.34 -322.96 -370.03 -387.67 -434.62 -448.92 -487.58 -533.68 -583.55 -579.39 -582.45
3390.73 3380.39 3311.54 3195.26 3189.51 3200.62 3216.01 3189.85 3163.69 3151.48 3136.96 3145.04 3143.15 3199.47 3230.93 3247.24 3259.65 3255.53 3258.66 3262.51 3263.23 3251.60 3214.12 3206.84 3209.90 3232.67 803.73 817.71 805.75 841.92 878.48 861.91 817.89 756.72 731.00 708.28 712.55 676.50 677.21 719.80 714.76 702.12 698.89 699.18 689.14 686.66 683.77 677.68 676.36 676.23 673.64 683.13 93.88 92.02 96.42 100.77 115.67 109.53 108.50 101.86 112.60 107.06 105.38 103.45 92.93 -54.81 -62.02 -59.41 -51.02 -42.65 -43.48 -35.97 -43.81 -55.24 -52.33 -50.96 -59.76 -65.01 -240.68 -242.28 -248.64 -243.97 -247.54 -260.57 -261.88 -256.60 -259.12 -256.74 -257.82 -273.11 -277.40 -287.15 -287.67 -280.48 -285.57 -288.52 -291.35 -290.74 -285.52 -291.85 -290.01 -284.39 -288.74 -289.67 -289.66 -286.43 -286.43 -280.76 -292.45 -288.36 -289.03 -287.32 -285.81 -295.08 -288.72 -288.92 -288.90 -193.79 -233.63 -269.33 -296.81 -290.31 -262.09 -280.70 -267.65 -285.26 -305.87 -321.11 -387.32 -410.75 -441.47 -539.67 -547.14 -587.77 -637.85 -634.83
3419.83 3414.98 3437.61 3254.67 3233.04 3247.08 3233.16 3222.81 3171.97 3148.19 3146.12 3135.40 3141.05 3190.60 3226.33 3231.41 3242.18 3241.86 3234.32 3245.75 3276.73 3263.03 3224.51 3205.46 3189.50 3208.71 771.04 770.02 768.12 812.40 861.84 832.53 832.72 784.37 743.70 750.94 777.41 738.14 716.12 752.38 749.57 733.47 713.52 712.84 701.59 698.41 697.53 691.94 687.97 685.17 704.02 695.30 110.50 97.15 105.05 110.82 117.88 125.66 129.90 120.65 107.80 117.14 119.67 115.58 98.75 -47.78 -55.34 -51.55 -52.21 -36.65 -36.49 -31.99 -38.30 -51.25 -52.42 -56.06 -64.22 -65.68 -253.29 -248.58 -252.60 -254.52 -257.03 -264.11 -270.95 -268.64 -260.39 -252.58 -261.57 -265.12 -280.81 -288.55 -281.97 -283.89 -291.75 -287.11 -289.51 -292.40 -289.99 -285.12 -289.60 -289.59 -291.37 -287.90 -285.95 -282.81 -290.04 -286.47 -286.51 -287.16 -285.18 -287.52 -292.20 -286.96 -288.58 -286.21 -289.96 -188.52 -226.27 -255.03 -265.33 -235.22 -247.54 -231.90 -258.37 -248.95 -281.68 -312.81 -366.97 -403.42 -474.47 -541.62 -596.20 -621.61 -651.09 -648.11
3487.70 3487.47 3479.19 3297.46 3251.74 3268.21 3260.43 3214.03 3169.37 3157.15 3132.48 3120.89 3126.27 3181.68 3199.69 3195.73 3211.41 3215.82 3230.37 3260.20 3283.74 3288.48 3238.63 3199.92 3188.49 3180.01 742.33 747.83 751.27 797.43 834.45 850.72 826.46 801.54 779.01 778.98 785.87 777.48 762.08 784.87 781.20 753.83 731.15 717.52 708.34 703.87 708.56 703.97 699.95 697.70 708.48 723.04 139.01 134.80 134.45 128.95 132.61 144.08 143.12 128.27 119.55 118.50 134.74 130.90 99.79 -39.38 -31.12 -28.20 -38.15 -28.69 -37.62 -33.57 -44.00 -47.77 -57.31 -67.35 -69.62 -71.46 -255.32 -259.21 -248.60 -259.89 -265.20 -273.94 -270.73 -264.78 -267.80 -263.45 -261.72 -269.88 -275.64 -289.55 -284.33 -285.34 -287.76 -285.65 -287.06 -284.90 -289.12 -283.25 -280.53 -282.53 -286.55 -288.34 -284.39 -284.10 -284.44 -279.80 -284.04 -285.22 -287.45 -293.25 -283.84 -286.22 -285.57 -288.33 -287.72 -183.13 -201.14 -213.17 -203.63 -205.71 -216.30 -225.86 -224.13 -226.84 -249.80 -278.54 -336.64 -386.12 -476.49 -523.86 -585.24 -625.07 -636.93 -629.05
3521.95 3524.17 3426.04 3311.52 3323.60 3266.04 3252.96 3201.60 3170.51 3143.44 3120.24 3117.31 3116.67 3172.67 3185.62 3183.63 3175.74 3206.54 3223.64 3251.32 3277.92 3278.90 3267.43 3228.92 3197.28 3175.22 728.42 734.63 748.00 790.64 822.65 845.56 840.85 829.58 830.31 828.11 832.75 808.72 783.89 804.97 797.85 765.37 725.26 716.95 720.56 727.21 715.62 714.71 709.77 708.04 719.56 730.40 163.86 160.23 142.81 136.69 149.81 146.34 151.55 141.77 138.02 141.60 140.32 130.75 129.15 -25.65 -29.29 -34.29 -31.92 -38.60 -35.16 -36.46 -44.44 -53.76 -58.72 -68.15 -66.96 -63.33 -257.91 -262.24 -269.64 -265.14 -274.39 -276.41 -274.89 -282.34 -270.73 -273.08 -266.30 -278.06 -278.45 -288.69 -282.25 -282.07 -282.68 -278.88 -280.64 -283.82 -283.40 -286.92 -282.76 -285.46 -281.90 -285.06 -282.55 -281.19 -280.28 -293.94 -288.88 -287.89 -291.13 -286.14 -287.05 -285.03 -288.95 -290.18 -283.22 -170.84 -167.99 -193.41 -185.45 -180.26 -188.61 -189.51 -193.63 -197.05 -220.37 -257.23 -301.05 -334.95 -425.27 -513.79 -533.17 -593.22 -599.45 -598.76
1237.57 1235.19 1131.86 1097.91 1089.55 1027.09 966.80 925.90 886.23 879.80 856.05 841.52 827.20 596.94 587.76 588.33 595.74 617.27 643.24 676.09 678.98 698.63 666.72 651.01 619.61 610.23 433.77 446.96 485.45 513.97 524.09 530.93 522.19 518.05 530.54 549.56 546.43 534.81 526.05 735.54 700.47 666.62 646.03 633.74 633.17 642.76 632.50 622.39 606.48 605.24 614.11 624.83 177.99 179.89 173.55 177.30 171.49 173.42 178.58 173.93 175.21 168.50 168.49 156.94 156.70 -37.43 -35.15 -44.31 -47.83 -47.05 -57.94 -50.80 -64.23 -70.84 -74.11 -85.24 -83.15 -76.58 -250.95 -254.71 -252.09 -266.76 -268.39 -279.60 -276.57 -278.04 -268.75 -272.52 -270.83 -276.04 -274.52 -280.43 -276.39 -273.10 -282.21 -278.84 -282.75 -285.42 -288.11 -288.02 -284.90 -287.55 -286.25 -291.15 -745.39 -737.52 -747.06 -745.38 -748.00 -748.17 -748.24 -745.29 -750.24 -746.10 -743.28 -745.54 -745.32 -177.22 -176.21 -176.17 -173.17 -174.40 -173.27 -174.53 -174.89 -181.57 -201.57 -235.48 -248.01 -283.01 -384.38 -481.02 -512.91 -540.75 -546.31 -554.60
1288.30 1292.46 1261.70 1135.56 1151.47 1084.25 1024.37 962.36 919.51 894.38 875.54 861.09 836.89 601.64 596.51 588.16 581.11 591.62 619.00 650.39 661.49 662.79 649.63 616.01 610.86 603.14 431.62 472.98 478.64 504.88 520.35 507.22 498.61 493.94 502.22 537.21 545.88 540.84 537.08 753.17 736.18 691.46 666.40 647.95 666.69 676.50 664.30 645.60 634.14 633.91 617.09 631.69 177.57 187.90 175.40 167.27 176.32 169.99 169.21 165.94 170.88 176.06 178.75 181.26 164.30 -19.75 -21.05 -39.67 -38.74 -52.70 -49.27 -52.42 -54.20 -61.11 -70.48 -79.02 -81.06 -79.09 -245.56 -247.21 -257.77 -251.00 -265.21 -267.50 -278.54 -279.63 -278.18 -279.05 -279.95 -267.67 -271.38 -272.51 -273.87 -282.87 -289.88 -286.18 -285.24 -288.13 -283.78 -295.65 -289.75 -289.30 -284.27 -288.14 -749.90 -750.38 -752.87 -745.23 -753.02 -748.37 -753.83 -753.91 -747.56 -741.94 -749.56 -753.71 -748.63 -171.73 -174.62 -177.80 -175.50 -174.58 -175.77 -178.77 -172.26 -178.99 -180.93 -207.39 -240.23 -272.00 -366.08 -434.28 -434.90 -486.89 -494.70 -494.15
1400.59 1390.26 1289.57 1187.28 1168.76 1097.70 1037.95 985.10 933.56 912.98 910.07 885.78 869.71 613.71 593.77 578.95 583.80 593.24 620.49 625.55 628.98 619.98 631.40 609.75 602.62 590.06 438.24 461.91 476.89 480.59 480.34 483.18 476.18 480.71 496.02 510.44 513.78 523.09 532.03 760.41 750.49 712.11 673.62 672.14 670.49 684.72 680.33 665.87 649.78 655.29 632.25 638.96 188.36 182.91 176.48 167.21 177.74 165.04 166.90 161.76 157.73 174.60 178.77 187.98 175.44 -11.01 -19.79 -32.92 -36.65 -49.21 -50.89 -53.83 -65.73 -59.10 -79.43 -86.48 -86.06 -82.00 -244.13 -249.54 -257.52 -263.60 -261.95 -266.22 -274.43 -273.99 -273.22 -271.54 -268.21 -265.42 -263.50 -271.61 -277.40 -284.29 -286.83 -280.09 -281.60 -285.29 -289.72 -285.28 -288.56 -287.76 -286.64 -284.13 -748.91 -753.08 -744.08 -747.93 -745.08 -753.94 -747.46 -746.93 -750.96 -754.30 -745.88 -744.30 -754.22 -173.97 -169.02 -168.50 -171.54 -176.03 -170.25 -174.48 -175.01 -170.96 -174.90 -190.84 -201.70 -268.69 -299.57 -392.36 -391.32 -430.59 -445.28 -445.47
1367.04 1371.78 1371.20 1198.26 1183.36 1137.19 1055.78 1013.33 973.70 943.91 924.12 891.33 872.07 609.87 593.25 580.53 578.20 599.40 608.21 622.44 617.71 605.73 599.95 594.00 590.09 594.54 432.57 473.62 469.95 478.82 469.55 445.58 444.50 473.32 468.04 467.95 470.77 487.55 517.49 754.09 765.25 730.92 707.15 696.48 686.31 690.55 685.13 670.87 671.28 653.94 653.24 636.79 180.77 173.71 165.43 169.80 169.44 162.77 157.46 147.51 143.61 148.88 162.32 172.63 171.70 -12.47 -21.89 -43.06 -42.80 -50.40 -56.12 -61.31 -62.60 -69.20 -79.62 -78.07 -87.10 -91.08 -259.69 -257.20 -252.71 -269.06 -263.98 -265.32 -261.39 -269.70 -274.73 -266.87 -262.67 -271.66 -268.08 -278.91 -284.44 -281.67 -280.94 -280.73 -275.02 -289.15 -286.62 -282.86 -288.88 -281.38 -289.93 -281.55 -744.71 -743.39 -748.93 -748.16 -749.79 -742.87 -749.03 -746.80 -747.49 -751.10 -750.21 -747.74 -750.64 -176.56 -175.76 -170.15 -168.68 -172.66 -173.00 -169.55 -171.63 -171.84 -170.65 -174.81 -189.70 -204.70 -231.30 -329.29 -341.21 -393.65 -383.50 -393.59
1346.56 1347.69 1266.47 1221.77 1178.48 1117.55 1028.17 974.54 959.87 936.78 909.92 896.63 875.15 618.87 600.50 594.29 592.38 584.44 596.14 600.54 588.32 594.46 595.19 582.60 589.46 602.12 445.17 469.03 483.76 463.53 444.13 433.04 437.25 454.07 453.68 445.24 449.55 459.71 509.68 753.78 766.94 736.97 713.86 698.62 686.98 682.91 670.42 667.26 661.87 652.81 643.59 637.57 165.86 165.75 160.06 153.07 154.29 148.87 141.58 143.38 146.88 141.63 162.53 162.84 162.15 -13.88 -36.71 -42.89 -57.91 -48.55 -60.06 -68.64 -66.61 -63.46 -66.19 -77.39 -84.20 -96.20 -259.49 -258.44 -271.49 -273.51 -269.41 -268.77 -263.97 -269.66 -266.53 -258.88 -266.19 -268.99 -272.21 -284.25 -282.16 -280.30 -278.49 -276.60 -276.75 -283.14 -288.77 -289.18 -282.85 -287.15 -278.33 -287.05 -744.97 -746.52 -746.88 -748.59 -749.17 -749.30 -750.67 -745.26 -755.23 -751.20 -750.37 -747.24 -750.70 -176.77 -171.88 -164.71 -168.06 -168.14 -166.22 -164.25 -167.37 -174.43 -175.84 -168.31 -179.57 -176.78 -179.49 -244.21 -274.10 -307.86 -340.52 -334.36
1342.00 1336.83 1259.86 1169.18 1152.94 1068.64 967.82 929.87 902.56 901.74 900.12 867.03 866.36 598.90 620.14 593.69 585.37 577.06 576.32 573.75 579.78 580.80 582.60 577.55 595.92 594.53 449.97 463.52 468.25 461.77 442.83 412.26 416.86 431.49 430.17 434.56 457.81 462.51 500.95 758.82 751.24 739.77 703.06 692.84 682.34 677.37 668.91 658.59 655.87 643.18 639.41 623.67 163.95 160.61 163.16 153.72 160.42 153.11 152.63 148.45 140.45 131.63 146.85 163.88 162.80 -16.30 -27.00 -43.80 -45.70 -60.40 -58.33 -59.36 -59.58 -71.53 -61.47 -77.10 -85.17 -90.97 -267.63 -257.56 -265.32 -267.26 -272.29 -271.63 -271.36 -269.21 -261.89 -266.57 -260.11 -261.67 -274.61 -284.67 -282.98 -282.44 -279.05 -273.55 -285.83 -282.94 -285.15 -282.89 -285.11 -284.11 -277.22 -278.66 -736.74 -744.80 -748.47 -747.97 -746.50 -742.95 -748.24 -754.58 -751.07 -745.27 -742.33 -747.29 -749.12 -165.68 -169.01 -162.25 -157.18 -162.82 -165.72 -159.14 -161.57 -165.85 -169.30 -178.07 -172.78 -174.76 -177.70 -195.07 -205.46 -242.85 -271.21 -271.15
1261.01 1264.81 1211.42 1116.37 1050.55 1006.81 948.26 919.02 901.62 872.00 849.77 852.37 857.31 634.09 632.71 620.05 596.13 580.07 575.91 578.11 580.86 573.35 561.48 576.04 584.50 591.20 413.34 448.87 440.58 442.35 422.80 416.77 407.05 417.01 421.63 445.73 462.13 496.56 500.86 738.14 735.68 703.84 692.33 679.14 667.09 660.15 647.62 649.87 650.02 643.65 626.45 617.83 166.79 170.82 167.38 170.75 167.81 174.41 162.96 157.34 138.98 132.34 136.25 151.32 160.78 -18.68 -17.62 -30.31 -44.21 -45.95 -49.76 -48.22 -51.66 -49.26 -58.84 -74.24 -89.03 -89.76 -256.79 -266.83 -266.70 -262.43 -274.12 -272.49 -266.97 -265.71 -262.73 -265.01 -266.41 -273.40 -273.63 -274.57 -268.37 -276.70 -276.52 -284.64 -283.04 -278.27 -282.06 -281.85 -273.80 -277.40 -277.97 -284.34 -740.07 -742.29 -754.00 -742.28 -751.39 -754.01 -745.23 -746.78 -752.18 -750.96 -747.47 -748.48 -746.11 -172.95 -171.95 -161.48 -157.84 -149.95 -154.34 -155.34 -159.91 -164.01 -161.60 -170.56 -178.42 -169.48 -177.33 -190.59 -183.50 -216.69 -221.50 -221.06
1181.92 1181.95 1172.14 1112.27 1058.12 1009.40 951.69 957.91 924.63 886.60 842.37 843.28 863.58 649.12 664.92 624.67 611.59 598.41 603.57 599.31 592.77 583.92 576.63 570.55 577.45 587.97 403.33 397.34 425.01 416.09 415.23 404.61 403.30 404.38 405.37 427.15 469.54 476.56 484.66 723.63 713.21 690.34 674.61 672.07 650.51 660.12 644.40 644.30 638.83 631.94 634.79 631.14 185.00 189.55 185.60 186.22 174.91 170.01 171.90 161.88 145.49 134.73 130.24 137.40 158.81 -27.67 -22.91 -32.37 -30.78 -36.35 -40.51 -43.67 -53.11 -54.85 -60.70 -68.15 -84.02 -89.65 -251.11 -251.97 -256.53 -265.23 -266.76 -258.92 -256.82 -262.26 -251.87 -262.00 -270.56 -271.98 -268.38 -268.96 -269.31 -270.19 -277.38 -277.46 -270.93 -266.71 -274.78 -270.27 -272.65 -272.95 -275.47 -280.02 -739.15 -747.99 -747.30 -747.37 -751.60 -747.47 -754.14 -747.35 -748.12 -749.65 -750.56 -743.12 -747.95 -173.24 -168.09 -160.71 -167.15 -152.95 -152.33 -147.15 -147.81 -162.39 -168.77 -168.37 -166.00 -174.05 -174.42 -176.41 -177.61 -193.90 -223.35 -219.82
1100.89 1102.71 1144.58 1086.61 1076.61 1042.38 1015.09 1007.90 974.89 901.67 847.37 867.02 907.19 694.18 682.98 661.61 618.79 615.20 626.15 631.42 611.56 601.19 571.89 571.15 563.35 571.03 382.06 387.70 402.49 409.42 405.61 404.41 396.38 401.23 399.36 408.52 441.05 470.62 479.28 718.24 703.77 694.35 667.96 660.51 657.07 651.34 649.89 633.00 637.21 645.80 642.58 633.21 193.60 198.22 188.52 182.55 171.96 175.77 175.71 166.07 156.22 141.62 130.13 123.94 141.01 -25.21 -19.48 -27.11 -35.00 -36.13 -43.61 -47.93 -50.70 -51.68 -59.91 -69.72 -78.26 -77.52 -241.12 -241.11 -254.65 -249.24 -256.36 -254.03 -250.60 -246.40 -246.07 -265.22 -268.45 -270.23 -260.12 -269.81 -268.43 -271.08 -269.80 -270.90 -260.70 -265.12 -266.18 -267.76 -267.93 -268.57 -272.45 -278.26 -740.16 -745.61 -746.56 -742.01 -747.41 -750.34 -750.06 -745.32 -743.70 -753.27 -746.73 -741.34 -741.50 -171.19 -174.03 -172.86 -158.05 -147.95 -140.63 -139.49 -146.30 -151.43 -159.62 -170.83 -166.03 -172.57 -179.25 -176.40 -174.75 -189.41 -170.64 -173.03
1171.20 1170.10 1113.74 1081.90 1077.68 1080.15 1063.24 1034.32 1025.67 961.25 911.66 899.57 925.65 701.61 692.13 669.53 639.26 618.12 639.33 654.06 629.33 609.14 585.94 572.79 564.85 566.38 381.93 377.67 382.87 396.65 403.66 406.70 392.46 395.46 397.52 402.46 437.53 458.29 470.70 712.20 704.00 679.50 674.07 662.27 658.88 650.63 651.23 655.05 658.74 650.98 659.30 655.02 202.79 194.78 198.99 185.92 174.81 171.72 160.47 165.49 156.82 159.44 140.71 131.38 121.55 -35.35 -27.84 -24.18 -27.83 -38.40 -44.84 -53.63 -54.70 -57.46 -67.22 -78.44 -74.71 -70.71 -228.68 -228.10 -234.52 -239.40 -238.04 -246.86 -245.04 -248.57 -254.28 -262.84 -267.74 -258.78 -256.78 -262.09 -260.29 -258.70 -268.40 -264.86 -268.81 -261.00 -270.45 -262.79 -269.06 -276.82 -278.45 -278.09 -743.94 -746.26 -742.54 -744.84 -743.04 -737.32 -744.64 -745.50 -746.80 -745.11 -746.89 -740.76 -743.63 -175.71 -170.65 -165.78 -157.05 -152.30 -152.76 -143.92 -143.43 -158.43 -164.38 -165.27 -170.24 -171.07 -175.66 -175.05 -178.57 -166.82 -168.21 -172.79
1164.48 1166.12 1128.39 1071.74 1064.93 1084.93 1073.55 1055.96 1012.23 1016.87 934.81 926.41 936.78 700.21 682.39 649.36 628.63 624.15 648.15 672.14 643.91 625.49 603.92 587.28 578.59 566.29 384.14 376.31 377.10 378.86 386.88 382.72 378.86 385.93 399.68 399.02 434.48 449.33 477.71 723.51 715.26 700.99 688.24 688.52 667.54 680.45 676.42 677.06 661.87 669.12 659.76 655.73 202.51 191.62 192.00 179.21 164.66 158.55 152.45 148.71 156.28 161.55 146.72 126.51 111.58 -43.58 -35.68 -27.29 -26.50 -32.40 -36.07 -48.79 -61.85 -60.39 -66.23 -71.67 -66.71 -66.59 -226.85 -235.84 -235.43 -241.04 -241.54 -233.52 -245.17 -252.08 -258.60 -256.17 -265.33 -265.61 -254.82 -258.28 -253.33 -255.33 -263.39 -264.55 -264.05 -261.23 -258.41 -266.31 -271.47 -267.43 -277.62 -277.80 -741.47 -747.72 -744.42 -740.84 -745.30 -735.59 -736.66 -740.58 -746.90 -748.19 -752.35 -745.98 -745.90 -166.99 -165.74 -164.34 -151.87 -147.23 -150.35 -136.13 -141.71 -149.14 -156.57 -163.56 -174.69 -175.65 -172.26 -175.06 -176.54 -170.16 -171.77 -173.99
1143.77 1144.67 1110.17 1046.33 1045.05 1073.04 1090.89 1075.89 1075.26 1025.97 983.19 953.53 982.53 715.76 687.81 651.66 643.48 641.45 688.16 695.75 666.29 648.40 609.81 587.32 586.77 585.37 393.39 397.82 380.35 368.81 380.98 373.92 376.04 390.25 395.62 417.23 456.27 466.83 467.34 724.84 729.10 713.68 707.55 690.27 698.95 702.85 710.38 687.36 672.92 666.10 668.11 659.74 193.86 185.53 171.82 164.98 168.52 153.59 137.76 135.71 138.69 147.82 137.74 121.50 111.02 -55.72 -39.63 -23.24 -28.29 -24.61 -35.53 -39.98 -54.00 -54.77 -51.89 -57.12 -53.23 -52.46 -221.53 -230.14 -233.25 -233.46 -239.34 -244.96 -253.46 -250.15 -257.98 -262.45 -257.05 -251.90 -251.50 -252.99 -258.70 -252.31 -257.46 -256.42 -254.45 -253.73 -258.09 -259.14 -264.56 -269.48 -274.52 -279.83 -740.84 -744.20 -743.58 -749.36 -737.22 -752.26 -739.28 -739.15 -741.25 -740.28 -747.41 -743.21 -739.50 -164.29 -164.98 -149.32 -150.10 -144.60 -141.54 -140.33 -149.51 -152.36 -158.37 -167.61 -167.56 -172.42 -173.28 -178.01 -173.18 -169.17 -164.82 -165.91
2331.85 2332.20 2284.82 2249.16 2239.32 2250.08 2281.85 2277.79 2299.00 2249.64 2207.46 2215.30 2199.44 2457.68 2413.77 2383.06 2345.13 2381.29 2423.42 2415.60 2397.11 2353.94 2333.74 2315.60 2293.03 2281.34 881.19 878.32 853.70 843.79 831.11 836.21 841.47 866.70 872.25 901.19 929.17 923.67 939.89 946.64 960.29 956.04 954.94 936.22 939.89 952.70 947.37 942.26 915.95 902.16 905.77 905.18 178.08 157.05 144.61 144.72 133.85 128.83 109.39 112.43 109.93 119.12 112.89 93.65 95.80 -52.67 -32.76 -28.45 -24.70 -22.65 -28.36 -23.81 -43.31 -44.79 -41.91 -46.40 -50.05 -51.89 -170.66 -176.94 -183.90 -185.86 -186.48 -195.96 -205.46 -201.18 -207.59 -206.31 -204.83 -204.29 -201.81 -194.85 -190.24 -187.16 -189.44 -189.76 -192.78 -189.61 -193.22 -197.25 -206.53 -210.89 -217.75 -214.61 -215.37 -228.10 -225.03 -229.35 -230.95 -220.85 -220.26 -216.46 -222.02 -222.58 -223.48 -220.58 -222.22 -168.27 -151.72 -153.98 -147.54 -146.06 -134.80 -137.15 -140.14 -145.22 -156.92 -161.95 -166.84 -175.26 -173.31 -166.18 -166.18 -168.16 -164.69 -169.36
2315.12 2309.84 2309.12 2225.30 2231.20 2246.75 2267.45 2277.97 2292.38 2268.00 2238.11 2243.74 2224.40 2457.76 2418.14 2392.78 2380.63 2432.93 2470.53 2470.93 2440.26 2397.17 2336.79 2339.80 2317.29 2306.19 881.61 876.30 855.91 829.42 831.89 823.21 835.73 848.83 875.72 895.53 921.11 929.44 938.49 934.38 939.74 947.70 928.23 941.03 932.61 944.29 954.18 934.32 908.92 906.08 911.12 908.80 188.47 163.92 157.77 139.08 126.89 117.79 109.13 104.01 93.77 105.53 101.83 83.52 83.53 -55.53 -48.29 -37.41 -33.81 -24.69 -28.12 -29.16 -33.75 -35.81 -40.58 -35.37 -52.95 -53.01 -173.33 -178.33 -183.55 -191.87 -191.96 -194.73 -199.14 -208.64 -200.52 -193.03 -200.63 -203.92 -199.44 -193.91 -188.14 -182.87 -176.52 -181.66 -187.35 -183.67 -187.62 -200.60 -205.63 -204.44 -212.44 -212.59 -213.62 -218.77 -228.66 -227.06 -226.51 -214.96 -219.34 -215.50 -217.22 -218.57 -222.97 -219.49 -216.30 -156.23 -156.00 -148.63 -140.95 -141.20 -132.64 -138.94 -137.34 -143.42 -149.48 -152.00 -158.30 -164.59 -168.89 -169.96 -170.10 -167.10 -178.06 -177.46
2292.14 2292.37 2269.01 2238.87 2228.98 2238.22 2249.65 2261.97 2274.91 2276.51 2255.53 2248.99 2235.28 2501.51 2504.21 2450.77 2452.75 2445.76 2513.21 2521.03 2476.06 2465.83 2398.75 2375.95 2333.16 2315.61 893.35 883.03 853.88 837.73 833.09 827.00 823.50 846.37 865.90 886.94 912.27 925.10 934.25 920.38 899.79 922.46 912.48 922.86 937.10 936.59 927.01 922.65 901.18 906.57 902.86 909.34 186.50 181.23 165.79 152.61 142.75 132.56 124.28 106.33 95.20 94.62 87.28 82.02 90.00 -58.20 -61.98 -49.46 -33.60 -27.45 -15.65 -21.72 -27.88 -28.85 -34.46 -45.25 -47.43 -52.08 -167.05 -178.61 -186.88 -187.23 -192.43 -193.84 -190.04 -192.06 -189.85 -191.96 -195.30 -200.76 -188.81 -186.48 -186.21 -185.06 -184.77 -190.41 -183.63 -189.11 -190.63 -195.36 -199.76 -203.77 -199.29 -206.15 -211.29 -219.03 -215.25 -220.43 -219.48 -223.94 -216.81 -215.37 -209.91 -214.65 -212.46 -214.61 -213.22 -154.26 -156.26 -155.26 -145.13 -144.64 -137.30 -137.05 -141.69 -137.89 -148.36 -152.54 -152.93 -154.83 -156.96 -166.91 -166.36 -168.15 -156.74 -159.04
2285.64 2284.14 2259.45 2233.97 2231.43 2241.41 2247.31 2248.43 2247.13 2249.76 2242.23 2238.27 2249.26 2520.30 2511.49 2500.02 2492.90 2518.57 2534.22 2535.06 2531.63 2483.55 2433.93 2379.55 2320.95 2318.58 891.21 868.53 855.40 844.91 838.95 833.18 820.28 836.26 843.67 879.26 894.91 914.76 900.44 891.63 888.22 897.01 893.08 913.25 906.01 907.71 916.32 910.57 888.82 896.69 896.83 900.58 189.56 180.73 170.31 163.76 147.34 137.56 136.93 127.83 116.06 85.48 85.88 92.41 85.12 -71.96 -70.26 -66.33 -44.95 -36.78 -19.74 -25.71 -20.52 -27.18 -36.96 -43.33 -52.23 -56.05 -174.27 -180.08 -184.03 -183.72 -186.57 -188.88 -189.58 -187.05 -193.11 -188.66 -185.14 -186.62 -185.58 -193.64 -180.44 -171.82 -182.27 -180.59 -187.02 -182.59 -194.38 -185.11 -191.03 -198.01 -197.82 -205.74 -211.13 -212.77 -210.60 -213.31 -218.61 -208.29 -217.92 -209.00 -210.43 -208.68 -207.71 -213.26 -215.28 -153.34 -158.19 -156.87 -140.39 -144.99 -146.47 -142.27 -149.33 -138.60 -145.03 -145.75 -154.58 -154.67 -160.77 -160.10 -166.93 -166.65 -153.85 -156.57
2265.01 2263.05 2264.61 2226.38 2225.90 2239.64 2249.46 2245.06 2240.81 2239.10 2232.84 2237.83 2239.21 2525.05 2532.68 2525.52 2524.22 2537.64 2544.55 2526.92 2522.00 2479.31 2413.43 2383.04 2328.08 2304.24 886.32 870.48 865.54 870.81 865.89 846.41 821.31 826.74 842.28 870.48 880.73 878.91 877.40 872.35 867.74 873.65 870.21 871.21 884.04 883.86 899.51 894.31 890.95 877.84 881.66 881.45 176.54 179.42 172.41 165.02 148.32 152.14 144.46 129.62 119.00 113.56 106.75 95.81 88.95 -92.05 -70.51 -65.14 -54.72 -34.70 -23.28 -22.44 -22.52 -31.72 -41.22 -40.55 -57.66 -66.79 -173.13 -178.43 -184.47 -186.49 -189.40 -184.08 -182.34 -182.92 -183.49 -184.15 -183.48 -181.37 -176.99 -183.32 -176.38 -183.82 -181.77 -176.23 -178.28 -184.43 -189.68 -184.28 -197.23 -197.21 -193.46 -202.36 -210.21 -218.17 -211.25 -209.44 -210.97 -208.91 -213.67 -213.47 -211.80 -207.33 -211.12 -211.85 -206.68 -159.81 -158.06 -164.69 -160.12 -150.73 -150.64 -155.35 -148.91 -144.70 -142.67 -147.97 -144.51 -147.26 -147.26 -153.59 -158.33 -148.37 -143.03 -153.16
2252.86 2252.56 2240.03 2222.93 2222.28 2230.08 2240.91 2241.62 2243.51 2236.04 2230.76 2231.18 2252.21 2528.31 2528.27 2530.04 2536.11 2530.74 2537.85 2523.73 2495.91 2444.48 2416.25 2360.47 2332.78 2313.11 887.06 882.62 884.47 889.99 870.70 843.82 834.44 825.87 853.36 855.70 867.49 865.23 849.05 858.79 853.07 862.53 863.57 855.59 866.29 884.00 894.13 893.07 895.94 878.15 871.92 856.53 153.84 160.61 168.81 159.13 152.68 154.77 143.30 133.13 133.40 120.41 108.48 104.70 78.01 -94.19 -74.44 -67.07 -57.91 -34.46 -28.09 -21.69 -27.70 -31.96 -44.95 -55.07 -57.78 -66.41 -179.21 -178.04 -186.99 -195.39 -199.57 -191.16 -198.34 -185.79 -185.88 -185.59 -183.14 -172.95 -174.08 -176.19 -173.56 -174.88 -178.97 -181.21 -185.00 -185.28 -190.44 -191.67 -197.56 -202.88 -197.73 -208.80 -213.08 -214.82 -215.12 -212.91 -216.36 -219.72 -215.40 -216.97 -208.48 -211.89 -216.25 -211.62 -218.10 -162.12 -168.37 -171.88 -159.50 -152.82 -152.51 -153.97 -151.74 -149.30 -141.08 -139.34 -140.41 -144.66 -142.95 -152.08 -144.94 -146.06 -139.82 -133.84
2252.16 2252.80 2234.60 2226.87 2222.32 2225.52 2238.93 2233.49 2236.79 2227.66 2226.30 2231.76 2247.43 2529.56 2536.84 2533.71 2535.51 2538.08 2526.40 2509.78 2469.52 2446.48 2425.30 2399.09 2346.38 2310.00 904.89 900.25 893.94 896.35 859.48 853.10 829.16 823.32 828.60 835.79 839.11 838.18 825.09 845.33 841.85 847.80 852.29 844.40 855.97 883.48 890.83 898.03 893.75 884.08 869.60 869.96 147.24 151.73 166.02 159.43 147.32 135.65 139.08 137.95 133.42 114.70 95.45 85.70 73.14 -99.72 -76.92 -62.85 -53.00 -35.20 -18.29 -21.55 -38.68 -39.35 -51.44 -55.35 -68.31 -76.27 -189.26 -184.28 -197.36 -204.07 -203.30 -204.37 -199.07 -192.68 -186.98 -177.20 -181.18 -174.08 -173.78 -178.08 -181.75 -182.38 -185.77 -176.96 -185.46 -187.52 -203.92 -204.38 -197.47 -211.86 -208.05 -220.11 -218.08 -221.41 -221.63 -218.06 -220.07 -221.02 -217.91 -219.45 -215.80 -214.50 -212.23 -219.52 -222.42 -169.03 -170.69 -165.52 -159.71 -156.78 -163.94 -169.55 -158.22 -155.94 -144.56 -145.35 -138.47 -137.36 -138.70 -145.49 -150.38 -147.11 -138.34 -144.75
2261.09 2259.96 2252.56 2216.90 2220.35 2233.06 2231.77 2223.93 2222.38 2225.88 2226.66 2237.87 2251.37 2517.52 2519.06 2520.07 2517.88 2525.70 2527.05 2502.68 2477.66 2458.30 2446.58 2406.89 2379.66 2333.53 916.39 892.00 891.43 869.17 849.96 830.83 818.30 816.80 811.02 814.91 806.80 813.31 820.95 827.61 839.01 835.99 826.09 819.59 845.07 861.44 876.96 887.70 901.27 893.93 874.07 863.05 150.25 141.92 144.24 144.55 144.54 127.03 137.97 127.11 119.11 108.62 93.75 75.60 61.42 -95.13 -76.45 -66.34 -53.22 -34.78 -45.56 -52.55 -54.71 -53.69 -58.69 -68.16 -75.95 -87.27 -199.98 -203.09 -202.56 -214.38 -221.12 -213.49 -209.72 -210.56 -198.58 -192.30 -186.81 -178.02 -178.80 -179.85 -190.79 -192.89 -191.79 -184.58 -185.64 -189.97 -201.91 -195.69 -213.80 -215.07 -222.44 -221.75 -221.88 -226.35 -222.06 -227.49 -224.23 -225.56 -221.73 -225.13 -223.70 -222.64 -221.10 -223.38 -225.84 -172.69 -173.23 -171.30 -161.23 -165.51 -159.60 -171.05 -170.33 -163.22 -151.63 -145.54 -144.81 -140.19 -141.57 -149.88 -152.78 -145.44 -145.80 -150.46
2254.18 2258.65 2245.61 2228.58 2224.81 2228.52 2227.63 2234.62 2233.56 2225.61 2226.82 2238.39 2258.47 2526.66 2514.94 2509.05 2516.26 2518.86 2503.55 2483.02 2467.33 2469.93 2474.91 2418.32 2398.05 2352.67 895.96 866.30 860.19 851.08 830.92 818.40 819.31 833.23 827.38 811.10 801.94 803.76 799.99 830.06 832.07 823.66 816.26 824.53 830.64 860.01 872.16 890.41 893.14 889.43 867.71 870.20 146.74 142.36 137.35 131.58 132.25 124.34 117.66 123.94 117.33 95.40 85.14 85.43 75.87 -87.27 -76.32 -59.97 -54.98 -54.78 -68.14 -69.46 -57.18 -52.41 -67.02 -86.43 -88.35 -97.43 -207.99 -207.75 -206.16 -213.64 -222.37 -216.64 -215.69 -212.61 -206.22 -201.06 -194.89 -184.10 -183.10 -189.52 -189.13 -200.32 -194.10 -194.01 -191.93 -190.69 -201.83 -202.53 -207.79 -207.80 -215.31 -221.97 -223.73 -224.17 -224.27 -230.56 -228.91 -236.92 -229.15 -224.81 -218.65 -228.20 -224.64 -229.11 -230.23 -172.70 -174.00 -174.48 -170.25 -169.86 -173.73 -165.45 -159.98 -166.97 -160.49 -153.69 -139.42 -148.96 -143.88 -147.26 -157.36 -151.93 -154.42 -159.02
2259.13 2254.97 2244.90 2229.24 2223.07 2226.83 2226.38 2227.48 2234.25 2228.91 2224.07 2241.93 2248.92 2518.58 2505.16 2497.68 2502.34 2510.48 2495.63 2479.41 2452.10 2440.59 2439.61 2420.88 2383.61 2346.61 886.19 848.99 858.45 864.37 853.32 849.46 843.36 848.03 832.62 824.17 809.49 811.75 800.44 821.17 840.66 830.61 815.06 798.89 802.86 823.08 876.83 877.11 892.24 877.01 868.21 863.92 155.93 149.12 133.61 124.42 124.63 119.33 109.53 123.05 113.60 98.15 96.06 90.82 87.20 -76.34 -82.90 -80.34 -72.40 -66.57 -84.37 -65.65 -58.90 -69.45 -70.88 -87.30 -89.61 -106.13 -216.66 -217.07 -215.08 -220.17 -226.76 -217.50 -216.95 -215.21 -210.13 -202.62 -199.58 -193.98 -195.76 -197.68 -198.41 -204.02 -197.65 -194.55 -188.52 -196.32 -191.94 -196.04 -203.43 -205.10 -205.38 -214.05 -218.73 -217.86 -227.20 -227.50 -231.46 -233.23 -227.77 -228.06 -227.87 -232.69 -224.22 -227.63 -228.60 -160.93 -168.97 -172.83 -173.26 -172.42 -174.61 -172.75 -167.20 -155.52 -160.28 -147.38 -150.58 -152.44 -148.67 -155.96 -154.11 -158.67 -164.39 -167.40
2265.41 2268.47 2263.08 2219.67 2222.15 2222.08 2230.24 2231.35 2223.56 2224.68 2230.64 2235.97 2250.06 2516.62 2499.46 2495.07 2496.14 2483.18 2469.98 2457.87 2432.96 2410.48 2424.40 2419.20 2369.20 2297.46 881.95 873.13 889.73 877.00 873.51 859.86 860.05 847.86 840.92 828.54 838.64 827.78 803.26 816.79 834.93 842.76 809.99 803.15 791.64 813.08 860.17 868.90 869.92 862.56 847.69 858.66 150.62 149.31 133.50 133.29 122.30 113.52 113.58 107.68 108.62 102.61 95.85 91.69 92.30 -76.96 -100.06 -93.20 -80.46 -74.66 -86.18 -78.23 -69.59 -69.33 -83.00 -83.89 -102.14 -106.94 -225.71 -226.19 -225.54 -219.29 -219.18 -220.59 -225.86 -221.24 -207.96 -204.83 -198.70 -196.50 -202.26 -207.70 -201.63 -210.92 -198.53 -196.61 -187.83 -193.83 -198.44 -206.55 -203.44 -206.56 -204.48 -213.46 -223.51 -223.47 -225.96 -227.22 -233.21 -226.66 -230.69 -232.43 -233.81 -231.10 -234.20 -230.08 -230.22 -178.47 -170.81 -174.55 -171.84 -177.07 -175.02 -173.51 -170.06 -166.07 -155.67 -152.02 -158.16 -152.71 -167.12 -156.55 -167.11 -166.85 -167.98 -169.37
2268.81 2275.20 2248.50 2229.23 2221.55 2219.03 2222.81 2219.26 2221.77 2223.36 2228.74 2234.68 2242.56 2514.47 2503.06 2492.82 2493.89 2467.82 2463.98 2435.64 2413.13 2391.49 2363.90 2380.67 2325.68 2305.98 891.14 902.08 905.44 892.85 882.00 874.78 862.53 847.96 827.20 836.68 846.44 836.36 807.34 799.25 811.38 819.13 818.76 800.97 775.33 808.44 822.22 861.82 849.12 835.73 829.10 852.25 148.84 151.22 126.34 126.93 108.80 119.00 115.54 103.42 103.44 103.73 103.28 104.44 104.47 -76.53 -89.97 -98.61 -97.58 -94.95 -98.56 -98.41 -82.22 -79.27 -91.97 -92.28 -105.76 -110.03 -222.28 -224.96 -228.03 -215.65 -204.39 -210.00 -213.57 -223.76 -220.99 -211.53 -210.88 -210.64 -207.58 -215.52 -213.15 -210.08 -205.45 -192.58 -188.00 -199.85 -203.03 -214.45 -214.25 -209.49 -215.18 -211.26 -223.57 -220.57 -222.46 -225.69 -232.08 -235.28 -230.53 -231.86 -229.87 -233.27 -228.26 -232.32 -230.68 -172.62 -174.61 -169.53 -179.48 -176.40 -175.53 -165.75 -173.14 -164.88 -153.52 -158.04 -157.19 -162.70 -164.63 -166.05 -168.08 -168.45 -165.60 -169.45
208.04 197.37 187.92 163.11 171.59 157.20 160.73 153.56 160.03 159.34 173.24 177.77 183.25 182.99 169.33 165.44 151.85 134.70 125.31 109.78 77.19 28.01 17.64 9.41 -6.72 1.86 6.40 18.03 -9.77 -26.88 -52.56 -63.70 -75.79 -70.03 -80.26 -63.63 -60.11 -78.52 -117.38 -123.13 -120.88 -113.34 -106.47 -140.53 -142.72 -129.32 -115.41 -108.07 -95.53 -104.50 -103.74 -85.78 -76.62 -88.45 -99.30 -108.57 -96.27 -95.11 -101.19 -107.50 -116.39 -104.14 -98.72 -98.53 -92.89 -118.88 -140.38 -158.20 -153.39 -157.74 -160.73 -160.09 -152.16 -145.49 -146.66 -151.36 -161.48 -164.58 -167.32 -164.34 -160.45 -145.45 -146.23 -154.79 -161.58 -168.33 -173.91 -167.52 -168.18 -163.24 -167.14 -165.48 -162.57 -165.82 -159.00 -146.49 -144.69 -152.69 -160.10 -161.85 -161.17 -166.28 -161.94 -165.74 -171.80 -169.00 -170.49 -177.17 -173.88 -173.78 -175.87 -166.87 -176.73 -171.58 -176.64 -175.98 -174.95 -171.62 -174.60 -170.36 -172.17 -174.33 -165.68 -171.66 -168.88 -167.52 -164.46 -154.78 -163.29 -175.56 -169.45 -172.25 -167.49 -170.56 -176.71 -176.92
218.31 209.40 193.09 172.38 173.53 167.64 152.25 158.98 162.13 164.54 164.32 171.45 180.78 179.86 169.38 153.48 144.93 135.58 121.89 117.18 78.12 42.96 20.94 8.55 17.00 44.00 47.96 27.43 -9.57 -24.64 -53.86 -63.50 -75.45 -64.08 -43.61 -41.44 -45.57 -71.46 -97.57 -112.73 -115.11 -110.88 -116.76 -131.39 -159.37 -139.71 -144.79 -146.35 -149.03 -131.18 -125.65 -100.49 -83.54 -102.89 -115.44 -134.10 -111.34 -100.86 -82.92 -89.55 -92.21 -101.03 -91.23 -102.39 -102.52 -115.53 -138.05 -148.46 -160.79 -163.94 -166.12 -165.18 -157.88 -160.20 -164.25 -165.09 -170.60 -170.66 -167.55 -156.01 -133.99 -138.67 -138.37 -148.23 -157.11 -164.87 -171.61 -169.78 -170.39 -172.31 -165.83 -165.81 -171.47 -173.44 -157.83 -154.02 -148.34 -163.52 -166.23 -168.35 -170.60 -176.51 -174.72 -170.77 -175.13 -172.57 -171.57 -170.34 -174.84 -170.10 -170.94 -170.81 -174.56 -167.82 -169.79 -170.84 -171.36 -175.38 -170.34 -169.08 -172.05 -163.50 -170.34 -173.13 -164.54 -164.31 -164.88 -162.76 -167.03 -162.52 -169.59 -170.41 -171.34 -173.97 -165.38 -164.90
192.99 196.61 190.66 174.69 169.93 159.03 161.60 159.44 154.00 159.98 161.39 168.28 181.72 175.08 163.59 167.84 150.25 127.42 120.89 111.59 86.19 96.43 82.23 62.45 38.57 42.75 46.42 12.90 -2.03 -29.61 -57.63 -72.91 -74.61 -65.47 -34.37 -27.63 -43.73 -49.52 -80.21 -91.30 -89.02 -100.58 -101.84 -119.08 -149.61 -143.29 -154.80 -153.52 -155.88 -154.35 -147.60 -99.63 -111.49 -110.77 -138.10 -139.35 -113.62 -93.87 -87.67 -76.27 -82.66 -82.01 -91.55 -104.60 -105.62 -126.14 -133.68 -147.54 -152.37 -165.72 -163.23 -154.34 -153.36 -149.88 -147.96 -159.73 -165.15 -159.67 -164.78 -131.38 -130.95 -127.08 -133.41 -139.09 -156.25 -163.44 -167.27 -167.46 -172.25 -174.92 -166.91 -171.55 -175.52 -168.54 -161.38 -156.81 -157.23 -169.22 -166.45 -170.88 -173.30 -177.21 -175.51 -172.27 -176.13 -177.00 -175.26 -172.81 -183.65 -174.77 -170.50 -163.35 -166.16 -166.97 -173.40 -175.10 -169.52 -174.23 -178.69 -173.99 -165.31 -164.52 -168.22 -166.28 -165.92 -166.55 -162.82 -167.43 -163.33 -171.98 -173.60 -172.16 -173.30 -171.75 -169.43 -172.31
