3822.08 3827.02 3733.94 3683.24 3589.94 3565.53 3613.58 3630.54 3667.89 3675.21 3692.58 3622.32 3548.37 3653.75 3624.21 3576.62 3578.31 3587.74 3608.29 3582.64 3579.60 3565.26 3549.88 3519.74 3497.85 3498.24 -83.10 -79.55 -80.20 -93.83 -116.40 -111.30 -116.27 -132.27 -142.49 -151.91 -178.42 -176.59 -151.42 -477.69 -463.47 -473.85 -487.83 -488.84 -477.47 -479.01 -478.49 -477.91 -475.53 -480.48 -471.56 -478.05 -739.83 -745.66 -752.76 -761.03 -752.37 -742.20 -737.24 -737.33 -747.17 -747.81 -750.25 -750.14 -743.88 -1213.54 -1218.76 -1221.54 -1219.82 -1226.89 -1223.81 -1227.34 -1231.13 -1232.89 -1227.84 -1230.42 -1231.62 -1236.89 -1239.86 -1237.88 -1236.69 -1238.17 -1232.63 -1233.36 -1239.94 -1240.69 -1241.05 -1233.39 -1241.29 -1237.23 -1233.84 -1372.02 -1369.47 -1372.56 -1372.44 -1371.36 -1379.05 -1390.45 -1418.51 -1443.58 -1585.80 -1679.54 -1989.54 -2296.40 -3406.59 -3609.63 -3741.51 -3767.50 -3843.19 -3871.84 -3922.15 -3948.46 -3952.78 -3959.72 -3969.45 -3973.37 -3976.91 -2026.67 -2027.26 -2037.87 -2042.78 -2047.53 -2041.21 -2046.67 -2041.57 -2037.39 -2041.53 -2039.16 -2033.83 -2041.71 -2048.44 -2061.43 -2062.70 -2072.83 -2088.14 -2083.00
1586.12 1588.42 1606.15 1403.46 1384.07 1373.63 1430.89 1476.58 1501.31 1516.36 1533.07 1474.55 1407.31 2545.79 2451.65 2489.19 2446.76 2428.82 2413.96 2374.76 2365.09 2346.53 2338.86 2293.44 2297.01 2291.28 -98.38 -78.33 -79.14 -108.75 -119.51 -119.20 -126.37 -130.63 -152.91 -158.29 -174.38 -167.39 -152.20 -470.11 -469.21 -468.05 -469.33 -478.72 -481.57 -483.26 -490.76 -484.70 -495.83 -494.03 -493.05 -489.05 -707.98 -718.14 -735.96 -727.88 -720.63 -720.01 -713.72 -714.67 -710.05 -714.31 -720.07 -720.59 -716.33 -1099.77 -1102.23 -1101.16 -1100.56 -1110.33 -1112.59 -1111.40 -1111.32 -1110.03 -1113.01 -1115.76 -1117.49 -1115.49 -1250.64 -1245.79 -1251.78 -1249.55 -1245.44 -1249.58 -1254.64 -1249.18 -1247.90 -1251.84 -1255.12 -1246.28 -1249.62 -1312.36 -1309.13 -1309.49 -1312.81 -1316.23 -1316.22 -1328.85 -1345.98 -1358.80 -1415.70 -1553.04 -1812.93 -2031.38 -3637.94 -3817.24 -3856.62 -3964.47 -3996.97 -4052.01 -4068.60 -4115.34 -4142.27 -4146.82 -4149.33 -4152.88 -4161.62 -2012.36 -2016.53 -2022.10 -2028.21 -2028.83 -2031.82 -2038.93 -2038.31 -2039.79 -2032.56 -2034.90 -2037.30 -2042.08 -2041.84 -2048.77 -2063.87 -2084.64 -2087.85 -2082.90
1555.07 1553.65 1467.81 1381.49 1327.34 1367.36 1421.77 1466.17 1491.08 1499.13 1506.98 1518.47 1480.97 2632.85 2563.79 2518.52 2503.19 2476.32 2398.55 2353.74 2360.24 2335.55 2306.05 2296.24 2290.04 2284.32 -110.76 -97.57 -102.56 -107.16 -138.81 -134.94 -146.21 -170.84 -162.61 -164.58 -163.03 -155.22 -149.71 -473.51 -459.50 -462.58 -478.49 -472.42 -469.58 -481.23 -495.85 -501.97 -505.77 -502.89 -495.71 -498.34 -713.27 -721.06 -733.60 -731.79 -730.43 -723.49 -714.25 -719.83 -718.16 -725.06 -729.90 -725.49 -720.78 -1106.80 -1111.08 -1107.64 -1110.55 -1111.24 -1118.17 -1108.86 -1104.84 -1116.79 -1114.58 -1108.67 -1113.61 -1116.25 -1244.14 -1247.83 -1248.93 -1249.28 -1255.55 -1253.89 -1248.67 -1253.29 -1252.78 -1247.26 -1250.17 -1252.50 -1254.19 -1308.41 -1307.86 -1311.29 -1311.45 -1311.27 -1311.24 -1321.50 -1324.28 -1383.27 -1437.28 -1481.00 -1696.70 -2073.63 -3487.91 -3701.40 -3767.33 -3874.50 -3992.34 -4011.04 -4055.19 -4075.86 -4115.80 -4126.38 -4150.03 -4143.74 -4152.24 -2002.88 -2004.81 -2012.13 -2024.15 -2020.33 -2031.12 -2031.92 -2033.22 -2034.73 -2036.23 -2038.57 -2040.35 -2034.21 -2047.65 -2055.72 -2068.64 -2094.41 -2088.16 -2087.60
1543.12 1539.86 1451.22 1360.52 1326.30 1376.04 1416.16 1464.51 1465.76 1481.92 1495.18 1485.70 1509.92 2711.99 2611.23 2588.86 2520.06 2462.40 2383.82 2378.99 2378.44 2346.78 2341.55 2318.84 2305.91 2277.71 -117.97 -123.40 -126.55 -138.99 -149.71 -155.43 -166.42 -166.60 -177.47 -163.78 -161.30 -149.37 -140.12 -462.65 -451.04 -452.00 -461.27 -464.86 -475.67 -494.52 -494.64 -511.02 -508.49 -511.29 -501.32 -509.45 -722.65 -724.20 -729.95 -736.45 -733.09 -731.46 -727.41 -722.23 -725.68 -723.62 -735.58 -739.58 -736.77 -1108.44 -1112.84 -1112.64 -1111.71 -1105.40 -1117.11 -1116.09 -1115.10 -1112.85 -1116.35 -1114.33 -1114.68 -1116.44 -1241.44 -1252.63 -1248.26 -1248.45 -1250.05 -1252.17 -1253.43 -1251.81 -1252.16 -1248.94 -1249.32 -1249.56 -1251.52 -1310.33 -1302.75 -1307.55 -1305.52 -1311.81 -1313.29 -1316.05 -1322.34 -1358.26 -1430.43 -1500.16 -1719.37 -2040.45 -3411.98 -3491.95 -3657.94 -3743.43 -3920.08 -3978.93 -4023.21 -4073.33 -4092.91 -4105.10 -4114.23 -4133.37 -4131.23 -1994.20 -2005.81 -2009.81 -2014.77 -2016.91 -2029.43 -2027.79 -2032.54 -2035.37 -2035.31 -2038.40 -2039.79 -2041.25 -2052.39 -2066.08 -2069.24 -2082.63 -2095.35 -2092.02
1468.94 1470.77 1479.54 1284.52 1261.23 1317.81 1376.56 1398.36 1424.00 1428.53 1454.77 1481.49 1490.38 2687.56 2643.30 2614.22 2541.34 2481.09 2416.49 2416.93 2384.00 2357.09 2341.07 2324.33 2307.96 2281.91 -142.85 -137.98 -131.92 -138.74 -158.77 -160.94 -172.88 -173.77 -164.35 -152.55 -141.08 -132.81 -134.09 -442.00 -445.77 -444.97 -455.91 -462.69 -476.59 -478.44 -512.55 -515.98 -518.35 -510.50 -513.29 -515.01 -736.47 -729.41 -728.94 -732.86 -730.17 -732.50 -735.54 -729.48 -729.43 -735.31 -731.02 -740.62 -739.14 -1115.83 -1112.85 -1107.69 -1111.05 -1109.89 -1119.91 -1116.61 -1117.37 -1118.41 -1116.88 -1110.22 -1110.43 -1120.50 -1248.55 -1249.33 -1255.42 -1246.68 -1245.38 -1248.80 -1254.18 -1247.67 -1250.48 -1250.11 -1250.86 -1246.52 -1253.88 -1309.88 -1308.34 -1314.73 -1309.03 -1305.66 -1316.74 -1303.98 -1315.22 -1369.97 -1403.50 -1481.25 -1635.49 -1659.68 -3089.55 -3501.87 -3569.17 -3644.13 -3808.03 -3935.12 -3951.06 -4020.15 -4065.36 -4076.49 -4108.22 -4111.10 -4125.72 -1990.59 -1990.81 -2001.70 -2016.89 -2016.78 -2028.04 -2031.92 -2038.43 -2045.70 -2036.02 -2039.32 -2046.13 -2057.86 -2057.60 -2078.81 -2076.95 -2095.66 -2097.73 -2099.44
1437.93 1443.27 1377.23 1272.34 1253.46 1257.10 1299.47 1331.50 1382.22 1408.68 1427.68 1431.16 1452.85 2632.85 2565.48 2554.81 2573.72 2508.57 2491.92 2438.11 2389.20 2332.13 2321.09 2309.46 2306.60 2278.65 -141.62 -144.75 -146.82 -148.31 -140.70 -151.22 -170.14 -175.19 -155.87 -137.16 -132.36 -120.89 -118.70 -443.35 -441.41 -436.63 -452.44 -465.91 -487.37 -494.11 -514.43 -513.03 -514.72 -504.76 -512.85 -512.26 -734.86 -731.33 -731.69 -725.32 -731.92 -730.30 -736.91 -734.72 -734.05 -727.72 -733.66 -732.09 -736.02 -1114.20 -1113.72 -1111.13 -1119.97 -1115.98 -1115.49 -1118.19 -1118.43 -1120.42 -1122.65 -1120.59 -1119.12 -1114.47 -1253.71 -1250.93 -1250.19 -1249.66 -1245.64 -1248.17 -1248.84 -1247.54 -1249.87 -1245.83 -1254.36 -1250.34 -1252.05 -1312.55 -1309.53 -1308.02 -1313.84 -1310.14 -1311.93 -1312.05 -1306.71 -1321.36 -1373.10 -1439.00 -1476.77 -1743.80 -3127.00 -3419.66 -3476.68 -3653.74 -3766.59 -3808.89 -3903.08 -3983.29 -4008.11 -4057.03 -4071.77 -4079.85 -4109.57 -1984.68 -1987.13 -2001.26 -2004.05 -2016.69 -2027.89 -2030.42 -2040.04 -2048.08 -2047.26 -2052.85 -2055.27 -2062.59 -2073.47 -2072.18 -2081.98 -2104.19 -2109.35 -2119.24
1441.85 1447.62 1391.12 1287.75 1262.14 1229.45 1246.78 1269.87 1310.28 1332.85 1337.13 1332.74 1320.35 2512.01 2468.82 2528.96 2557.51 2548.06 2502.37 2449.13 2377.78 2357.70 2320.48 2296.62 2287.13 2279.47 -141.42 -133.27 -131.91 -123.36 -126.82 -148.85 -172.59 -157.06 -137.52 -120.31 -120.70 -110.19 -108.85 -448.78 -447.64 -446.42 -451.93 -487.46 -491.01 -504.41 -517.96 -518.72 -513.03 -501.09 -501.60 -516.17 -738.22 -730.02 -727.23 -715.47 -719.12 -724.82 -738.60 -732.08 -735.30 -731.57 -730.00 -728.25 -731.71 -1111.38 -1111.23 -1116.46 -1115.55 -1121.84 -1119.47 -1111.42 -1117.48 -1119.67 -1115.99 -1119.12 -1118.09 -1117.05 -1245.72 -1248.92 -1248.62 -1249.92 -1248.10 -1251.66 -1247.62 -1253.63 -1247.43 -1249.60 -1242.51 -1247.03 -1248.40 -1314.20 -1311.29 -1316.40 -1312.17 -1307.87 -1315.26 -1311.25 -1315.46 -1324.93 -1346.24 -1392.71 -1472.63 -1812.20 -3090.21 -3362.94 -3509.58 -3661.56 -3709.61 -3780.18 -3842.74 -3905.46 -3938.47 -4023.28 -4056.72 -4064.50 -4109.63 -1965.69 -1982.33 -1998.91 -2015.50 -2023.02 -2024.65 -2035.54 -2040.51 -2049.00 -2046.82 -2051.92 -2057.12 -2070.76 -2077.54 -2090.04 -2088.44 -2110.08 -2122.35 -2124.98
1513.91 1514.27 1427.03 1319.49 1309.49 1243.18 1218.21 1250.03 1263.88 1272.28 1255.49 1251.61 1250.31 2431.84 2415.98 2468.68 2546.02 2533.41 2492.63 2448.91 2387.90 2348.04 2320.93 2305.72 2287.40 2278.77 -115.98 -119.82 -108.82 -121.32 -128.62 -150.01 -153.11 -146.24 -138.54 -117.44 -119.48 -106.07 -119.82 -458.53 -467.50 -466.66 -487.28 -483.11 -493.37 -507.92 -514.33 -511.92 -507.93 -495.19 -497.96 -490.31 -717.00 -714.03 -714.86 -710.64 -718.23 -727.59 -729.28 -732.03 -732.35 -730.38 -728.72 -729.74 -731.88 -1115.50 -1118.75 -1112.85 -1122.05 -1115.86 -1118.34 -1112.07 -1106.44 -1118.67 -1119.02 -1114.45 -1118.90 -1119.58 -1250.63 -1250.14 -1249.43 -1251.76 -1250.20 -1252.30 -1253.44 -1252.78 -1243.71 -1253.99 -1246.65 -1253.49 -1247.47 -1307.74 -1304.03 -1311.36 -1312.69 -1309.47 -1317.51 -1316.77 -1322.12 -1334.19 -1376.80 -1437.26 -1467.06 -1641.98 -2996.40 -3348.25 -3454.67 -3586.06 -3625.40 -3704.12 -3766.10 -3816.22 -3928.59 -3981.33 -4015.63 -4075.03 -4110.04 -1966.38 -1985.22 -1996.91 -2022.97 -2033.41 -2037.30 -2042.89 -2043.48 -2048.70 -2060.55 -2065.61 -2073.92 -2075.81 -2091.11 -2100.06 -2106.57 -2119.59 -2134.27 -2127.14
1518.92 1517.14 1446.75 1370.88 1306.98 1245.82 1215.27 1235.70 1238.45 1254.10 1251.65 1223.33 1210.01 2390.28 2405.98 2457.28 2510.99 2524.51 2494.17 2443.15 2420.81 2361.71 2323.04 2320.00 2307.30 2297.07 -111.54 -103.96 -102.82 -113.84 -145.33 -144.81 -137.82 -132.38 -112.04 -117.44 -109.11 -125.74 -130.44 -489.30 -487.78 -479.50 -488.57 -492.32 -497.57 -511.10 -517.38 -509.33 -501.15 -494.19 -493.19 -491.55 -705.39 -712.26 -706.32 -703.23 -699.93 -715.72 -725.26 -724.84 -728.67 -727.11 -733.19 -734.87 -739.55 -1114.62 -1118.69 -1118.70 -1112.85 -1119.13 -1115.21 -1108.12 -1110.66 -1115.07 -1118.88 -1114.06 -1117.91 -1114.31 -1252.29 -1253.95 -1246.87 -1244.77 -1246.38 -1246.89 -1254.97 -1247.95 -1249.76 -1255.80 -1250.22 -1248.70 -1249.70 -1309.36 -1310.35 -1307.98 -1314.45 -1305.48 -1312.95 -1311.61 -1334.97 -1362.44 -1402.93 -1457.05 -1471.58 -1607.52 -2921.81 -3121.21 -3327.26 -3430.81 -3579.12 -3623.17 -3705.65 -3790.25 -3871.98 -3946.83 -3999.30 -4080.07 -4114.44 -1970.17 -1991.07 -2004.67 -2030.99 -2026.02 -2035.90 -2045.71 -2055.04 -2056.87 -2071.26 -2068.89 -2080.44 -2095.28 -2089.69 -2102.94 -2104.94 -2126.37 -2144.69 -2141.73
1511.05 1510.84 1513.45 1327.79 1313.19 1260.42 1216.49 1214.79 1212.36 1248.29 1248.42 1227.03 1212.81 2367.10 2374.94 2421.60 2491.91 2512.51 2481.81 2459.05 2434.89 2345.56 2330.31 2313.57 2317.74 2313.38 -91.97 -107.00 -115.87 -132.88 -141.51 -131.92 -125.17 -108.12 -110.17 -106.95 -118.28 -121.74 -139.56 -490.56 -494.17 -498.53 -503.34 -503.72 -513.98 -521.52 -506.29 -493.17 -495.80 -491.44 -487.59 -476.85 -698.79 -700.07 -703.81 -701.98 -696.41 -703.95 -714.66 -721.10 -726.22 -737.89 -733.13 -729.08 -728.68 -1115.07 -1117.18 -1118.96 -1117.43 -1110.94 -1114.76 -1111.37 -1110.64 -1119.23 -1121.27 -1116.06 -1115.49 -1119.94 -1250.56 -1242.19 -1246.38 -1253.83 -1247.88 -1243.18 -1251.50 -1251.90 -1251.69 -1248.99 -1256.18 -1254.75 -1249.09 -1307.74 -1311.17 -1309.15 -1312.73 -1306.88 -1311.47 -1317.88 -1330.56 -1352.77 -1385.63 -1393.89 -1432.88 -1622.15 -2967.90 -3176.00 -3351.41 -3388.22 -3432.08 -3544.85 -3614.50 -3709.32 -3759.98 -3924.42 -3948.78 -4053.08 -4098.71 -1967.35 -2004.56 -2007.16 -2023.11 -2032.46 -2033.71 -2044.25 -2050.97 -2061.24 -2071.19 -2075.51 -2083.60 -2092.70 -2093.78 -2104.72 -2119.97 -2146.34 -2153.80 -2153.75
1507.32 1514.67 1438.77 1334.71 1292.47 1253.52 1214.51 1182.77 1199.87 1205.92 1238.00 1224.31 1192.94 2353.48 2364.05 2422.94 2437.43 2472.79 2481.95 2428.09 2394.99 2339.95 2334.47 2307.58 2308.52 2303.09 -98.72 -119.97 -137.13 -133.94 -122.80 -112.17 -104.44 -111.44 -93.17 -101.10 -125.66 -128.90 -154.32 -499.52 -515.08 -509.19 -511.13 -514.51 -512.76 -511.55 -498.38 -488.80 -485.54 -488.15 -479.31 -469.23 -690.43 -690.17 -696.22 -698.70 -701.13 -710.75 -709.69 -717.49 -727.78 -733.30 -737.77 -733.34 -733.94 -1113.93 -1113.54 -1109.32 -1112.33 -1114.16 -1114.04 -1114.21 -1108.89 -1113.83 -1110.84 -1119.37 -1113.41 -1115.76 -1246.38 -1242.39 -1248.98 -1251.68 -1252.99 -1251.33 -1253.19 -1244.69 -1248.51 -1247.92 -1252.67 -1252.90 -1248.37 -1311.38 -1312.84 -1308.52 -1312.45 -1304.89 -1315.38 -1325.23 -1322.82 -1338.12 -1374.68 -1387.59 -1391.40 -1615.36 -2964.19 -3114.41 -3250.45 -3373.60 -3394.15 -3466.93 -3564.80 -3594.36 -3758.74 -3853.37 -3956.99 -4002.24 -4059.01 -1969.92 -2006.43 -2014.20 -2029.52 -2032.84 -2033.18 -2043.61 -2050.33 -2057.01 -2055.28 -2072.45 -2082.36 -2096.07 -2100.49 -2115.06 -2124.77 -2146.74 -2156.54 -2152.57
1520.72 1518.10 1441.04 1326.26 1261.63 1219.30 1185.78 1177.31 1177.65 1196.69 1214.40 1195.54 1179.40 2334.73 2360.31 2394.25 2434.94 2458.28 2459.59 2425.43 2369.21 2356.35 2326.89 2318.48 2302.62 2289.38 -106.36 -126.57 -125.20 -118.79 -113.52 -98.45 -94.71 -97.80 -96.71 -102.43 -122.89 -151.86 -156.26 -493.43 -502.55 -501.71 -506.17 -510.63 -509.30 -499.97 -490.80 -476.28 -470.31 -473.86 -469.07 -478.94 -693.61 -693.20 -698.55 -699.28 -711.34 -715.12 -720.80 -726.88 -737.05 -736.33 -732.84 -729.81 -726.42 -1102.88 -1103.76 -1109.33 -1113.88 -1111.46 -1112.42 -1110.47 -1113.50 -1114.25 -1115.79 -1108.07 -1115.30 -1115.97 -1243.02 -1251.64 -1253.62 -1246.44 -1247.60 -1249.55 -1252.39 -1252.47 -1253.60 -1248.95 -1248.69 -1246.78 -1247.77 -1306.33 -1309.56 -1306.18 -1315.60 -1304.78 -1309.48 -1309.12 -1311.02 -1318.06 -1323.09 -1371.69 -1396.35 -1572.44 -2882.27 -3149.69 -3188.22 -3303.88 -3373.02 -3432.13 -3469.25 -3621.48 -3665.95 -3850.42 -3935.65 -3969.44 -4032.23 -1995.32 -2007.57 -2020.26 -2020.99 -2023.12 -2030.68 -2035.84 -2039.65 -2050.99 -2061.10 -2071.64 -2081.25 -2085.54 -2098.99 -2105.42 -2118.99 -2136.08 -2152.92 -2150.56
1508.58 1502.84 1419.56 1326.72 1258.44 1174.95 1171.31 1166.94 1192.89 1197.24 1183.49 1188.24 1155.92 2334.45 2343.16 2415.64 2433.06 2459.42 2454.93 2431.43 2410.39 2365.09 2354.02 2332.65 2323.21 2298.91 -111.51 -108.89 -113.58 -107.74 -92.32 -84.18 -81.39 -77.77 -88.03 -99.54 -121.25 -123.21 -140.56 -481.85 -488.08 -490.45 -493.61 -502.65 -501.16 -498.02 -482.58 -471.87 -464.09 -458.90 -465.11 -471.46 -708.09 -706.40 -711.25 -699.73 -712.32 -718.88 -724.63 -730.74 -724.94 -732.61 -725.33 -727.68 -719.78 -1099.95 -1102.94 -1110.91 -1117.88 -1124.56 -1114.48 -1111.21 -1106.00 -1107.64 -1101.81 -1107.53 -1109.95 -1117.97 -1251.03 -1246.93 -1250.04 -1251.70 -1250.91 -1248.44 -1246.91 -1249.33 -1252.03 -1245.49 -1251.20 -1253.54 -1255.64 -1312.13 -1311.03 -1305.63 -1311.83 -1311.70 -1312.76 -1310.10 -1308.08 -1313.58 -1339.55 -1361.82 -1425.76 -1460.80 -2685.75 -2945.50 -3225.79 -3248.07 -3339.16 -3354.68 -3413.22 -3580.46 -3653.35 -3843.36 -3915.03 -3956.71 -3988.26 -1948.02 -1981.79 -1993.10 -1995.59 -2016.25 -2014.93 -2032.28 -2029.96 -2036.78 -2054.17 -2071.43 -2083.65 -2082.57 -2098.21 -2112.85 -2119.72 -2138.11 -2148.81 -2149.09
3853.85 3852.39 3781.10 3663.09 3628.92 3582.82 3558.97 3534.10 3566.63 3556.13 3565.01 3549.94 3534.76 3257.27 3285.10 3348.18 3375.47 3405.42 3395.00 3369.15 3366.98 3335.21 3312.92 3302.28 3275.53 3258.13 1297.21 1284.67 1281.72 1273.73 1291.99 1316.75 1309.68 1307.14 1300.74 1285.22 1266.61 1277.18 1258.75 -143.65 -155.78 -164.49 -167.47 -175.57 -183.14 -175.17 -160.64 -151.15 -128.92 -127.07 -134.89 -142.19 -372.75 -371.97 -385.51 -378.69 -389.04 -385.92 -397.66 -396.59 -387.39 -384.02 -385.52 -377.65 -395.26 -636.25 -643.39 -645.94 -652.45 -643.19 -650.88 -637.09 -632.63 -631.61 -627.91 -636.88 -642.41 -646.21 -763.78 -769.96 -773.74 -770.47 -778.97 -772.94 -773.86 -771.55 -772.90 -771.90 -772.93 -771.93 -771.94 -1373.13 -1364.33 -1368.71 -1364.93 -1367.54 -1370.15 -1362.20 -1369.54 -1374.10 -1368.21 -1413.11 -1492.67 -1508.78 -2495.11 -2705.72 -2844.96 -2947.63 -3132.12 -3172.45 -3200.03 -3292.63 -3534.07 -3647.03 -3699.11 -3774.90 -3821.16 -1899.44 -1944.26 -1959.08 -1962.83 -1984.66 -2005.37 -2017.76 -2020.85 -2031.77 -2039.85 -2061.89 -2073.04 -2083.15 -2089.59 -2101.85 -2114.44 -2123.66 -2142.73 -2143.89
3817.98 3816.42 3726.69 3619.19 3596.64 3595.38 3557.94 3549.53 3524.75 3536.88 3522.92 3536.62 3536.43 3264.00 3279.48 3308.81 3348.99 3353.91 3384.79 3367.93 3364.28 3361.76 3350.18 3321.42 3298.31 3267.25 1300.72 1300.52 1297.61 1295.57 1297.31 1308.08 1304.55 1307.42 1298.40 1275.46 1268.60 1265.56 1244.51 -145.21 -164.66 -169.01 -175.70 -174.78 -177.13 -172.05 -172.82 -156.90 -140.11 -140.02 -137.55 -139.27 -356.82 -370.70 -367.60 -371.38 -378.43 -381.52 -394.71 -381.74 -375.57 -373.94 -375.99 -386.87 -387.39 -644.49 -650.37 -642.12 -643.73 -636.42 -632.42 -641.07 -633.65 -632.70 -630.42 -635.19 -647.42 -646.34 -771.31 -769.95 -773.19 -775.25 -773.96 -776.74 -775.62 -774.55 -770.94 -766.01 -775.92 -767.03 -768.58 -1366.81 -1368.09 -1372.58 -1370.18 -1362.93 -1365.16 -1369.00 -1363.16 -1371.64 -1372.42 -1373.43 -1439.29 -1498.39 -2384.41 -2642.58 -2702.10 -2846.65 -2904.99 -3032.30 -3176.18 -3282.47 -3437.90 -3579.45 -3669.76 -3731.48 -3773.13 -1851.20 -1900.69 -1907.74 -1950.07 -1932.80 -1957.63 -1963.50 -1995.28 -2000.01 -2013.25 -2048.46 -2064.09 -2069.84 -2092.30 -2095.03 -2105.75 -2126.95 -2134.40 -2127.78
3820.07 3816.75 3725.58 3594.87 3582.71 3567.80 3565.54 3544.92 3534.54 3525.85 3518.22 3510.74 3509.48 3238.99 3253.76 3264.58 3282.99 3340.78 3338.30 3352.90 3362.95 3364.44 3356.34 3338.34 3313.87 3276.25 1300.24 1301.20 1303.29 1314.93 1316.48 1311.04 1299.17 1296.57 1279.70 1260.01 1243.27 1245.27 1244.72 -163.75 -178.18 -179.16 -179.37 -170.31 -158.19 -157.82 -165.72 -160.25 -141.61 -127.65 -134.90 -133.71 -353.35 -351.47 -360.54 -365.48 -365.70 -371.49 -385.15 -366.63 -365.49 -366.79 -371.83 -382.08 -387.74 -640.27 -639.56 -638.78 -632.59 -632.91 -628.53 -631.95 -632.98 -622.30 -626.19 -642.24 -641.13 -644.05 -769.37 -765.36 -767.24 -779.29 -769.33 -772.45 -768.28 -772.06 -779.21 -781.36 -777.00 -772.52 -773.11 -1366.73 -1364.94 -1361.87 -1373.16 -1365.83 -1372.59 -1368.40 -1365.44 -1368.99 -1369.55 -1372.65 -1372.23 -1420.25 -2266.18 -2411.68 -2549.64 -2565.66 -2783.14 -2942.52 -3080.26 -3165.98 -3353.03 -3496.96 -3630.16 -3672.01 -3751.03 -1777.31 -1824.21 -1853.43 -1852.47 -1843.60 -1856.20 -1883.79 -1890.23 -1943.79 -1988.74 -2009.17 -2044.79 -2048.01 -2064.46 -2080.82 -2085.83 -2105.86 -2114.27 -2117.48
3901.66 3897.40 3766.27 3605.58 3582.29 3568.62 3565.75 3557.00 3538.81 3529.51 3525.90 3513.07 3519.09 3256.06 3245.23 3256.32 3245.10 3278.71 3292.79 3338.17 3344.76 3351.73 3347.02 3336.61 3343.35 3305.61 1337.41 1325.32 1324.34 1327.08 1320.95 1307.58 1289.05 1286.90 1264.92 1246.86 1230.72 1237.47 1227.00 -163.13 -174.10 -183.07 -175.64 -168.54 -155.94 -150.75 -148.66 -138.58 -136.23 -131.64 -126.50 -131.98 -348.46 -352.87 -347.24 -355.44 -359.22 -359.38 -363.81 -358.39 -352.24 -353.94 -368.10 -374.57 -377.39 -639.31 -639.99 -623.49 -618.37 -629.00 -631.73 -619.32 -625.79 -627.67 -635.88 -635.40 -640.27 -634.98 -760.78 -762.07 -766.13 -770.08 -772.77 -768.53 -771.29 -768.97 -768.06 -773.67 -773.50 -773.51 -775.91 -1370.04 -1365.92 -1367.32 -1361.36 -1364.67 -1365.85 -1369.41 -1366.85 -1368.74 -1366.74 -1374.34 -1365.84 -1383.20 -2224.24 -2228.33 -2415.89 -2491.30 -2602.08 -2775.55 -2868.02 -3013.52 -3305.87 -3400.38 -3498.76 -3562.77 -3677.24 -1726.67 -1763.00 -1764.93 -1770.12 -1821.36 -1834.71 -1869.42 -1875.04 -1896.49 -1931.33 -1955.31 -2012.63 -2040.09 -2051.83 -2064.97 -2085.45 -2099.86 -2097.45 -2102.27
3851.83 3847.60 3772.70 3612.89 3598.17 3590.17 3606.36 3566.28 3575.36 3547.34 3548.35 3532.97 3523.39 3271.43 3262.38 3242.44 3232.42 3258.65 3286.33 3265.29 3313.05 3326.38 3352.97 3346.99 3352.46 3329.59 1343.33 1330.04 1329.14 1318.15 1299.27 1292.68 1285.62 1268.13 1257.02 1242.68 1225.85 1229.31 1212.66 -171.96 -169.95 -167.50 -178.11 -175.40 -163.71 -146.39 -135.54 -123.51 -121.54 -122.02 -109.34 -125.89 -341.35 -343.26 -339.38 -339.67 -348.92 -348.37 -357.06 -355.05 -349.92 -350.75 -352.73 -367.98 -379.62 -629.37 -630.98 -627.38 -617.70 -615.32 -619.08 -617.83 -620.08 -618.37 -627.77 -634.74 -629.33 -637.92 -758.83 -761.40 -761.42 -764.94 -766.39 -773.33 -765.44 -769.66 -774.18 -774.17 -774.88 -772.53 -775.17 -1365.66 -1367.16 -1371.78 -1374.90 -1368.46 -1370.78 -1367.66 -1365.09 -1369.85 -1360.21 -1367.59 -1374.73 -1385.85 -2226.51 -2227.86 -2229.22 -2338.73 -2519.89 -2581.57 -2779.83 -3021.18 -3116.99 -3327.85 -3458.94 -3503.03 -3553.61 -1543.99 -1652.48 -1739.54 -1720.29 -1750.44 -1727.62 -1787.66 -1815.83 -1866.93 -1864.77 -1910.55 -1997.24 -2014.12 -2011.86 -2043.12 -2052.23 -2071.90 -2076.13 -2072.38
3939.45 3939.16 3898.39 3619.04 3621.93 3636.25 3647.93 3629.00 3581.10 3576.49 3578.21 3548.26 3552.23 3303.99 3288.13 3244.15 3228.52 3256.84 3267.63 3260.02 3262.42 3290.78 3318.93 3337.25 3344.09 3340.43 1375.65 1345.34 1331.28 1317.00 1292.92 1266.86 1259.84 1261.57 1234.87 1229.93 1209.77 1208.17 1215.21 -167.52 -148.48 -160.76 -170.73 -175.25 -167.00 -148.05 -115.23 -112.51 -109.63 -110.20 -108.81 -109.50 -328.06 -334.41 -327.98 -338.18 -332.25 -347.48 -344.27 -349.92 -344.51 -345.24 -353.60 -359.71 -363.74 -621.20 -617.80 -622.36 -612.00 -618.63 -613.33 -618.19 -607.46 -617.09 -619.58 -621.94 -625.45 -631.28 -752.10 -753.81 -760.99 -765.46 -766.19 -766.20 -764.90 -770.34 -770.04 -770.01 -768.37 -767.64 -774.58 -1361.56 -1370.18 -1363.17 -1368.36 -1373.32 -1363.40 -1366.16 -1373.30 -1366.88 -1364.41 -1373.45 -1373.74 -1375.33 -2223.99 -2216.52 -2230.75 -2230.39 -2335.56 -2565.39 -2720.55 -3029.06 -3166.94 -3223.24 -3390.81 -3451.55 -3471.07 -1505.75 -1535.06 -1605.96 -1627.03 -1636.75 -1659.76 -1708.67 -1715.32 -1773.51 -1820.99 -1824.81 -1925.67 -1976.07 -2004.81 -2023.32 -2015.70 -2037.83 -2044.34 -2044.00
3869.99 3872.27 3778.09 3657.92 3633.12 3667.10 3713.78 3703.91 3641.76 3605.89 3582.42 3579.32 3569.62 3300.05 3282.99 3247.08 3230.58 3235.18 3245.92 3239.99 3249.91 3290.86 3303.19 3317.59 3323.82 3344.05 1388.67 1362.20 1335.19 1320.15 1299.78 1273.66 1255.57 1246.00 1236.26 1219.00 1207.92 1219.67 1223.94 -148.94 -148.97 -144.40 -160.42 -165.52 -159.81 -154.12 -111.67 -90.97 -101.16 -96.79 -103.51 -108.61 -332.16 -330.98 -328.57 -342.03 -341.31 -342.75 -347.46 -353.49 -346.79 -343.36 -350.41 -352.92 -353.87 -605.57 -613.36 -608.66 -619.71 -614.39 -618.39 -614.46 -621.85 -612.31 -625.83 -619.74 -629.21 -626.31 -739.09 -748.74 -765.50 -765.16 -761.64 -764.70 -757.60 -765.10 -764.13 -763.61 -773.62 -774.77 -774.95 -1363.82 -1369.49 -1369.07 -1367.98 -1368.56 -1370.11 -1370.96 -1367.79 -1365.86 -1369.51 -1364.34 -1370.10 -1374.71 -2214.09 -2218.04 -2215.58 -2226.70 -2321.63 -2411.05 -2811.75 -3009.83 -3163.80 -3178.97 -3280.04 -3394.90 -3402.43 -1392.58 -1394.38 -1392.10 -1471.02 -1505.92 -1542.42 -1601.74 -1645.68 -1712.79 -1740.52 -1799.25 -1844.82 -1900.08 -1926.89 -1937.17 -1974.74 -2008.72 -1999.53 -1994.42
3873.05 3877.34 3762.55 3635.79 3676.99 3730.08 3760.45 3765.41 3689.28 3660.76 3609.42 3600.11 3594.15 3302.64 3303.04 3277.69 3241.39 3227.83 3222.39 3217.55 3228.11 3251.46 3275.45 3291.22 3320.78 3334.80 1397.24 1368.70 1369.71 1344.08 1313.84 1266.98 1259.47 1249.25 1228.84 1217.54 1207.69 1221.71 1233.23 -133.06 -126.28 -137.60 -154.13 -163.34 -159.42 -136.63 -107.08 -89.79 -98.61 -97.70 -105.25 -106.55 -339.48 -345.35 -336.71 -348.84 -355.85 -358.92 -362.67 -351.12 -349.40 -352.65 -348.63 -353.78 -349.42 -608.52 -601.17 -611.88 -606.19 -615.92 -614.99 -615.30 -612.32 -618.76 -621.85 -634.50 -638.88 -630.97 -758.54 -751.93 -763.41 -759.76 -757.63 -758.78 -767.05 -763.19 -760.24 -766.13 -762.75 -769.14 -764.32 -1360.55 -1366.34 -1370.01 -1367.34 -1366.42 -1369.93 -1366.97 -1372.21 -1369.71 -1367.15 -1366.44 -1370.30 -1372.29 -2206.64 -2214.96 -2211.29 -2210.76 -2222.07 -2363.27 -2544.37 -2898.72 -3010.85 -3110.68 -3251.50 -3321.98 -3315.98 -1332.41 -1322.03 -1369.47 -1391.06 -1426.65 -1489.11 -1496.83 -1517.23 -1604.47 -1695.51 -1723.73 -1753.26 -1769.36 -1825.10 -1891.88 -1900.81 -1950.85 -1954.31 -1952.02
3998.41 3988.21 3844.50 3680.66 3752.24 3805.65 3790.45 3796.61 3748.84 3671.58 3638.61 3629.55 3606.08 3318.45 3292.71 3289.98 3279.12 3263.55 3230.31 3229.94 3212.20 3229.97 3248.24 3282.32 3294.20 3325.42 1374.84 1376.82 1350.29 1335.62 1332.38 1296.58 1266.01 1252.92 1235.55 1220.96 1209.75 1213.47 1229.29 -128.20 -117.46 -122.87 -139.27 -147.17 -147.27 -117.77 -103.33 -92.52 -97.95 -108.41 -112.18 -121.96 -337.54 -347.29 -356.24 -357.42 -365.52 -372.52 -365.25 -358.41 -356.24 -353.83 -359.31 -348.74 -356.27 -605.80 -608.31 -611.87 -604.42 -619.10 -626.28 -625.88 -632.42 -631.51 -631.52 -644.35 -649.41 -644.63 -756.98 -758.92 -764.27 -763.19 -762.01 -766.81 -757.43 -762.20 -767.05 -762.23 -762.64 -765.95 -773.43 -1364.79 -1369.65 -1368.31 -1362.61 -1368.52 -1366.98 -1372.74 -1365.26 -1367.85 -1369.26 -1363.40 -1366.42 -1372.71 -2212.78 -2209.99 -2209.98 -2213.02 -2218.41 -2312.98 -2465.72 -2731.31 -2837.73 -2968.05 -3090.17 -3178.81 -3295.40 -1264.92 -1285.48 -1310.54 -1353.25 -1359.99 -1386.85 -1407.23 -1467.19 -1469.63 -1522.29 -1559.19 -1612.43 -1725.56 -1784.35 -1830.49 -1850.26 -1852.12 -1902.15 -1894.02
3967.72 3968.47 3842.90 3751.27 3741.92 3826.98 3828.99 3835.71 3774.99 3707.39 3654.42 3659.18 3629.73 3305.96 3285.91 3295.06 3285.72 3267.20 3256.30 3236.89 3211.08 3228.72 3220.23 3260.90 3273.71 3293.58 1348.42 1351.17 1351.82 1330.27 1323.36 1300.71 1253.62 1250.17 1234.48 1216.43 1204.69 1212.64 1227.67 -132.99 -109.68 -116.83 -128.70 -131.72 -119.90 -110.80 -100.63 -89.38 -94.57 -105.89 -113.14 -131.64 -351.49 -367.39 -368.79 -366.86 -371.60 -384.19 -376.24 -365.75 -367.68 -363.63 -369.84 -377.83 -381.83 -628.94 -622.38 -615.43 -622.07 -634.04 -643.03 -645.90 -637.97 -631.81 -650.56 -647.51 -647.71 -647.40 -764.74 -769.27 -765.38 -766.80 -760.32 -763.33 -757.83 -759.94 -758.32 -766.90 -767.61 -770.20 -769.92 -1367.90 -1365.92 -1369.73 -1365.30 -1369.96 -1367.21 -1366.70 -1363.17 -1372.90 -1369.84 -1363.46 -1371.69 -1369.83 -2206.01 -2208.03 -2210.72 -2214.23 -2225.19 -2231.18 -2381.44 -2564.44 -2633.08 -2790.66 -3019.51 -3159.08 -3251.81 -1227.60 -1205.68 -1244.89 -1246.63 -1269.58 -1275.11 -1318.75 -1328.31 -1372.69 -1447.48 -1468.95 -1576.04 -1606.45 -1683.12 -1790.51 -1794.89 -1845.77 -1827.60 -1830.27
4006.57 3999.19 4060.99 3758.29 3808.63 3845.10 3896.81 3884.47 3836.82 3721.23 3657.59 3637.35 3612.69 3302.25 3277.08 3268.15 3277.34 3284.51 3272.76 3252.34 3244.62 3219.20 3219.45 3228.65 3265.00 3271.38 1327.04 1348.63 1320.35 1314.53 1296.54 1298.28 1245.15 1215.81 1218.91 1204.06 1215.78 1213.82 1238.11 -136.69 -115.24 -104.61 -112.05 -114.04 -108.96 -101.82 -88.92 -89.72 -92.75 -118.10 -131.12 -144.76 -358.69 -370.49 -362.07 -356.19 -359.44 -375.81 -387.16 -375.97 -369.12 -376.25 -384.44 -388.29 -394.48 -637.97 -636.71 -631.65 -634.54 -641.79 -641.68 -644.72 -651.68 -646.63 -643.96 -649.22 -650.12 -655.24 -766.75 -774.66 -768.38 -769.65 -764.82 -765.25 -766.84 -760.76 -773.65 -769.95 -769.12 -768.72 -774.67 -1364.17 -1369.88 -1365.93 -1361.58 -1365.18 -1361.14 -1368.94 -1367.14 -1366.75 -1363.69 -1366.93 -1364.63 -1370.17 -2209.73 -2209.02 -2202.40 -2210.48 -2218.20 -2223.38 -2257.98 -2465.39 -2580.99 -2827.31 -3025.72 -3188.48 -3210.51 -1154.13 -1155.09 -1169.24 -1178.84 -1160.97 -1164.40 -1225.49 -1204.33 -1251.03 -1319.37 -1366.62 -1488.56 -1522.34 -1570.95 -1635.51 -1703.13 -1742.08 -1763.00 -1761.91
4255.10 4253.99 4048.58 3898.09 3853.59 3906.04 3938.45 3926.90 3872.17 3772.46 3676.44 3657.77 3584.26 3285.98 3268.28 3256.47 3256.65 3264.32 3270.12 3263.42 3236.83 3214.58 3206.59 3215.49 3229.95 3257.68 1318.52 1321.80 1288.96 1288.70 1272.17 1237.44 1227.42 1207.28 1214.11 1211.16 1222.41 1229.68 1245.64 -128.73 -116.31 -98.89 -103.47 -89.24 -83.68 -84.09 -88.03 -90.31 -103.39 -113.15 -127.86 -135.70 -360.55 -358.43 -346.78 -354.46 -367.70 -371.76 -382.56 -382.19 -382.90 -382.82 -382.18 -384.21 -402.91 -648.21 -640.74 -626.24 -635.09 -637.23 -648.01 -643.63 -648.44 -645.69 -651.72 -653.56 -648.39 -655.92 -769.66 -778.11 -779.09 -774.13 -773.06 -775.01 -776.41 -771.77 -768.57 -773.88 -775.03 -780.80 -774.73 -1370.23 -1365.80 -1366.74 -1360.50 -1366.22 -1363.80 -1364.01 -1370.41 -1371.92 -1368.05 -1366.61 -1363.97 -1370.05 -2208.61 -2202.88 -2208.36 -2209.25 -2212.84 -2223.50 -2336.30 -2433.84 -2666.99 -2867.54 -3057.76 -3173.15 -3166.16 -1141.29 -1110.12 -1085.80 -1086.31 -1116.98 -1073.50 -1104.88 -1168.43 -1169.23 -1181.31 -1289.42 -1341.35 -1401.40 -1493.01 -1521.85 -1604.68 -1692.21 -1682.47 -1675.96
1917.22 1916.47 1816.26 1584.81 1540.67 1570.86 1594.11 1581.72 1515.99 1395.43 1326.08 1248.06 1179.02 76.01 55.31 31.60 35.16 36.50 31.17 22.12 23.01 6.89 -3.70 -3.05 14.56 33.84 842.01 840.21 828.06 803.82 787.71 772.70 766.02 768.44 764.26 767.75 788.90 801.28 813.73 810.59 841.98 861.92 854.39 857.70 868.16 861.12 856.72 852.11 841.56 827.60 810.35 800.51 -179.46 -170.71 -165.76 -179.81 -186.79 -203.61 -201.98 -198.58 -208.10 -204.79 -198.91 -209.16 -221.05 -269.04 -266.47 -268.23 -259.24 -263.16 -258.78 -270.93 -273.14 -266.97 -266.53 -260.26 -261.48 -270.31 -745.04 -737.84 -739.73 -744.01 -744.67 -736.88 -743.08 -743.50 -743.92 -740.62 -744.02 -744.02 -742.81 -1329.67 -1328.04 -1328.57 -1321.47 -1318.04 -1320.39 -1321.34 -1324.50 -1324.49 -1324.72 -1319.64 -1321.34 -1320.92 -1845.70 -1848.47 -1847.10 -1849.38 -1851.55 -1867.38 -2002.91 -2146.29 -2383.40 -2529.13 -2691.20 -2766.67 -2778.27 -1099.31 -1056.35 -1049.39 -1034.33 -1025.25 -1039.50 -1044.99 -1040.28 -1027.50 -1028.01 -1114.37 -1199.45 -1248.39 -1341.99 -1463.04 -1466.46 -1599.49 -1598.46 -1597.79
2091.86 2089.48 1889.90 1626.17 1624.40 1661.07 1627.88 1566.04 1469.62 1432.12 1313.74 1236.05 1176.48 67.40 59.02 43.91 30.10 21.67 11.73 8.53 5.45 -13.96 -20.45 -8.79 8.54 12.96 834.01 827.35 813.52 796.15 783.83 762.65 768.88 775.56 780.38 787.95 797.54 816.21 836.85 857.44 849.84 866.34 863.68 867.63 869.78 867.28 851.60 851.93 846.43 830.10 807.17 810.72 -176.05 -162.39 -160.45 -171.43 -183.92 -182.86 -195.19 -187.67 -205.39 -204.15 -192.06 -197.76 -213.31 -265.28 -268.15 -270.52 -274.03 -269.13 -263.55 -270.17 -266.52 -264.88 -259.58 -259.88 -257.00 -271.63 -730.49 -738.90 -737.11 -742.60 -742.82 -739.49 -735.49 -734.89 -741.18 -729.24 -742.19 -744.81 -744.71 -1320.14 -1324.63 -1323.92 -1321.12 -1316.00 -1322.41 -1323.81 -1322.09 -1326.82 -1324.88 -1324.17 -1323.42 -1323.04 -1846.63 -1849.93 -1846.53 -1849.52 -1858.53 -1861.52 -1983.99 -2224.26 -2455.25 -2493.55 -2644.61 -2682.92 -2745.67 -1055.65 -1040.97 -1029.10 -1035.11 -995.13 -974.89 -966.90 -970.86 -999.44 -1008.17 -1001.81 -1044.58 -1162.75 -1278.26 -1343.31 -1406.22 -1432.87 -1513.71 -1510.94
2076.31 2080.77 1864.60 1753.64 1699.88 1691.73 1641.16 1550.11 1496.65 1359.62 1294.58 1207.59 1208.11 80.24 54.55 52.88 33.93 30.25 6.14 -0.79 -8.21 -4.50 -12.11 -21.66 -19.28 -9.91 813.33 805.53 802.32 779.97 776.27 773.68 782.14 789.79 782.55 824.67 822.80 848.89 863.52 873.14 872.93 882.65 868.89 867.15 869.79 865.26 849.89 840.50 834.04 829.23 820.46 803.84 -167.25 -167.33 -161.13 -170.87 -178.12 -173.91 -166.97 -181.14 -191.00 -195.37 -189.35 -191.69 -206.96 -261.64 -252.87 -259.67 -266.14 -268.38 -279.35 -270.53 -262.69 -257.57 -252.14 -256.51 -250.48 -249.42 -727.53 -727.89 -729.09 -738.54 -733.40 -734.32 -740.69 -741.23 -737.94 -738.08 -737.66 -739.17 -743.77 -1321.63 -1322.57 -1320.19 -1326.03 -1312.20 -1320.18 -1315.75 -1322.55 -1325.97 -1316.74 -1331.36 -1323.45 -1328.79 -1844.79 -1853.49 -1847.61 -1851.70 -1856.56 -1871.32 -1872.24 -2187.16 -2415.10 -2470.42 -2580.26 -2707.83 -2720.84 -1047.17 -1021.60 -994.44 -985.87 -980.17 -930.66 -937.01 -894.71 -912.61 -917.78 -940.86 -1006.42 -1032.99 -1124.99 -1326.56 -1327.59 -1425.80 -1435.25 -1433.08
1981.60 1981.11 1993.19 1653.97 1679.16 1621.22 1510.58 1487.94 1450.97 1420.63 1299.91 1292.41 1232.10 143.89 105.53 78.08 64.14 36.35 22.67 9.07 11.38 -6.84 -14.91 -15.37 -22.43 -14.84 793.37 790.40 784.63 775.81 769.56 772.27 795.87 817.88 833.36 853.06 836.28 864.54 889.45 906.31 888.87 870.86 869.47 863.48 858.92 850.84 828.05 828.13 828.40 829.97 825.09 815.79 -168.97 -153.83 -157.16 -155.14 -165.57 -170.38 -162.40 -171.68 -179.42 -188.62 -186.11 -181.72 -187.42 -236.86 -247.30 -254.45 -257.73 -268.70 -275.45 -268.43 -264.13 -252.57 -254.83 -248.10 -237.44 -245.66 -718.16 -721.03 -729.66 -729.01 -731.74 -738.43 -730.10 -739.15 -738.41 -739.31 -735.16 -740.95 -741.01 -1324.01 -1318.06 -1324.96 -1317.42 -1320.42 -1322.14 -1321.49 -1332.30 -1320.66 -1325.19 -1322.37 -1318.63 -1325.81 -1852.38 -1848.19 -1846.80 -1854.75 -1861.28 -1868.95 -1889.62 -2251.97 -2480.26 -2499.01 -2562.72 -2688.86 -2702.17 -1013.45 -999.58 -979.53 -935.19 -897.51 -871.94 -879.32 -853.73 -843.87 -850.05 -850.79 -923.81 -955.01 -1024.01 -1137.38 -1236.07 -1311.03 -1363.75 -1359.86
1923.55 1926.11 1789.54 1628.22 1564.34 1528.87 1412.05 1449.51 1504.55 1508.67 1442.37 1325.47 1309.81 170.83 149.33 116.59 104.21 63.20 45.64 30.43 9.47 11.70 10.69 -19.20 -23.52 -23.68 776.11 781.63 771.24 773.10 775.09 785.67 802.32 830.54 834.72 872.61 870.14 883.41 894.63 903.47 879.11 868.27 862.40 861.69 851.92 833.57 829.25 828.76 824.85 831.40 832.49 829.42 -161.29 -153.57 -139.97 -149.39 -154.84 -158.76 -150.30 -161.82 -174.44 -179.19 -189.89 -183.83 -186.39 -235.66 -233.80 -244.39 -252.90 -265.48 -271.20 -268.62 -256.78 -259.08 -241.61 -243.51 -241.83 -247.27 -715.57 -716.77 -721.33 -727.19 -735.79 -733.09 -737.23 -746.88 -740.07 -743.82 -737.91 -737.50 -740.92 -1321.81 -1329.15 -1320.15 -1318.82 -1325.85 -1326.98 -1324.72 -1327.45 -1324.63 -1326.11 -1324.56 -1326.01 -1323.38 -1847.10 -1857.12 -1851.78 -1858.57 -1868.25 -1876.67 -1903.82 -2139.08 -2387.73 -2498.21 -2611.57 -2666.40 -2676.54 -1001.91 -999.30 -934.70 -907.04 -887.18 -862.20 -815.85 -804.02 -808.09 -809.85 -834.83 -871.45 -886.10 -917.50 -1031.32 -1150.82 -1267.13 -1296.26 -1301.11
1912.20 1918.87 1737.07 1566.80 1445.70 1383.43 1405.84 1425.88 1507.05 1507.16 1443.29 1368.21 1330.09 183.72 143.51 122.73 124.90 107.53 89.91 50.64 36.18 36.33 28.21 8.69 -13.82 -23.49 784.55 776.08 781.97 772.24 776.38 786.84 809.92 821.46 860.43 879.94 904.84 909.19 907.21 896.96 871.46 864.84 863.97 847.33 840.08 833.80 831.85 831.02 832.25 843.23 843.77 837.79 -166.58 -152.50 -144.83 -144.28 -148.65 -153.83 -160.38 -164.43 -168.43 -181.67 -187.01 -188.56 -192.90 -237.90 -236.86 -249.89 -261.75 -269.77 -272.97 -255.39 -240.33 -244.07 -237.58 -236.41 -239.19 -243.71 -712.38 -716.40 -713.55 -730.29 -732.60 -745.75 -741.92 -741.41 -743.16 -740.56 -742.91 -743.44 -738.34 -1323.28 -1327.47 -1321.77 -1319.95 -1320.91 -1326.92 -1317.16 -1325.79 -1323.04 -1323.67 -1326.25 -1322.77 -1329.77 -1847.85 -1858.48 -1859.96 -1864.54 -1863.40 -1897.47 -1926.79 -2056.68 -2298.65 -2540.06 -2620.42 -2633.67 -2667.24 -975.12 -956.66 -910.44 -886.52 -868.25 -819.74 -779.11 -754.45 -747.60 -763.35 -767.84 -812.90 -835.94 -902.71 -989.08 -1053.06 -1253.54 -1249.60 -1248.12
1729.06 1733.63 1772.04 1450.52 1432.74 1373.27 1339.35 1390.58 1471.72 1475.80 1419.68 1407.60 1388.04 234.42 205.15 155.45 168.51 150.39 112.30 87.89 73.80 71.27 35.42 11.67 -2.80 3.70 792.64 782.41 788.13 789.05 791.00 800.62 824.77 826.75 860.26 894.87 916.51 908.82 904.77 891.53 869.69 857.05 854.44 847.66 838.87 836.30 844.31 845.08 856.36 855.87 848.25 841.39 -154.53 -153.33 -141.16 -138.66 -153.45 -158.29 -156.18 -171.48 -181.74 -184.01 -204.46 -206.30 -205.14 -251.89 -254.69 -251.31 -259.66 -258.18 -258.81 -256.15 -242.93 -237.62 -239.79 -231.35 -236.75 -241.12 -705.84 -721.52 -722.16 -731.21 -728.30 -737.05 -741.32 -744.69 -742.07 -743.42 -738.43 -745.12 -742.01 -1317.60 -1326.44 -1326.15 -1328.40 -1322.84 -1331.01 -1325.91 -1329.15 -1325.43 -1322.07 -1317.06 -1325.93 -1330.92 -1841.84 -1849.07 -1855.17 -1868.05 -1862.79 -1897.05 -1926.22 -2093.24 -2204.64 -2429.14 -2575.37 -2604.95 -2628.30 -962.12 -941.12 -898.24 -863.04 -848.35 -814.51 -763.63 -740.95 -735.14 -731.00 -719.45 -751.66 -795.59 -866.76 -961.91 -1047.25 -1144.70 -1203.67 -1203.55
1676.79 1679.93 1540.28 1455.52 1394.08 1340.39 1315.87 1375.18 1412.10 1399.16 1391.56 1400.88 1412.31 266.48 223.46 172.21 178.39 172.01 111.50 85.76 74.23 39.46 27.04 -2.87 10.18 15.45 809.66 814.00 808.04 803.37 807.08 810.18 829.34 835.84 868.87 901.42 909.08 911.51 895.98 876.92 861.48 854.54 847.85 838.70 837.59 846.19 859.43 867.60 869.59 866.92 861.90 846.36 -150.53 -138.38 -142.28 -143.91 -156.10 -164.99 -172.28 -182.46 -186.23 -200.47 -201.02 -202.05 -206.75 -245.67 -253.12 -255.01 -245.88 -250.53 -250.77 -240.78 -247.11 -238.52 -230.28 -235.56 -244.87 -245.97 -720.41 -725.13 -730.35 -729.33 -740.48 -741.79 -740.20 -738.67 -740.06 -739.14 -737.13 -742.28 -741.86 -1324.49 -1323.46 -1326.83 -1322.55 -1325.64 -1319.56 -1323.24 -1321.93 -1322.91 -1324.26 -1320.06 -1332.06 -1331.18 -1852.08 -1850.63 -1843.23 -1860.33 -1861.18 -1887.23 -1983.59 -2028.88 -2210.32 -2391.63 -2563.34 -2587.22 -2617.86 -955.48 -910.41 -875.68 -831.65 -814.19 -757.10 -710.35 -712.49 -688.20 -691.83 -716.71 -753.37 -788.57 -809.50 -933.92 -986.02 -1119.62 -1164.41 -1160.72
1666.96 1664.56 1545.09 1416.79 1348.40 1294.50 1313.72 1355.87 1383.00 1370.82 1344.74 1369.39 1386.62 302.76 268.04 214.59 185.74 162.35 95.63 46.01 44.11 22.20 16.33 12.15 31.16 46.77 827.17 814.11 820.36 828.66 821.44 823.07 835.91 851.37 869.58 895.10 912.37 905.20 885.12 869.62 860.38 856.91 847.44 841.15 848.22 856.48 865.34 876.00 892.97 876.55 870.32 858.11 -135.39 -136.21 -146.56 -150.73 -160.21 -164.44 -173.05 -189.65 -193.71 -191.40 -186.13 -189.40 -191.26 -244.28 -251.20 -252.32 -238.38 -246.07 -237.16 -247.40 -241.98 -239.84 -238.61 -241.48 -246.12 -251.98 -726.22 -728.45 -735.64 -731.77 -741.65 -745.57 -745.02 -735.62 -735.53 -734.09 -728.45 -731.09 -739.24 -1324.03 -1330.77 -1319.31 -1323.88 -1325.15 -1314.80 -1320.16 -1321.04 -1320.41 -1326.25 -1328.10 -1327.38 -1325.62 -1845.77 -1847.77 -1852.00 -1859.91 -1862.82 -1872.63 -1962.75 -2113.27 -2234.02 -2320.49 -2521.52 -2550.31 -2586.29 -912.32 -875.35 -832.62 -804.32 -790.37 -721.70 -709.42 -672.43 -674.67 -673.91 -676.40 -721.25 -744.21 -786.89 -876.42 -909.30 -1122.00 -1118.32 -1121.09
1719.14 1723.95 1593.43 1432.66 1358.80 1289.47 1282.25 1297.66 1324.22 1317.44 1317.98 1330.84 1375.46 288.98 262.36 204.71 198.44 168.41 99.82 30.28 34.21 29.27 35.29 27.53 39.35 35.02 841.09 827.60 841.77 853.61 858.07 852.54 840.16 862.21 884.69 906.97 914.94 905.39 891.30 875.63 862.35 850.67 851.40 855.33 865.49 865.29 878.82 899.13 895.28 888.16 871.13 868.46 -126.76 -133.34 -141.39 -154.74 -160.30 -182.23 -183.34 -180.98 -187.08 -178.95 -179.60 -171.41 -186.32 -236.98 -235.18 -235.43 -224.63 -237.74 -241.86 -243.10 -246.75 -237.54 -245.16 -235.71 -248.71 -257.94 -733.31 -732.99 -731.02 -743.01 -744.21 -740.60 -741.90 -739.44 -729.58 -723.13 -720.07 -734.80 -740.48 -1326.30 -1325.13 -1324.07 -1315.23 -1309.35 -1311.67 -1319.68 -1320.96 -1317.44 -1324.84 -1322.03 -1326.32 -1328.92 -1844.86 -1845.87 -1852.15 -1849.21 -1864.27 -1874.31 -1936.77 -2087.86 -2157.27 -2290.89 -2417.82 -2446.56 -2510.14 -882.60 -858.58 -795.26 -773.61 -727.10 -681.48 -628.25 -637.52 -644.01 -637.09 -641.16 -678.76 -699.20 -756.64 -796.69 -886.50 -972.35 -1065.86 -1067.29
1681.05 1684.01 1567.65 1434.26 1399.28 1308.04 1252.32 1254.77 1235.44 1258.88 1298.56 1337.94 1377.38 293.31 260.01 203.17 169.03 113.89 76.98 52.85 56.72 43.43 67.11 56.75 74.34 49.90 849.64 834.07 847.92 870.78 884.83 883.61 869.12 880.38 904.91 923.86 914.75 898.34 893.87 867.09 867.12 863.29 865.15 865.50 871.34 883.44 890.46 913.01 912.47 906.51 892.62 875.73 -130.54 -134.12 -139.56 -152.71 -146.49 -156.31 -172.83 -180.03 -173.95 -177.89 -164.16 -174.29 -174.19 -223.05 -225.39 -229.35 -233.24 -233.25 -244.32 -257.11 -252.60 -260.45 -249.68 -250.10 -251.49 -253.81 -733.01 -739.24 -736.58 -735.95 -742.65 -741.38 -746.23 -738.97 -722.96 -713.95 -720.76 -728.49 -739.77 -1315.12 -1317.39 -1313.18 -1311.31 -1311.83 -1308.56 -1316.88 -1316.75 -1323.76 -1324.33 -1324.65 -1325.49 -1321.30 -1844.28 -1848.93 -1845.25 -1848.76 -1857.89 -1873.10 -1881.20 -1966.43 -2028.54 -2219.16 -2267.86 -2344.18 -2439.22 -773.83 -773.37 -780.69 -723.92 -697.73 -644.40 -625.88 -590.32 -607.69 -610.68 -631.29 -656.60 -698.73 -708.54 -744.45 -836.27 -966.67 -1000.64 -1003.83
1639.62 1639.30 1552.97 1430.41 1407.70 1327.31 1259.02 1242.80 1231.38 1257.95 1293.40 1358.59 1375.54 297.94 290.65 224.17 161.13 107.95 112.56 82.51 82.82 70.42 84.77 88.06 81.55 75.01 865.95 851.86 861.23 865.05 893.15 893.97 892.39 908.79 935.44 938.22 926.42 906.78 899.06 883.93 880.90 873.79 871.84 887.77 895.65 889.17 902.37 920.96 934.05 908.60 895.07 869.39 -127.04 -138.55 -134.52 -152.09 -144.13 -154.45 -170.35 -175.03 -173.02 -166.39 -166.10 -169.53 -169.81 -223.65 -222.21 -228.37 -237.46 -234.42 -252.43 -258.24 -262.85 -255.77 -256.33 -256.98 -253.41 -257.55 -727.26 -740.11 -738.19 -741.85 -731.28 -730.61 -736.45 -730.07 -725.76 -716.99 -719.62 -721.14 -729.83 -1315.10 -1310.84 -1310.73 -1312.58 -1312.66 -1312.65 -1314.93 -1319.96 -1312.28 -1327.80 -1327.15 -1319.03 -1323.30 -1843.88 -1842.48 -1847.04 -1849.02 -1857.59 -1861.79 -1870.86 -1874.91 -1883.24 -1972.34 -2029.54 -2074.07 -2233.22 -706.06 -734.30 -718.94 -686.53 -630.45 -604.09 -585.36 -579.72 -557.51 -571.89 -589.66 -587.56 -626.82 -655.98 -711.74 -729.86 -933.78 -930.49 -926.28
3828.92 3824.46 3734.52 3599.00 3544.69 3532.59 3483.87 3440.15 3421.89 3457.95 3481.46 3552.53 3606.33 3626.63 3612.74 3575.79 3505.92 3455.16 3426.57 3412.73 3400.79 3401.80 3406.23 3433.37 3425.73 3408.10 781.26 753.97 754.43 773.61 791.00 809.65 810.59 837.40 848.73 844.98 823.51 817.16 795.76 813.90 801.62 787.88 787.26 807.05 824.42 826.09 833.73 841.18 844.01 825.69 784.24 766.19 148.41 138.78 126.30 134.98 131.76 126.12 109.60 94.83 89.97 106.31 112.55 111.31 103.76 -48.41 -49.94 -54.81 -51.92 -64.91 -77.38 -82.98 -86.92 -87.77 -84.81 -82.53 -90.96 -95.35 -290.17 -295.34 -280.63 -281.26 -282.59 -281.53 -276.72 -277.13 -265.64 -267.97 -269.49 -267.47 -272.64 -271.02 -273.00 -277.34 -279.58 -276.64 -280.85 -283.40 -289.68 -294.17 -294.17 -289.70 -293.16 -295.88 -292.17 -293.81 -294.01 -297.87 -300.79 -291.72 -308.18 -307.36 -316.33 -324.30 -335.17 -431.21 -498.46 -578.85 -667.37 -673.72 -617.97 -589.27 -550.99 -519.03 -517.42 -512.22 -514.80 -539.48 -523.90 -563.59 -582.28 -648.35 -712.27 -792.45 -848.88 -850.91
3747.95 3748.86 3746.48 3588.43 3516.23 3496.04 3456.33 3438.09 3419.36 3448.84 3494.23 3552.93 3569.35 3626.09 3603.30 3581.33 3547.19 3506.31 3492.47 3450.15 3438.98 3441.98 3435.33 3449.43 3463.47 3444.51 801.76 766.06 763.39 779.41 804.84 841.10 848.88 860.95 872.54 849.44 825.19 809.72 815.24 823.66 814.35 799.34 804.71 829.69 840.01 833.58 844.04 844.06 836.96 796.00 765.52 756.54 135.12 126.59 114.74 116.47 122.15 119.22 110.55 88.12 85.43 84.97 90.95 102.08 94.62 -63.46 -63.02 -55.45 -59.41 -61.30 -75.84 -86.23 -84.73 -88.57 -94.28 -88.91 -94.97 -94.47 -285.17 -280.44 -278.43 -273.71 -273.06 -273.52 -267.22 -267.47 -268.24 -266.44 -259.31 -271.65 -274.91 -276.14 -273.49 -279.21 -282.35 -279.94 -283.70 -292.75 -283.97 -285.87 -290.98 -284.22 -295.63 -289.57 -290.70 -288.98 -288.07 -288.68 -296.58 -300.63 -293.60 -297.41 -297.57 -306.58 -336.54 -353.13 -457.75 -377.71 -635.39 -597.06 -590.27 -519.27 -494.67 -484.46 -469.35 -461.52 -480.65 -478.75 -503.13 -500.29 -553.68 -610.41 -645.76 -757.25 -778.85 -772.38
3655.26 3652.04 3670.73 3511.09 3481.50 3477.01 3446.57 3405.89 3413.14 3441.47 3486.97 3527.26 3565.25 3577.93 3588.06 3581.90 3568.05 3548.26 3519.70 3490.54 3502.41 3514.89 3494.37 3490.12 3462.26 3456.54 822.37 800.91 775.15 793.70 845.00 882.21 888.88 883.98 862.84 826.63 809.76 802.65 823.29 844.99 827.09 829.35 827.89 831.55 831.72 823.17 828.12 820.99 811.57 787.45 756.31 753.96 116.80 116.53 106.34 112.91 122.65 121.93 103.14 87.66 78.61 80.94 91.92 88.64 77.73 -81.35 -78.14 -74.52 -64.06 -69.32 -78.49 -86.39 -84.85 -79.89 -86.17 -87.15 -89.01 -85.21 -290.19 -284.77 -266.53 -268.63 -264.21 -262.72 -259.29 -262.32 -256.56 -262.16 -259.67 -265.63 -268.44 -271.35 -275.79 -275.31 -282.75 -282.43 -289.09 -288.68 -288.20 -287.64 -294.92 -289.27 -286.22 -296.14 -294.49 -292.86 -296.07 -292.77 -294.70 -297.96 -296.28 -293.46 -297.51 -296.76 -318.59 -335.64 -353.83 -316.18 -421.40 -508.64 -514.31 -500.27 -481.23 -445.67 -454.99 -441.64 -433.37 -438.75 -460.71 -473.29 -492.88 -521.73 -577.57 -630.04 -701.44 -703.47
3620.48 3625.84 3556.13 3472.97 3459.53 3457.30 3431.64 3413.03 3407.45 3423.40 3474.96 3507.82 3531.03 3563.99 3578.29 3589.27 3573.72 3559.91 3587.68 3591.11 3593.39 3549.96 3550.52 3518.59 3492.67 3489.98 864.34 836.39 851.32 866.52 921.59 916.96 911.07 880.97 848.30 800.52 790.82 801.84 813.38 834.96 822.15 819.56 820.82 814.09 823.30 815.73 805.82 784.14 779.14 764.46 754.92 739.62 120.98 109.27 100.31 110.31 100.96 97.03 95.33 83.71 80.54 79.53 74.15 75.52 65.70 -82.19 -86.77 -82.81 -80.49 -75.23 -80.73 -84.51 -81.18 -78.38 -78.30 -75.19 -82.61 -87.03 -284.85 -274.58 -266.66 -261.93 -254.45 -250.76 -259.01 -257.52 -259.79 -257.60 -259.72 -263.17 -268.20 -267.66 -279.99 -279.84 -284.36 -291.07 -284.76 -285.86 -289.02 -291.20 -295.96 -288.93 -288.29 -296.77 -289.20 -297.64 -297.09 -293.92 -298.89 -294.63 -297.01 -294.24 -294.22 -290.48 -291.31 -318.91 -349.20 -312.29 -371.21 -501.45 -480.78 -453.12 -432.22 -425.79 -420.15 -416.54 -423.47 -421.45 -445.65 -463.22 -468.37 -510.92 -556.51 -630.29 -636.52 -634.25
3619.79 3624.99 3556.92 3465.84 3444.91 3430.35 3418.78 3407.65 3394.33 3416.50 3450.67 3508.97 3522.59 3545.15 3536.21 3544.95 3573.26 3599.41 3621.23 3640.28 3612.77 3554.37 3551.11 3532.92 3521.34 3523.23 905.64 887.94 884.05 945.21 937.23 933.72 889.04 874.59 823.60 779.56 770.04 777.62 805.43 820.46 807.80 803.49 787.66 803.74 806.37 810.23 789.30 769.49 752.64 751.10 746.43 737.70 114.30 110.78 103.11 91.06 83.08 83.74 75.92 80.53 77.05 80.08 81.15 70.02 63.24 -79.40 -92.37 -86.12 -82.71 -84.00 -85.50 -79.44 -79.12 -63.64 -62.35 -66.94 -74.15 -69.16 -272.29 -267.69 -261.94 -257.06 -258.55 -254.21 -251.04 -252.01 -256.53 -262.65 -269.11 -272.17 -271.06 -274.52 -275.52 -285.01 -284.22 -284.58 -284.75 -280.94 -285.29 -285.62 -293.88 -298.67 -294.46 -291.96 -289.59 -294.77 -290.14 -295.04 -295.73 -291.03 -296.63 -297.77 -297.07 -291.92 -294.41 -309.20 -335.84 -231.70 -362.24 -405.74 -453.32 -419.86 -409.05 -385.19 -393.05 -391.68 -404.77 -420.06 -424.21 -440.38 -456.01 -499.35 -524.03 -573.81 -592.77 -589.46
3610.47 3606.57 3534.69 3432.98 3433.87 3401.26 3394.50 3393.63 3401.55 3429.20 3440.31 3482.99 3494.10 3503.89 3511.00 3507.83 3577.20 3616.39 3626.51 3638.11 3602.48 3573.79 3554.66 3514.45 3505.88 3528.23 911.16 916.00 936.64 956.12 971.77 921.25 850.66 836.52 794.24 760.34 755.41 757.06 753.50 784.86 770.30 775.04 760.63 776.95 784.90 779.88 767.18 742.09 736.24 729.78 730.83 725.81 117.15 108.13 100.98 90.69 90.85 81.18 73.21 81.94 89.51 76.59 73.43 63.37 74.31 -68.35 -73.39 -82.11 -73.78 -67.62 -68.87 -73.99 -65.48 -57.37 -58.31 -54.51 -67.01 -57.13 -257.22 -262.36 -258.69 -255.46 -257.76 -256.34 -257.05 -263.71 -263.88 -265.84 -269.67 -276.95 -276.20 -286.02 -282.63 -282.78 -283.45 -279.46 -284.01 -287.44 -281.94 -290.41 -290.49 -291.64 -294.58 -293.54 -292.66 -286.52 -290.90 -288.61 -296.37 -292.94 -294.41 -289.02 -292.66 -296.15 -290.43 -304.89 -318.16 -232.87 -278.66 -330.76 -417.97 -381.07 -376.51 -365.18 -362.23 -366.59 -373.66 -403.27 -411.21 -432.26 -453.75 -479.56 -498.10 -533.50 -557.26 -556.26
3611.21 3615.81 3547.59 3430.01 3398.35 3397.43 3392.77 3380.10 3390.58 3417.41 3427.46 3441.49 3435.82 3471.99 3474.01 3507.75 3532.15 3598.74 3609.45 3592.22 3570.60 3550.28 3515.10 3496.84 3478.07 3493.65 906.56 910.63 928.43 960.84 973.94 956.18 904.65 818.14 794.94 759.45 749.98 740.05 752.55 772.33 770.81 759.55 761.29 759.91 772.05 754.57 743.89 741.77 727.73 721.20 719.88 722.91 114.04 101.72 90.97 98.85 95.35 91.74 84.67 92.84 91.77 85.40 81.37 76.31 78.55 -55.92 -70.85 -74.74 -60.45 -55.57 -58.53 -52.91 -47.16 -49.62 -50.61 -49.61 -49.26 -57.13 -251.83 -253.70 -260.60 -254.72 -259.44 -255.23 -258.86 -263.73 -267.33 -267.80 -275.38 -279.38 -287.80 -282.67 -284.86 -287.17 -279.44 -280.50 -287.70 -281.46 -285.74 -291.27 -289.72 -291.44 -297.34 -289.96 -292.30 -286.27 -293.91 -294.41 -293.78 -297.07 -295.18 -296.04 -300.44 -287.39 -297.32 -298.49 -316.18 -221.07 -276.57 -319.75 -362.28 -353.38 -329.21 -331.70 -343.76 -352.47 -375.00 -384.01 -406.72 -426.58 -457.09 -480.37 -508.47 -564.75 -546.02 -545.82
3671.33 3667.15 3554.19 3430.54 3420.41 3407.05 3409.65 3408.69 3396.42 3378.44 3391.14 3401.87 3410.84 3427.76 3457.57 3484.68 3518.50 3534.84 3520.70 3508.04 3496.75 3495.68 3468.10 3452.53 3441.14 3476.25 877.95 898.86 917.28 937.81 977.79 946.80 878.25 821.27 798.25 763.59 753.39 742.63 741.38 757.14 748.62 738.66 741.84 747.78 749.33 745.41 731.92 721.71 726.97 718.61 719.96 722.24 100.17 94.56 97.76 109.58 117.49 113.86 103.10 92.04 108.75 96.74 89.63 100.54 96.88 -62.03 -67.44 -65.53 -58.83 -54.22 -37.06 -48.18 -47.72 -52.70 -45.63 -49.93 -52.51 -56.21 -252.81 -258.07 -254.66 -258.31 -260.99 -265.28 -264.98 -270.36 -268.78 -270.94 -279.27 -284.67 -289.54 -289.54 -285.09 -283.35 -284.90 -283.74 -282.30 -284.07 -294.89 -294.55 -299.54 -292.10 -293.13 -294.16 -290.28 -294.77 -296.53 -292.92 -293.90 -297.58 -295.36 -296.81 -291.45 -299.72 -293.15 -293.86 -297.72 -215.09 -241.79 -270.97 -306.61 -301.14 -313.20 -293.63 -298.18 -306.34 -322.96 -370.03 -387.67 -434.62 -448.92 -487.58 -533.68 -583.55 -579.39 -582.45
3632.01 3621.66 3552.82 3436.54 3430.79 3441.90 3457.28 3431.12 3404.96 3392.75 3378.23 3386.31 3384.42 3413.83 3445.29 3461.60 3474.01 3469.89 3473.02 3476.87 3477.59 3465.96 3428.48 3421.20 3424.26 3447.03 869.43 883.42 871.46 907.63 944.19 927.62 883.59 822.43 796.71 773.99 778.26 742.21 742.92 763.57 758.53 745.89 742.66 742.95 732.91 730.43 727.55 721.46 720.13 720.00 717.41 726.90 101.34 99.48 103.88 108.24 123.13 116.99 115.96 109.32 120.07 114.52 112.84 110.91 100.39 -50.43 -57.63 -55.02 -46.64 -38.26 -39.09 -31.58 -39.42 -50.85 -47.95 -46.58 -55.38 -60.62 -253.75 -255.35 -261.71 -257.04 -260.61 -273.63 -274.94 -269.66 -272.18 -269.80 -270.89 -286.17 -290.46 -290.84 -291.36 -284.18 -289.26 -292.21 -295.04 -294.44 -289.21 -295.55 -293.71 -288.09 -292.43 -293.37 -296.63 -293.41 -293.40 -287.74 -299.43 -295.33 -296.00 -294.29 -292.78 -302.05 -295.69 -295.90 -295.87 -193.79 -233.63 -269.33 -296.81 -290.31 -262.09 -280.70 -267.65 -285.26 -305.87 -321.11 -387.32 -410.75 -441.47 -539.67 -547.14 -587.77 -637.85 -634.83
3661.10 3656.26 3678.89 3495.95 3474.31 3488.36 3474.43 3464.08 3413.25 3389.47 3387.40 3376.68 3382.33 3404.96 3440.69 3445.77 3456.54 3456.22 3448.68 3460.11 3491.09 3477.39 3438.87 3419.82 3403.86 3423.07 836.74 835.73 833.83 878.11 927.55 898.24 898.43 850.08 809.41 816.65 843.12 803.85 781.83 796.15 793.34 777.24 757.29 756.62 745.36 742.18 741.30 735.71 731.74 728.94 747.80 739.07 117.96 104.62 112.52 118.29 125.34 133.12 137.36 128.11 115.26 124.61 127.14 123.04 106.21 -43.40 -50.96 -47.17 -47.83 -32.26 -32.10 -27.60 -33.92 -46.86 -48.04 -51.67 -59.83 -61.29 -266.36 -261.64 -265.67 -267.59 -270.09 -277.17 -284.02 -281.70 -273.45 -265.64 -274.63 -278.19 -293.87 -292.25 -285.66 -287.59 -295.44 -290.81 -293.20 -296.10 -293.69 -288.82 -293.30 -293.28 -295.07 -291.59 -292.93 -289.78 -297.01 -293.44 -293.49 -294.13 -292.16 -294.49 -299.17 -293.94 -295.55 -293.19 -296.93 -188.52 -226.27 -255.03 -265.33 -235.22 -247.54 -231.90 -258.37 -248.95 -281.68 -312.81 -366.97 -403.42 -474.47 -541.62 -596.20 -621.61 -651.09 -648.11
3728.98 3728.74 3720.46 3538.74 3493.01 3509.49 3501.71 3455.31 3410.64 3398.42 3373.75 3362.17 3367.54 3396.04 3414.05 3410.09 3425.77 3430.18 3444.73 3474.56 3498.10 3502.84 3452.99 3414.28 3402.85 3394.37 808.04 813.54 816.98 863.14 900.16 916.43 892.17 867.25 844.71 844.68 851.58 843.19 827.79 828.64 824.97 797.60 774.92 761.30 752.11 747.65 752.33 747.74 743.72 741.47 752.25 766.81 146.47 142.27 141.91 136.41 140.07 151.54 150.59 135.73 127.01 125.96 142.20 138.36 107.25 -35.00 -26.74 -23.82 -33.77 -24.30 -33.24 -29.19 -39.62 -43.38 -52.92 -62.97 -65.23 -67.08 -268.38 -272.27 -261.67 -272.95 -278.26 -287.00 -283.80 -277.84 -280.86 -276.51 -274.78 -282.94 -288.71 -293.24 -288.02 -289.04 -291.46 -289.34 -290.75 -288.60 -292.81 -286.95 -284.22 -286.23 -290.24 -292.04 -291.37 -291.08 -291.42 -286.77 -291.01 -292.19 -294.43 -300.23 -290.81 -293.19 -292.54 -295.30 -294.69 -183.13 -201.14 -213.17 -203.63 -205.71 -216.30 -225.86 -224.13 -226.84 -249.80 -278.54 -336.64 -386.12 -476.49 -523.86 -585.24 -625.07 -636.93 -629.05
3763.22 3765.44 3667.31 3552.79 3564.87 3507.31 3494.24 3442.88 3411.78 3384.72 3361.52 3358.58 3357.94 3387.03 3399.98 3397.99 3390.10 3420.90 3438.00 3465.68 3492.28 3493.26 3481.79 3443.28 3411.64 3389.58 794.13 800.34 813.71 856.35 888.36 911.27 906.56 895.29 896.02 893.82 898.46 874.43 849.60 848.74 841.62 809.15 769.03 760.72 764.33 770.98 759.39 758.48 753.55 751.81 763.33 774.17 171.32 167.70 150.27 144.15 157.27 153.80 159.01 149.24 145.48 149.06 147.78 138.22 136.61 -21.27 -24.90 -29.91 -27.54 -34.22 -30.78 -32.08 -40.06 -49.38 -54.33 -63.76 -62.57 -58.94 -270.97 -275.30 -282.71 -278.20 -287.46 -289.48 -287.96 -295.40 -283.79 -286.15 -279.36 -291.12 -291.51 -292.39 -285.94 -285.76 -286.37 -282.57 -284.34 -287.51 -287.10 -290.61 -286.46 -289.16 -285.60 -288.75 -289.53 -288.16 -287.25 -300.91 -295.86 -294.87 -298.11 -293.11 -294.02 -292.01 -295.93 -297.15 -290.19 -170.84 -167.99 -193.41 -185.45 -180.26 -188.61 -189.51 -193.63 -197.05 -220.37 -257.23 -301.05 -334.95 -425.27 -513.79 -533.17 -593.22 -599.45 -598.76
1299.55 1297.16 1193.83 1159.88 1151.52 1089.06 1028.77 987.87 948.20 941.77 918.02 903.49 889.17 627.78 618.61 619.17 626.58 648.12 674.09 706.93 709.82 729.47 697.56 681.85 650.46 641.07 454.62 467.81 506.29 534.82 544.94 551.77 543.04 538.90 551.38 570.40 567.27 555.66 546.90 767.28 732.21 698.37 677.77 665.49 664.92 674.51 664.25 654.14 638.23 636.98 645.85 656.57 184.52 186.42 180.07 183.83 178.01 179.95 185.11 180.46 181.74 175.03 175.02 163.47 163.23 -33.73 -31.45 -40.60 -44.13 -43.35 -54.24 -47.10 -60.53 -67.14 -70.41 -81.53 -79.45 -72.88 -258.83 -262.59 -259.97 -274.64 -276.26 -287.48 -284.45 -285.92 -276.63 -280.40 -278.71 -283.92 -282.40 -285.33 -281.30 -278.00 -287.11 -283.74 -287.65 -290.32 -293.01 -292.92 -289.80 -292.45 -291.15 -296.05 -766.18 -758.32 -767.85 -766.17 -768.80 -768.96 -769.03 -766.09 -771.04 -766.90 -764.08 -766.34 -766.12 -177.22 -176.21 -176.17 -173.17 -174.40 -173.27 -174.53 -174.89 -181.57 -201.57 -235.48 -248.01 -283.01 -384.38 -481.02 -512.91 -540.75 -546.31 -554.60
1350.27 1354.43 1323.67 1197.53 1213.44 1146.22 1086.34 1024.33 981.48 956.35 937.51 923.06 898.87 632.48 627.35 619.01 611.95 622.47 649.84 681.24 692.34 693.64 680.48 646.85 641.71 633.98 452.46 493.82 499.48 525.72 541.19 528.06 519.46 514.78 523.07 558.05 566.73 561.69 557.93 784.91 767.93 723.21 698.15 679.69 698.44 708.25 696.05 677.35 665.89 665.66 648.83 663.44 184.10 194.43 181.93 173.80 182.84 176.52 175.74 172.47 177.41 182.59 185.28 187.79 170.82 -16.05 -17.35 -35.97 -35.04 -49.00 -45.56 -48.71 -50.49 -57.40 -66.78 -75.32 -77.35 -75.38 -253.44 -255.09 -265.65 -258.88 -273.09 -275.38 -286.41 -287.50 -286.06 -286.93 -287.83 -275.54 -279.26 -277.41 -278.77 -287.77 -294.78 -291.09 -290.15 -293.03 -288.68 -300.56 -294.65 -294.20 -289.17 -293.04 -770.70 -771.17 -773.67 -766.02 -773.81 -769.16 -774.62 -774.71 -768.36 -762.73 -770.35 -774.51 -769.42 -171.73 -174.62 -177.80 -175.50 -174.58 -175.77 -178.77 -172.26 -178.99 -180.93 -207.39 -240.23 -272.00 -366.08 -434.28 -434.90 -486.89 -494.70 -494.15
1462.56 1452.23 1351.54 1249.25 1230.73 1159.67 1099.92 1047.07 995.53 974.95 972.05 947.75 931.68 644.55 624.61 609.80 614.65 624.08 651.33 656.40 659.83 650.82 662.24 640.59 633.47 620.90 459.08 482.76 497.74 501.43 501.18 504.02 497.02 501.55 516.86 531.28 534.62 543.93 552.87 792.16 782.24 743.86 705.36 703.89 702.24 716.47 712.07 697.62 681.53 687.04 663.99 670.71 194.89 189.44 183.01 173.74 184.27 171.57 173.43 168.29 164.26 181.13 185.30 194.51 181.97 -7.31 -16.09 -29.22 -32.95 -45.51 -47.18 -50.13 -62.03 -55.40 -75.73 -82.77 -82.36 -78.30 -252.01 -257.42 -265.40 -271.48 -269.83 -274.10 -282.31 -281.87 -281.10 -279.42 -276.09 -273.30 -271.38 -276.52 -282.31 -289.19 -291.74 -284.99 -286.50 -290.19 -294.63 -290.18 -293.46 -292.66 -291.55 -289.03 -769.70 -773.87 -764.87 -768.73 -765.87 -774.73 -768.26 -767.73 -771.76 -775.10 -766.68 -765.09 -775.02 -173.97 -169.02 -168.50 -171.54 -176.03 -170.25 -174.48 -175.01 -170.96 -174.90 -190.84 -201.70 -268.69 -299.57 -392.36 -391.32 -430.59 -445.28 -445.47
1429.01 1433.75 1433.17 1260.23 1245.33 1199.16 1117.75 1075.30 1035.67 1005.88 986.09 953.30 934.04 640.71 624.09 611.37 609.05 630.25 639.06 653.28 648.55 636.57 630.79 624.84 620.94 625.39 453.42 494.46 490.80 499.67 490.40 466.42 465.35 494.16 488.88 488.79 491.61 508.39 538.33 785.83 797.00 762.67 738.89 728.22 718.05 722.29 716.88 702.61 703.02 685.69 684.98 668.54 187.30 180.24 171.96 176.33 175.97 169.30 163.99 154.04 150.14 155.41 168.85 179.15 178.23 -8.77 -18.18 -39.36 -39.10 -46.70 -52.42 -57.61 -58.90 -65.50 -75.92 -74.36 -83.40 -87.37 -267.57 -265.08 -260.59 -276.94 -271.86 -273.19 -269.27 -277.58 -282.61 -274.75 -270.55 -279.53 -275.96 -283.81 -289.34 -286.57 -285.84 -285.63 -279.92 -294.05 -291.52 -287.76 -293.78 -286.29 -294.83 -286.46 -765.50 -764.18 -769.72 -768.95 -770.59 -763.66 -769.83 -767.59 -768.28 -771.90 -771.00 -768.53 -771.44 -176.56 -175.76 -170.15 -168.68 -172.66 -173.00 -169.55 -171.63 -171.84 -170.65 -174.81 -189.70 -204.70 -231.30 -329.29 -341.21 -393.65 -383.50 -393.59
1408.53 1409.66 1328.44 1283.75 1240.45 1179.52 1090.14 1036.51 1021.84 998.75 971.89 958.60 937.12 649.72 631.34 625.13 623.22 615.29 626.99 631.39 619.17 625.30 626.03 613.44 620.30 632.96 466.02 489.87 504.61 484.37 464.97 453.88 458.10 474.91 474.52 466.09 470.39 480.56 530.52 785.52 798.69 768.71 745.60 730.36 718.72 714.65 702.16 699.01 693.62 684.56 675.34 669.31 172.39 172.28 166.59 159.60 160.82 155.40 148.11 149.91 153.40 148.15 169.06 169.37 168.68 -10.18 -33.01 -39.19 -54.20 -44.84 -56.36 -64.94 -62.91 -59.76 -62.49 -73.69 -80.50 -92.50 -267.37 -266.32 -279.37 -281.39 -277.28 -276.64 -271.85 -277.54 -274.41 -266.76 -274.07 -276.87 -280.09 -289.15 -287.06 -285.20 -283.39 -281.50 -281.66 -288.04 -293.67 -294.09 -287.76 -292.05 -283.23 -291.95 -765.76 -767.31 -767.67 -769.39 -769.97 -770.09 -771.47 -766.05 -776.02 -771.99 -771.17 -768.04 -771.50 -176.77 -171.88 -164.71 -168.06 -168.14 -166.22 -164.25 -167.37 -174.43 -175.84 -168.31 -179.57 -176.78 -179.49 -244.21 -274.10 -307.86 -340.52 -334.36
1403.97 1398.80 1321.83 1231.15 1214.91 1130.61 1029.79 991.84 964.53 963.71 962.09 929.00 928.33 629.74 650.98 624.54 616.21 607.91 607.16 604.60 610.62 611.64 613.44 608.39 626.77 625.38 470.81 484.36 489.09 482.61 463.68 433.10 437.70 452.34 451.02 455.41 478.66 483.35 521.80 790.57 782.99 771.51 734.80 724.59 714.09 709.12 700.65 690.33 687.61 674.92 671.16 655.42 170.47 167.13 169.69 160.25 166.95 159.64 159.16 154.98 146.98 138.16 153.38 170.41 169.33 -12.60 -23.30 -40.09 -42.00 -56.69 -54.63 -55.65 -55.88 -67.83 -57.77 -73.40 -81.47 -87.27 -275.50 -265.44 -273.20 -275.13 -280.17 -279.51 -279.24 -277.09 -269.77 -274.45 -267.98 -269.55 -282.48 -289.57 -287.88 -287.34 -283.95 -278.45 -290.73 -287.84 -290.05 -287.79 -290.01 -289.01 -282.12 -283.56 -757.54 -765.59 -769.26 -768.76 -767.30 -763.75 -769.03 -775.37 -771.86 -766.07 -763.12 -768.08 -769.91 -165.68 -169.01 -162.25 -157.18 -162.82 -165.72 -159.14 -161.57 -165.85 -169.30 -178.07 -172.78 -174.76 -177.70 -195.07 -205.46 -242.85 -271.21 -271.15
1322.98 1326.78 1273.39 1178.34 1112.52 1068.78 1010.23 980.99 963.59 933.97 911.74 914.34 919.28 664.93 663.56 650.89 626.98 610.92 606.75 608.95 611.71 604.19 592.32 606.88 615.34 622.04 434.18 469.72 461.42 463.19 443.65 437.61 427.89 437.86 442.48 466.57 482.97 517.41 521.70 769.88 767.42 735.59 724.07 710.89 698.84 691.90 679.37 681.61 681.77 675.39 658.19 649.58 173.32 177.35 173.91 177.27 174.34 180.94 169.49 163.87 145.51 138.87 142.78 157.85 167.31 -14.97 -13.91 -26.60 -40.50 -42.25 -46.06 -44.51 -47.96 -45.56 -55.14 -70.54 -85.33 -86.05 -264.67 -274.71 -274.58 -270.30 -282.00 -280.37 -274.84 -273.59 -270.61 -272.88 -274.29 -281.28 -281.51 -279.47 -273.27 -281.60 -281.43 -289.55 -287.95 -283.17 -286.96 -286.75 -278.71 -282.30 -282.87 -289.24 -760.86 -763.09 -774.79 -763.08 -772.19 -774.81 -766.02 -767.57 -772.98 -771.76 -768.27 -769.27 -766.90 -172.95 -171.95 -161.48 -157.84 -149.95 -154.34 -155.34 -159.91 -164.01 -161.60 -170.56 -178.42 -169.48 -177.33 -190.59 -183.50 -216.69 -221.50 -221.06
1243.89 1243.92 1234.11 1174.24 1120.09 1071.37 1013.66 1019.88 986.60 948.57 904.34 905.25 925.55 679.97 695.76 655.52 642.44 629.26 634.41 630.15 623.61 614.77 607.48 601.39 608.30 618.81 424.17 418.19 445.85 436.94 436.08 425.45 424.14 425.22 426.22 448.00 490.39 497.40 505.51 755.37 744.96 722.09 706.36 703.82 682.26 691.86 676.15 676.04 670.58 663.68 666.54 662.88 191.53 196.08 192.13 192.75 181.43 176.53 178.43 168.41 152.02 141.26 136.77 143.93 165.34 -23.97 -19.21 -28.67 -27.08 -32.65 -36.81 -39.96 -49.41 -51.15 -57.00 -64.45 -80.32 -85.94 -258.99 -259.85 -264.41 -273.11 -274.64 -266.80 -264.70 -270.14 -259.74 -269.87 -278.44 -279.85 -276.25 -273.86 -274.21 -275.09 -282.28 -282.36 -275.83 -271.62 -279.69 -275.17 -277.55 -277.86 -280.37 -284.93 -759.95 -768.78 -768.10 -768.16 -772.39 -768.27 -774.94 -768.14 -768.91 -770.44 -771.35 -763.91 -768.75 -173.24 -168.09 -160.71 -167.15 -152.95 -152.33 -147.15 -147.81 -162.39 -168.77 -168.37 -166.00 -174.05 -174.42 -176.41 -177.61 -193.90 -223.35 -219.82
1162.86 1164.68 1206.55 1148.58 1138.58 1104.35 1077.06 1069.87 1036.86 963.64 909.34 929.00 969.16 725.03 713.82 692.45 649.63 646.04 656.99 662.27 642.41 632.03 602.73 601.99 594.20 601.88 402.91 408.54 423.33 430.27 426.46 425.25 417.23 422.07 420.21 429.36 461.89 491.46 500.13 749.98 735.52 726.10 699.71 692.26 688.82 683.08 681.63 664.75 668.96 677.55 674.33 664.96 200.13 204.75 195.04 189.08 178.49 182.30 182.24 172.60 162.75 148.15 136.66 130.47 147.54 -21.51 -15.78 -23.40 -31.30 -32.43 -39.91 -44.23 -47.00 -47.98 -56.21 -66.02 -74.56 -73.82 -249.00 -248.99 -262.52 -257.12 -264.24 -261.91 -258.48 -254.28 -253.95 -273.09 -276.32 -278.11 -268.00 -274.71 -273.33 -275.98 -274.70 -275.81 -265.60 -270.02 -271.08 -272.66 -272.83 -273.47 -277.35 -283.17 -760.95 -766.40 -767.35 -762.81 -768.20 -771.13 -770.85 -766.11 -764.49 -774.06 -767.52 -762.13 -762.29 -171.19 -174.03 -172.86 -158.05 -147.95 -140.63 -139.49 -146.30 -151.43 -159.62 -170.83 -166.03 -172.57 -179.25 -176.40 -174.75 -189.41 -170.64 -173.03
1233.17 1232.07 1175.71 1143.87 1139.65 1142.12 1125.21 1096.29 1087.64 1023.22 973.63 961.54 987.62 732.45 722.98 700.38 670.11 648.96 670.18 684.91 660.17 639.99 616.78 603.63 595.70 597.22 402.77 398.52 403.71 417.49 424.50 427.55 413.31 416.31 418.37 423.31 458.38 479.14 491.54 743.95 735.74 711.25 705.81 694.01 690.62 682.37 682.98 686.79 690.49 682.72 691.05 686.76 209.32 201.31 205.52 192.45 181.34 178.25 167.00 172.02 163.35 165.97 147.24 137.91 128.08 -31.65 -24.14 -20.48 -24.13 -34.70 -41.14 -49.93 -51.00 -53.75 -63.51 -74.73 -71.00 -67.01 -236.56 -235.98 -242.40 -247.28 -245.91 -254.74 -252.91 -256.45 -262.16 -270.72 -275.62 -266.66 -264.65 -266.99 -265.20 -263.60 -273.30 -269.76 -273.71 -265.90 -275.36 -267.69 -273.96 -281.72 -283.35 -283.00 -764.73 -767.06 -763.34 -765.63 -763.83 -758.11 -765.44 -766.30 -767.60 -765.91 -767.68 -761.55 -764.42 -175.71 -170.65 -165.78 -157.05 -152.30 -152.76 -143.92 -143.43 -158.43 -164.38 -165.27 -170.24 -171.07 -175.66 -175.05 -178.57 -166.82 -168.21 -172.79
1226.45 1228.09 1190.36 1133.71 1126.90 1146.90 1135.52 1117.93 1074.20 1078.84 996.78 988.38 998.75 731.05 713.23 680.21 659.48 654.99 678.99 702.98 674.75 656.33 634.76 618.12 609.44 597.13 404.98 397.16 397.94 399.71 407.72 403.56 399.71 406.77 420.53 419.86 455.33 470.18 498.56 755.25 747.00 732.74 719.99 720.26 699.29 712.19 708.17 708.81 693.62 700.86 691.51 687.48 209.04 198.15 198.53 185.74 171.19 165.08 158.98 155.24 162.81 168.08 153.25 133.04 118.11 -39.88 -31.98 -23.59 -22.80 -28.69 -32.37 -45.09 -58.15 -56.68 -62.52 -67.97 -63.01 -62.88 -234.72 -243.72 -243.30 -248.92 -249.42 -241.40 -253.05 -259.96 -266.48 -264.05 -273.21 -273.49 -262.70 -263.18 -258.23 -260.23 -268.30 -269.45 -268.96 -266.13 -263.31 -271.22 -276.37 -272.33 -282.52 -282.70 -762.26 -768.52 -765.22 -761.63 -766.09 -756.38 -757.45 -761.37 -767.69 -768.99 -773.14 -766.78 -766.69 -166.99 -165.74 -164.34 -151.87 -147.23 -150.35 -136.13 -141.71 -149.14 -156.57 -163.56 -174.69 -175.65 -172.26 -175.06 -176.54 -170.16 -171.77 -173.99
1205.74 1206.64 1172.14 1108.30 1107.02 1135.01 1152.86 1137.86 1137.23 1087.94 1045.16 1015.50 1044.50 746.60 718.65 682.51 674.32 672.30 719.01 726.59 697.14 679.24 640.66 618.16 617.61 616.21 414.23 418.67 401.20 389.65 401.82 394.77 396.89 411.10 416.47 438.08 477.11 487.67 488.19 756.58 760.85 745.42 739.30 722.01 730.70 734.60 742.12 719.10 704.66 697.85 699.86 691.49 200.39 192.06 178.35 171.51 175.05 160.12 144.29 142.24 145.22 154.34 144.27 128.03 117.55 -52.01 -35.93 -19.54 -24.59 -20.91 -31.82 -36.28 -50.30 -51.06 -48.19 -53.42 -49.53 -48.75 -229.41 -238.02 -241.13 -241.34 -247.21 -252.84 -261.33 -258.03 -265.86 -270.33 -264.93 -259.78 -259.38 -257.89 -263.60 -257.22 -262.36 -261.32 -259.35 -258.64 -263.00 -264.04 -269.47 -274.38 -279.42 -284.73 -761.64 -764.99 -764.37 -770.16 -758.02 -773.05 -760.07 -759.95 -762.05 -761.08 -768.21 -764.01 -760.30 -164.29 -164.98 -149.32 -150.10 -144.60 -141.54 -140.33 -149.51 -152.36 -158.37 -167.61 -167.56 -172.42 -173.28 -178.01 -173.18 -169.17 -164.82 -165.91
2377.59 2377.93 2330.55 2294.90 2285.06 2295.81 2327.58 2323.52 2344.73 2295.37 2253.19 2261.03 2245.18 2529.28 2485.38 2454.66 2416.74 2452.90 2495.03 2487.20 2468.72 2425.55 2405.34 2387.21 2364.64 2352.94 915.06 912.19 887.57 877.66 864.99 870.08 875.34 900.57 906.12 935.06 963.04 957.55 973.76 976.49 990.13 985.89 984.78 966.07 969.74 982.55 977.22 972.10 945.79 932.00 935.61 935.02 194.74 173.71 161.28 161.38 150.51 145.50 126.06 129.09 126.60 135.79 129.55 110.32 112.47 -49.22 -29.31 -25.00 -21.25 -19.20 -24.91 -20.36 -39.86 -41.34 -38.46 -42.95 -46.60 -48.44 -174.25 -180.53 -187.50 -189.46 -190.08 -199.56 -209.06 -204.77 -211.18 -209.90 -208.42 -207.89 -205.41 -197.73 -193.11 -190.04 -192.31 -192.64 -195.65 -192.49 -196.09 -200.13 -209.40 -213.76 -220.63 -217.48 -217.25 -229.98 -226.91 -231.23 -232.83 -222.73 -222.13 -218.34 -223.90 -224.45 -225.35 -222.45 -224.10 -168.27 -151.72 -153.98 -147.54 -146.06 -134.80 -137.15 -140.14 -145.22 -156.92 -161.95 -166.84 -175.26 -173.31 -166.18 -166.18 -168.16 -164.69 -169.36
2360.85 2355.57 2354.85 2271.04 2276.93 2292.49 2313.18 2323.70 2338.11 2313.73 2283.85 2289.48 2270.14 2529.37 2489.74 2464.38 2452.24 2504.53 2542.13 2542.53 2511.86 2468.78 2408.39 2411.41 2388.90 2377.80 915.48 910.17 889.78 863.29 865.76 857.09 869.61 882.71 909.59 929.40 954.98 963.32 972.36 964.22 969.58 977.55 958.08 970.88 962.45 974.14 984.03 964.16 938.77 935.92 940.96 938.64 205.13 180.58 174.44 155.75 143.56 134.46 125.79 120.67 110.43 122.19 118.49 100.18 100.20 -52.08 -44.84 -33.96 -30.36 -21.24 -24.67 -25.71 -30.30 -32.36 -37.13 -31.92 -49.50 -49.56 -176.93 -181.92 -187.14 -195.46 -195.55 -198.32 -202.73 -212.23 -204.12 -196.63 -204.23 -207.51 -203.03 -196.79 -191.01 -185.75 -179.39 -184.54 -190.22 -186.55 -190.50 -203.47 -208.50 -207.32 -215.32 -215.47 -215.50 -220.65 -230.53 -228.93 -228.38 -216.84 -221.21 -217.38 -219.10 -220.44 -224.84 -221.37 -218.18 -156.23 -156.00 -148.63 -140.95 -141.20 -132.64 -138.94 -137.34 -143.42 -149.48 -152.00 -158.30 -164.59 -168.89 -169.96 -170.10 -167.10 -178.06 -177.46
2337.87 2338.10 2314.74 2284.60 2274.72 2283.95 2295.38 2307.70 2320.64 2322.24 2301.26 2294.72 2281.01 2573.11 2575.81 2522.37 2524.36 2517.36 2584.81 2592.63 2547.67 2537.44 2470.35 2447.56 2404.77 2387.21 927.22 916.90 887.75 871.60 866.97 860.87 857.37 880.24 899.77 920.81 946.14 958.97 968.12 950.23 929.64 952.31 942.32 952.71 966.95 966.44 956.85 952.50 931.02 936.41 932.71 939.18 203.16 197.90 182.46 169.28 159.41 149.22 140.94 123.00 111.86 111.29 103.95 98.68 106.66 -54.75 -58.53 -46.01 -30.15 -24.00 -12.20 -18.27 -24.43 -25.40 -31.01 -41.80 -43.98 -48.63 -170.64 -182.20 -190.48 -190.82 -196.02 -197.44 -193.63 -195.65 -193.44 -195.55 -198.89 -204.36 -192.40 -189.35 -189.09 -187.94 -187.64 -193.28 -186.51 -191.99 -193.50 -198.23 -202.63 -206.64 -202.17 -209.02 -213.17 -220.90 -217.13 -222.30 -221.36 -225.82 -218.68 -217.24 -211.78 -216.53 -214.33 -216.49 -215.09 -154.26 -156.26 -155.26 -145.13 -144.64 -137.30 -137.05 -141.69 -137.89 -148.36 -152.54 -152.93 -154.83 -156.96 -166.91 -166.36 -168.15 -156.74 -159.04
2331.37 2329.87 2305.18 2279.70 2277.16 2287.14 2293.04 2294.16 2292.86 2295.49 2287.96 2284.00 2294.99 2591.90 2583.10 2571.63 2564.50 2590.18 2605.83 2606.66 2603.23 2555.15 2505.54 2451.15 2392.55 2390.19 925.08 902.40 889.28 878.78 872.83 867.06 854.15 870.13 877.54 913.13 928.78 948.63 934.32 921.48 918.07 926.85 922.92 943.09 935.85 937.56 946.16 940.41 918.67 926.54 926.67 930.43 206.22 197.39 186.97 180.42 164.01 154.23 153.59 144.49 132.72 102.15 102.54 109.07 101.78 -68.51 -66.81 -62.88 -41.50 -33.33 -16.29 -22.26 -17.07 -23.73 -33.51 -39.88 -48.78 -52.60 -177.86 -183.67 -187.63 -187.31 -190.17 -192.48 -193.18 -190.65 -196.71 -192.26 -188.73 -190.21 -189.18 -196.51 -183.31 -174.69 -185.14 -183.46 -189.89 -185.47 -197.25 -187.98 -193.91 -200.88 -200.70 -208.61 -213.00 -214.65 -212.48 -215.19 -220.49 -210.17 -219.79 -210.88 -212.30 -210.55 -209.59 -215.14 -217.15 -153.34 -158.19 -156.87 -140.39 -144.99 -146.47 -142.27 -149.33 -138.60 -145.03 -145.75 -154.58 -154.67 -160.77 -160.10 -166.93 -166.65 -153.85 -156.57
2310.75 2308.79 2310.35 2272.11 2271.64 2285.37 2295.19 2290.80 2286.55 2284.83 2278.57 2283.57 2284.94 2596.66 2604.28 2597.13 2595.83 2609.25 2616.16 2598.53 2593.60 2550.91 2485.04 2454.64 2399.68 2375.85 920.19 904.36 899.41 904.68 899.76 880.28 855.18 860.61 876.15 904.35 914.61 912.78 911.27 902.20 897.59 903.50 900.05 901.06 913.89 913.70 929.36 924.16 920.80 907.69 911.51 911.29 193.20 196.08 189.08 181.69 164.98 168.80 161.12 146.29 135.66 130.23 123.41 112.48 105.61 -88.60 -67.06 -61.69 -51.27 -31.25 -19.83 -18.99 -19.07 -28.27 -37.77 -37.10 -54.21 -63.34 -176.72 -182.02 -188.07 -190.09 -192.99 -187.67 -185.93 -186.51 -187.09 -187.75 -187.08 -184.97 -180.59 -186.19 -179.25 -186.69 -184.64 -179.10 -181.15 -187.30 -192.56 -187.15 -200.10 -200.08 -196.33 -205.23 -212.08 -220.04 -213.12 -211.31 -212.84 -210.79 -215.54 -215.35 -213.68 -209.21 -212.99 -213.73 -208.56 -159.81 -158.06 -164.69 -160.12 -150.73 -150.64 -155.35 -148.91 -144.70 -142.67 -147.97 -144.51 -147.26 -147.26 -153.59 -158.33 -148.37 -143.03 -153.16
2298.59 2298.29 2285.76 2268.66 2268.02 2275.81 2286.64 2287.35 2289.24 2281.77 2276.49 2276.91 2297.94 2599.91 2599.87 2601.64 2607.71 2602.35 2609.46 2595.34 2567.51 2516.09 2487.85 2432.07 2404.39 2384.72 920.94 916.50 918.35 923.87 904.57 877.69 868.31 859.75 887.23 889.57 901.37 899.11 882.92 888.64 882.92 892.37 893.42 885.43 896.13 913.85 923.97 922.91 925.79 907.99 901.77 886.37 170.51 177.28 185.48 175.79 169.35 171.44 159.97 149.79 150.07 137.08 125.14 121.36 94.68 -90.74 -70.99 -63.62 -54.46 -31.01 -24.64 -18.24 -24.25 -28.51 -41.50 -51.62 -54.33 -62.96 -182.81 -181.64 -190.58 -198.99 -203.16 -194.75 -201.93 -189.38 -189.47 -189.19 -186.73 -176.55 -177.68 -179.06 -176.43 -177.75 -181.84 -184.08 -187.88 -188.16 -193.32 -194.55 -200.43 -205.75 -200.60 -211.67 -214.96 -216.69 -216.99 -214.79 -218.24 -221.60 -217.27 -218.84 -210.35 -213.76 -218.13 -213.49 -219.98 -162.12 -168.37 -171.88 -159.50 -152.82 -152.51 -153.97 -151.74 -149.30 -141.08 -139.34 -140.41 -144.66 -142.95 -152.08 -144.94 -146.06 -139.82 -133.84
2297.89 2298.53 2280.33 2272.60 2268.05 2271.26 2284.67 2279.22 2282.52 2273.39 2272.03 2277.49 2293.16 2601.17 2608.44 2605.31 2607.11 2609.69 2598.01 2581.38 2541.12 2518.08 2496.91 2470.70 2417.98 2381.60 938.77 934.12 927.81 930.22 893.35 886.98 863.04 857.19 862.48 869.66 872.98 872.05 858.96 875.18 871.70 877.64 882.14 874.25 885.81 913.33 920.67 927.88 923.59 913.93 899.45 899.81 163.91 168.40 182.69 176.10 163.99 152.31 155.75 154.61 150.09 131.36 112.12 102.36 89.80 -96.27 -73.47 -59.40 -49.55 -31.75 -14.84 -18.10 -35.23 -35.90 -47.99 -51.90 -64.86 -72.82 -192.86 -187.87 -200.96 -207.67 -206.90 -207.96 -202.67 -196.27 -190.57 -180.80 -184.77 -177.67 -177.38 -180.95 -184.62 -185.26 -188.65 -179.83 -188.33 -190.39 -206.79 -207.26 -200.34 -214.74 -210.93 -222.98 -219.96 -223.29 -223.50 -219.93 -221.94 -222.89 -219.79 -221.33 -217.67 -216.38 -214.11 -221.40 -224.30 -169.03 -170.69 -165.52 -159.71 -156.78 -163.94 -169.55 -158.22 -155.94 -144.56 -145.35 -138.47 -137.36 -138.70 -145.49 -150.38 -147.11 -138.34 -144.75
2306.83 2305.69 2298.29 2262.63 2266.08 2278.79 2277.51 2269.66 2268.12 2271.61 2272.39 2283.60 2297.10 2589.13 2590.66 2591.67 2589.49 2597.30 2598.65 2574.28 2549.26 2529.90 2518.18 2478.50 2451.26 2405.13 950.26 925.87 925.31 903.05 883.83 864.71 852.17 850.68 844.89 848.78 840.68 847.18 854.82 857.46 868.85 865.84 855.93 849.44 874.92 891.29 906.81 917.54 931.12 923.77 903.91 892.90 166.91 158.58 160.91 161.21 161.20 143.70 154.64 143.77 135.77 125.28 110.42 92.26 78.08 -91.68 -73.00 -62.89 -49.77 -31.33 -42.11 -49.10 -51.26 -50.24 -55.24 -64.71 -72.50 -83.82 -203.58 -206.69 -206.16 -217.98 -224.72 -217.08 -213.32 -214.16 -202.17 -195.90 -190.41 -181.61 -182.40 -182.72 -193.67 -195.76 -194.67 -187.46 -188.51 -192.84 -204.79 -198.56 -216.68 -217.94 -225.31 -224.63 -223.75 -228.22 -223.94 -229.37 -226.11 -227.43 -223.61 -227.01 -225.57 -224.51 -222.98 -225.25 -227.71 -172.69 -173.23 -171.30 -161.23 -165.51 -159.60 -171.05 -170.33 -163.22 -151.63 -145.54 -144.81 -140.19 -141.57 -149.88 -152.78 -145.44 -145.80 -150.46
2299.91 2304.38 2291.35 2274.31 2270.54 2274.26 2273.37 2280.35 2279.29 2271.34 2272.56 2284.13 2304.20 2598.26 2586.54 2580.65 2587.87 2590.46 2575.15 2554.63 2538.93 2541.53 2546.51 2489.93 2469.66 2424.28 929.83 900.17 894.07 884.95 864.79 852.27 853.19 867.10 861.25 844.97 835.81 837.63 833.86 859.90 861.92 853.51 846.11 854.37 860.48 889.85 902.00 920.25 922.99 919.28 897.55 900.05 163.41 159.03 154.01 148.24 148.92 141.00 134.32 140.60 134.00 112.06 101.81 102.10 92.54 -83.82 -72.87 -56.52 -51.53 -51.33 -64.69 -66.01 -53.73 -48.96 -63.57 -82.98 -84.90 -93.98 -211.58 -211.34 -209.75 -217.23 -225.96 -220.24 -219.29 -216.21 -209.81 -204.65 -198.49 -187.70 -186.70 -192.39 -192.01 -203.20 -196.97 -196.89 -194.80 -193.56 -204.70 -205.41 -210.66 -210.67 -218.19 -224.84 -225.60 -226.05 -226.15 -232.44 -230.78 -238.80 -231.03 -226.68 -220.53 -230.07 -226.52 -230.98 -232.11 -172.70 -174.00 -174.48 -170.25 -169.86 -173.73 -165.45 -159.98 -166.97 -160.49 -153.69 -139.42 -148.96 -143.88 -147.26 -157.36 -151.93 -154.42 -159.02
2304.86 2300.71 2290.63 2274.97 2268.80 2272.56 2272.11 2273.21 2279.98 2274.64 2269.80 2287.66 2294.65 2590.18 2576.76 2569.28 2573.95 2582.09 2567.24 2551.02 2523.70 2512.20 2511.21 2492.48 2455.21 2418.21 920.06 882.87 892.32 898.24 887.19 883.33 877.23 881.91 866.49 858.04 843.36 845.63 834.31 851.01 870.51 860.46 844.91 828.74 832.71 852.92 906.67 906.95 922.09 906.85 898.06 893.77 172.60 165.78 150.27 141.08 141.30 136.00 126.19 139.71 130.26 114.81 112.73 107.49 103.86 -72.89 -79.45 -76.89 -68.95 -63.12 -80.92 -62.20 -55.45 -66.00 -67.43 -83.85 -86.16 -102.68 -220.26 -220.67 -218.67 -223.76 -230.36 -221.09 -220.55 -218.81 -213.72 -206.21 -203.18 -197.57 -199.35 -200.55 -201.28 -206.89 -200.52 -197.42 -191.40 -199.20 -194.82 -198.91 -206.31 -207.97 -208.26 -216.93 -220.61 -219.74 -229.08 -229.37 -233.34 -235.10 -229.65 -229.93 -229.75 -234.56 -226.10 -229.51 -230.48 -160.93 -168.97 -172.83 -173.26 -172.42 -174.61 -172.75 -167.20 -155.52 -160.28 -147.38 -150.58 -152.44 -148.67 -155.96 -154.11 -158.67 -164.39 -167.40
2311.15 2314.20 2308.81 2265.40 2267.88 2267.81 2275.97 2277.08 2269.29 2270.41 2276.38 2281.70 2295.80 2588.23 2571.07 2566.68 2567.74 2554.79 2541.58 2529.48 2504.56 2482.08 2496.00 2490.80 2440.81 2369.06 915.82 907.00 923.60 910.88 907.38 893.74 893.93 881.73 874.79 862.42 872.51 861.65 837.13 846.64 864.78 872.61 839.84 832.99 821.49 842.92 890.02 898.74 899.76 892.41 877.53 888.51 167.28 165.98 150.17 149.95 138.97 130.19 130.25 124.34 125.28 119.28 112.51 108.35 108.96 -73.51 -96.61 -89.75 -77.01 -71.21 -82.73 -74.78 -66.14 -65.88 -79.55 -80.44 -98.69 -103.49 -229.31 -229.79 -229.13 -222.88 -222.77 -224.18 -229.45 -224.84 -211.55 -208.43 -202.30 -200.09 -205.85 -210.57 -204.50 -213.80 -201.40 -199.49 -190.70 -196.70 -201.32 -209.43 -206.31 -209.44 -207.35 -216.33 -225.38 -225.35 -227.83 -229.10 -235.09 -228.53 -232.57 -234.30 -235.69 -232.98 -236.07 -231.95 -232.10 -178.47 -170.81 -174.55 -171.84 -177.07 -175.02 -173.51 -170.06 -166.07 -155.67 -152.02 -158.16 -152.71 -167.12 -156.55 -167.11 -166.85 -167.98 -169.37
2314.54 2320.93 2294.23 2274.96 2267.28 2264.76 2268.54 2265.00 2267.50 2269.09 2274.48 2280.41 2288.29 2586.08 2574.66 2564.42 2565.49 2539.42 2535.58 2507.24 2484.73 2463.09 2435.51 2452.28 2397.28 2377.59 925.01 935.95 939.32 926.73 915.87 908.65 896.40 881.83 861.07 870.55 880.31 870.24 841.22 829.09 841.23 848.97 848.61 830.82 805.18 838.28 852.06 891.67 878.97 865.58 858.95 882.10 165.50 167.89 143.00 143.59 125.46 135.66 132.21 120.09 120.11 120.39 119.94 121.10 121.13 -73.08 -86.52 -95.16 -94.13 -91.50 -95.11 -94.96 -78.77 -75.82 -88.52 -88.83 -102.31 -106.58 -225.88 -228.56 -231.63 -219.25 -207.99 -213.60 -217.16 -227.35 -224.59 -215.12 -214.47 -214.24 -211.18 -218.39 -216.02 -212.95 -208.33 -195.45 -190.87 -202.73 -205.90 -217.33 -217.13 -212.36 -218.05 -214.13 -225.44 -222.45 -224.34 -227.57 -233.96 -237.15 -232.41 -233.73 -231.74 -235.15 -230.13 -234.20 -232.56 -172.62 -174.61 -169.53 -179.48 -176.40 -175.53 -165.75 -173.14 -164.88 -153.52 -158.04 -157.19 -162.70 -164.63 -166.05 -168.08 -168.45 -165.60 -169.45
208.04 197.37 187.92 163.11 171.59 157.20 160.73 153.56 160.03 159.34 173.24 177.77 183.25 182.99 169.33 165.44 151.85 134.70 125.31 109.78 77.19 28.01 17.64 9.41 -6.72 1.86 6.40 18.03 -9.77 -26.88 -52.56 -63.70 -75.79 -70.03 -80.26 -63.63 -60.11 -78.52 -117.38 -123.13 -120.88 -113.34 -106.47 -140.53 -142.72 -129.32 -115.41 -108.07 -95.53 -104.50 -103.74 -85.78 -76.62 -88.45 -99.30 -108.57 -96.27 -95.11 -101.19 -107.50 -116.39 -104.14 -98.72 -98.53 -92.89 -118.88 -140.38 -158.20 -153.39 -157.74 -160.73 -160.09 -152.16 -145.49 -146.66 -151.36 -161.48 -164.58 -167.32 -164.34 -160.45 -145.45 -146.23 -154.79 -161.58 -168.33 -173.91 -167.52 -168.18 -163.24 -167.14 -165.48 -162.57 -165.82 -159.00 -146.49 -144.69 -152.69 -160.10 -161.85 -161.17 -166.28 -161.94 -165.74 -171.80 -169.00 -170.49 -177.17 -173.88 -173.78 -175.87 -166.87 -176.73 -171.58 -176.64 -175.98 -174.95 -171.62 -174.60 -170.36 -172.17 -174.33 -165.68 -171.66 -168.88 -167.52 -164.46 -154.78 -163.29 -175.56 -169.45 -172.25 -167.49 -170.56 -176.71 -176.92
218.31 209.40 193.09 172.38 173.53 167.64 152.25 158.98 162.13 164.54 164.32 171.45 180.78 179.86 169.38 153.48 144.93 135.58 121.89 117.18 78.12 42.96 20.94 8.55 17.00 44.00 47.96 27.43 -9.57 -24.64 -53.86 -63.50 -75.45 -64.08 -43.61 -41.44 -45.57 -71.46 -97.57 -112.73 -115.11 -110.88 -116.76 -131.39 -159.37 -139.71 -144.79 -146.35 -149.03 -131.18 -125.65 -100.49 -83.54 -102.89 -115.44 -134.10 -111.34 -100.86 -82.92 -89.55 -92.21 -101.03 -91.23 -102.39 -102.52 -115.53 -138.05 -148.46 -160.79 -163.94 -166.12 -165.18 -157.88 -160.20 -164.25 -165.09 -170.60 -170.66 -167.55 -156.01 -133.99 -138.67 -138.37 -148.23 -157.11 -164.87 -171.61 -169.78 -170.39 -172.31 -165.83 -165.81 -171.47 -173.44 -157.83 -154.02 -148.34 -163.52 -166.23 -168.35 -170.60 -176.51 -174.72 -170.77 -175.13 -172.57 -171.57 -170.34 -174.84 -170.10 -170.94 -170.81 -174.56 -167.82 -169.79 -170.84 -171.36 -175.38 -170.34 -169.08 -172.05 -163.50 -170.34 -173.13 -164.54 -164.31 -164.88 -162.76 -167.03 -162.52 -169.59 -170.41 -171.34 -173.97 -165.38 -164.90
192.99 196.61 190.66 174.69 169.93 159.03 161.60 159.44 154.00 159.98 161.39 168.28 181.72 175.08 163.59 167.84 150.25 127.42 120.89 111.59 86.19 96.43 82.23 62.45 38.57 42.75 46.42 12.90 -2.03 -29.61 -57.63 -72.91 -74.61 -65.47 -34.37 -27.63 -43.73 -49.52 -80.21 -91.30 -89.02 -100.58 -101.84 -119.08 -149.61 -143.29 -154.80 -153.52 -155.88 -154.35 -147.60 -99.63 -111.49 -110.77 -138.10 -139.35 -113.62 -93.87 -87.67 -76.27 -82.66 -82.01 -91.55 -104.60 -105.62 -126.14 -133.68 -147.54 -152.37 -165.72 -163.23 -154.34 -153.36 -149.88 -147.96 -159.73 -165.15 -159.67 -164.78 -131.38 -130.95 -127.08 -133.41 -139.09 -156.25 -163.44 -167.27 -167.46 -172.25 -174.92 -166.91 -171.55 -175.52 -168.54 -161.38 -156.81 -157.23 -169.22 -166.45 -170.88 -173.30 -177.21 -175.51 -172.27 -176.13 -177.00 -175.26 -172.81 -183.65 -174.77 -170.50 -163.35 -166.16 -166.97 -173.40 -175.10 -169.52 -174.23 -178.69 -173.99 -165.31 -164.52 -168.22 -166.28 -165.92 -166.55 -162.82 -167.43 -163.33 -171.98 -173.60 -172.16 -173.30 -171.75 -169.43 -172.31
185.04 183.51 178.29 168.33 165.69 169.82 158.14 155.35 157.85 155.68 161.59 164.69 171.63 171.01 174.25 165.34 164.36 147.40 109.31 105.07 121.24 125.97 131.29 101.18 98.36 65.44 47.83 16.31 -11.46 -43.74 -50.88 -67.75 -48.11 -31.70 -11.12 -7.96 -20.95 -41.14 -66.69 -83.73 -83.25 -94.08 -98.57 -125.57 -139.01 -138.34 -137.41 -144.57 -148.14 -153.26 -158.96 -147.00 -129.67 -139.35 -152.10 -146.35 -130.90 -100.95 -88.26 -78.37 -83.79 -78.38 -86.62 -104.89 -109.07 -128.03 -139.23 -135.73 -141.80 -144.04 -147.19 -146.52 -138.05 -130.92 -144.35 -134.76 -144.13 -141.30 -131.49 -128.21 -122.40 -137.49 -137.21 -141.54 -140.03 -155.24 -160.55 -155.71 -163.16 -164.38 -165.25 -168.29 -174.77 -176.99 -169.80 -170.31 -164.97 -169.63 -173.02 -176.74 -167.69 -170.51 -173.73 -170.45 -170.40 -175.62 -176.57 -172.19 -168.65 -168.50 -172.20 -160.39 -161.85 -166.79 -171.16 -168.35 -170.17 -174.29 -178.73 -169.49 -172.06 -166.96 -165.90 -170.48 -171.56 -164.56 -161.15 -167.00 -168.74 -171.74 -166.38 -176.38 -177.53 -175.24 -172.55 -175.84
182.98 181.01 174.85 166.55 167.74 162.22 161.43 156.45 154.26 158.24 164.49 163.37 166.16 166.01 170.90 164.35 159.14 152.78 133.45 118.79 129.74 136.19 137.41 117.32 100.44 52.05 37.29 -0.47 -7.32 -35.31 -60.60 -56.25 -47.24 -34.49 -3.30 -3.60 -10.30 -37.45 -61.53 -61.52 -61.38 -90.54 -93.65 -124.53 -132.12 -123.49 -107.22 -111.48 -127.98 -150.94 -154.51 -154.16 -143.47 -135.39 -141.84 -155.36 -146.80 -130.84 -104.06 -90.22 -84.64 -76.34 -85.51 -98.25 -107.84 -119.28 -125.53 -126.52 -128.27 -122.99 -127.69 -121.92 -129.01 -126.94 -132.48 -128.98 -134.87 -124.96 -119.09 -119.11 -123.15 -131.77 -135.17 -140.41 -145.71 -147.17 -143.03 -142.69 -153.73 -161.26 -160.85 -172.54 -169.64 -174.28 -169.09 -173.66 -170.73 -170.19 -172.36 -172.40 -176.73 -171.36 -166.78 -169.01 -170.43 -176.30 -171.14 -167.37 -165.00 -161.65 -159.55 -159.14 -161.53 -162.62 -169.32 -175.59 -173.23 -173.27 -175.87 -167.89 -174.27 -173.52 -167.73 -169.26 -170.51 -168.82 -165.53 -170.69 -167.50 -170.97 -175.98 -173.93 -176.56 -184.19 -180.48 -177.42
178.62 190.25 177.94 154.20 158.34 160.47 154.91 159.07 157.88 154.63 158.56 160.40 162.79 167.82 169.38 164.97 154.26 152.92 141.92 135.44 141.22 151.62 157.85 121.58 107.25 69.65 28.44 1.37 -32.35 -40.60 -48.34 -36.03 -35.55 -23.12 -11.65 12.90 9.13 -20.30 -37.21 -50.13 -68.09 -80.32 -98.43 -113.62 -119.98 -97.24 -86.14 -103.23 -108.17 -128.27 -149.82 -127.19 -122.78 -126.51 -137.41 -159.24 -154.61 -139.25 -137.43 -97.48 -96.10 -74.14 -85.47 -95.11 -103.67 -106.81 -120.68 -112.17 -112.59 -116.83 -118.81 -116.49 -108.97 -108.78 -118.31 -118.47 -116.72 -122.52 -117.73 -128.00 -129.26 -133.09 -133.63 -139.82 -135.18 -132.80 -131.02 -133.87 -144.31 -163.47 -164.92 -167.25 -177.85 -176.80 -169.56 -168.51 -174.25 -170.86 -165.56 -167.88 -171.57 -162.69 -163.41 -165.82 -169.72 -173.07 -161.55 -161.55 -157.37 -159.84 -155.27 -163.62 -157.35 -159.93 -166.21 -172.39 -162.89 -172.50 -168.67 -175.93 -183.73 -173.80 -166.00 -167.22 -164.91 -172.81 -169.53 -168.63 -177.46 -167.46 -173.89 -174.60 -176.45 -177.22 -180.22 -174.66
182.61 181.76 168.30 166.63 158.03 156.65 155.18 151.91 156.50 159.72 160.91 164.95 162.16 169.16 167.87 166.16 158.74 155.79 145.83 147.30 144.06 152.02 142.87 122.08 109.10 82.88 41.47 3.71 -0.41 -33.70 -34.66 -27.66 5.57 -3.04 10.95 25.52 15.92 -2.54 -24.13 -34.36 -60.91 -83.88 -106.54 -113.80 -104.18 -88.86 -74.23 -97.54 -123.99 -125.53 -120.50 -105.62 -101.86 -99.43 -110.22 -141.59 -160.41 -155.14 -145.44 -129.28 -98.71 -86.73 -93.11 -95.43 -101.29 -103.46 -106.28 -111.28 -126.35 -115.66 -117.30 -111.94 -110.33 -124.92 -125.54 -128.03 -118.22 -122.77 -130.15 -137.32 -143.81 -142.58 -136.83 -143.56 -142.87 -135.01 -145.54 -147.54 -151.94 -153.60 -161.47 -168.12 -176.52 -171.38 -173.25 -167.64 -168.97 -170.46 -165.73 -165.35 -163.73 -159.56 -159.00 -161.35 -167.19 -160.48 -161.75 -158.37 -156.08 -160.12 -156.79 -161.67 -165.45 -161.99 -167.25 -165.18 -172.06 -172.20 -171.77 -169.72 -172.75 -175.29 -173.41 -169.91 -171.89 -167.66 -176.92 -166.65 -175.24 -172.65 -165.51 -176.10 -173.36 -175.76 -188.97 -187.76
181.51 181.38 169.67 167.79 166.82 157.49 157.31 158.97 155.18 150.80 153.23 162.99 161.05 155.60 158.55 155.33 161.24 153.04 149.11 156.15 158.64 153.66 148.30 130.51 107.84 96.59 59.13 15.71 -15.13 -16.44 8.42 3.92 19.90 51.06 49.83 38.57 36.09 20.60 1.76 -31.91 -57.86 -81.70 -101.32 -105.34 -88.17 -70.03 -81.92 -96.61 -100.57 -116.30 -110.45 -93.65 -89.47 -103.00 -116.41 -136.97 -156.91 -167.24 -162.36 -132.07 -107.83 -109.44 -109.58 -110.67 -112.93 -107.16 -121.45 -132.46 -130.88 -130.91 -129.28 -119.77 -111.70 -126.56 -140.50 -141.52 -138.21 -136.37 -132.02 -142.71 -138.33 -153.82 -152.78 -151.47 -145.04 -147.51 -143.23 -156.23 -156.37 -157.48 -157.60 -166.83 -173.84 -170.39 -165.91 -164.33 -160.90 -162.67 -161.75 -160.15 -158.82 -159.14 -157.86 -158.31 -153.75 -154.98 -157.68 -154.92 -155.18 -156.50 -155.45 -155.71 -168.24 -156.92 -166.32 -172.76 -166.38 -172.61 -177.17 -176.87 -177.61 -175.77 -168.80 -174.37 -172.73 -176.32 -175.57 -171.58 -174.40 -170.28 -172.24 -181.86 -182.54 -185.48 -190.68 -186.45
199.88 204.12 193.98 170.56 161.68 163.48 158.75 155.71 158.65 157.87 156.50 159.53 157.31 156.98 156.08 161.36 158.13 151.38 164.73 152.02 154.33 158.57 145.40 119.42 104.74 96.51 75.28 37.97 18.95 0.56 14.50 38.18 56.77 81.09 71.52 54.81 31.80 13.17 -1.96 -35.94 -59.92 -74.63 -73.95 -82.08 -67.51 -55.58 -72.02 -87.64 -98.48 -95.63 -72.44 -75.17 -87.95 -94.35 -122.88 -137.18 -150.79 -162.67 -160.57 -154.55 -134.02 -136.98 -123.05 -133.28 -133.48 -137.23 -132.19 -140.29 -148.37 -143.93 -144.64 -131.38 -128.71 -132.13 -157.25 -155.04 -152.14 -153.20 -153.99 -154.65 -158.82 -157.94 -162.37 -150.29 -149.00 -149.96 -155.53 -161.56 -167.09 -164.04 -164.63 -168.84 -166.22 -161.31 -159.72 -153.75 -152.96 -150.55 -155.63 -155.55 -150.48 -147.54 -149.95 -149.03 -151.85 -159.84 -152.92 -154.05 -155.27 -153.53 -155.84 -160.51 -160.92 -159.98 -166.98 -173.57 -175.13 -172.24 -173.04 -173.64 -173.10 -173.06 -172.09 -173.76 -175.54 -173.30 -176.86 -192.51 -194.46 -200.67 -202.59 -202.62 -189.85 -218.39 -221.33 -217.74
220.55 219.23 196.63 169.69 164.74 161.76 157.93 158.71 154.47 154.54 151.47 156.79 157.88 157.25 156.12 157.38 157.36 163.67 160.03 157.02 156.15 155.64 153.62 145.12 130.78 93.31 74.90 78.56 88.12 64.19 81.19 65.12 94.75 82.52 65.16 34.63 11.99 7.90 -21.50 -47.91 -63.58 -55.17 -52.76 -57.19 -46.96 -55.21 -68.47 -65.98 -60.10 -53.62 -56.48 -65.95 -91.92 -109.09 -118.62 -129.99 -127.47 -138.00 -165.26 -161.65 -147.44 -139.88 -148.31 -152.87 -156.43 -148.77 -156.99 -147.34 -160.56 -160.27 -152.50 -145.54 -147.13 -144.88 -154.71 -161.09 -164.57 -155.04 -162.84 -158.66 -168.18 -173.35 -166.77 -166.58 -158.93 -151.74 -161.44 -163.06 -173.68 -172.80 -167.81 -174.34 -169.68 -161.47 -154.82 -153.25 -141.36 -142.51 -148.41 -151.78 -145.09 -143.62 -147.92 -142.62 -152.45 -156.95 -151.05 -154.26 -155.71 -166.99 -164.69 -165.74 -166.42 -161.70 -168.78 -173.13 -172.50 -173.78 -174.65 -179.34 -171.54 -173.35 -170.26 -171.47 -175.76 -180.35 -193.55 -201.26 -233.00 -253.16 -243.82 -240.16 -215.56 -237.51 -249.53 -248.30
208.82 209.95 185.67 164.75 160.02 167.75 154.59 162.72 158.36 160.50 151.50 157.62 158.50 157.97 161.15 159.54 161.10 157.46 161.47 157.63 162.19 157.87 157.14 144.77 155.65 107.39 86.62 84.17 101.23 120.90 96.93 113.92 95.65 79.87 70.61 35.38 9.81 -4.38 -23.82 -46.67 -51.23 -52.42 -41.69 -20.44 -38.85 -31.63 -35.04 -50.15 -50.00 -52.28 -39.65 -72.88 -88.63 -98.42 -111.29 -103.24 -104.43 -138.13 -151.44 -162.92 -160.85 -162.12 -147.70 -161.39 -157.73 -163.76 -160.22 -164.61 -169.74 -161.64 -161.63 -163.48 -159.66 -154.74 -154.23 -157.58 -159.28 -155.12 -168.02 -161.95 -157.71 -166.53 -169.22 -175.37 -169.79 -157.88 -163.68 -170.06 -164.91 -166.54 -166.98 -167.07 -165.71 -166.07 -152.86 -150.40 -145.65 -137.80 -139.17 -140.84 -145.59 -144.57 -140.07 -150.14 -146.05 -149.75 -159.73 -152.34 -154.77 -155.23 -169.22 -172.35 -165.35 -164.91 -169.94 -167.42 -170.88 -173.10 -179.41 -172.09 -177.24 -168.64 -176.79 -171.04 -174.05 -183.86 -190.16 -226.79 -264.04 -265.24 -280.72 -263.97 -258.78 -302.17 -298.72 -296.31
205.58 208.27 187.22 186.07 197.83 177.92 174.60 172.26 172.68 160.45 159.31 156.86 156.29 158.72 147.52 158.14 156.50 152.18 155.69 157.23 157.30 157.80 157.68 158.27 162.30 165.29 124.87 144.44 176.50 176.32 202.80 168.15 169.08 140.50 127.47 82.41 70.89 17.00 -15.57 -3.98 -11.89 -10.05 19.27 20.62 65.05 19.49 15.59 -0.08 -4.31 -13.19 -13.61 -20.93 -64.97 -67.31 -30.72 -60.50 -74.65 -98.68 -109.47 -140.88 -134.37 -127.24 -120.86 -107.99 -141.31 -138.53 -140.02 -149.50 -122.07 -144.62 -143.02 -147.91 -157.87 -145.92 -159.76 -134.96 -127.89 -131.19 -118.73 -138.82 -149.14 -131.04 -155.26 -150.38 -153.33 -155.50 -155.20 -156.36 -137.70 -139.98 -153.39 -148.55 -152.72 -153.14 -140.93 -136.84 -121.68 -128.86 -126.66 -136.45 -131.17 -142.54 -141.54 -143.22 -143.00 -150.40 -152.53 -151.32 -158.11 -161.13 -164.96 -160.60 -167.84 -166.20 -173.04 -170.15 -175.45 -171.93 -168.59 -171.71 -172.75 -173.68 -175.49 -174.22 -194.49 -197.18 -249.81 -281.67 -284.34 -298.29 -304.52 -329.19 -319.11 -320.22 -331.11 -325.51
223.38 227.64 191.11 203.63 212.64 185.03 189.44 178.54 177.65 162.72 157.95 153.22 154.62 160.66 158.36 154.65 159.91 155.96 153.48 150.55 155.50 152.30 161.86 158.94 167.28 157.78 165.28 170.29 212.72 214.76 197.03 207.55 191.55 181.94 148.51 118.98 91.42 71.86 32.65 -45.88 23.34 28.83 68.10 71.39 57.20 61.07 51.81 34.26 40.78 14.34 7.57 -29.34 -33.02 -33.67 -22.22 -38.47 -61.30 -69.27 -91.06 -112.83 -104.33 -102.04 -104.90 -105.80 -115.26 -112.89 -123.62 -120.46 -111.14 -125.81 -117.82 -126.98 -143.61 -175.49 -140.79 -125.75 -110.77 -114.40 -124.67 -127.47 -131.78 -139.46 -146.40 -140.77 -146.19 -137.50 -147.60 -146.32 -136.41 -139.50 -136.22 -140.38 -134.13 -131.56 -125.53 -120.84 -126.14 -126.76 -130.10 -133.96 -135.00 -139.17 -141.16 -149.98 -143.19 -148.62 -149.40 -151.20 -165.10 -156.12 -157.85 -162.96 -164.80 -172.05 -175.96 -175.48 -171.69 -173.67 -165.03 -171.16 -170.43 -177.63 -179.63 -179.25 -202.92 -214.95 -238.07 -293.70 -317.75 -318.43 -330.02 -330.49 -337.93 -342.00 -352.56 -344.89
229.47 229.50 192.57 204.42 202.54 189.66 191.39 188.76 173.60 171.15 163.34 163.73 159.79 158.83 155.47 157.24 154.52 150.34 152.20 155.86 154.93 155.32 156.80 161.97 171.46 160.65 163.07 178.34 212.25 212.28 195.14 206.30 193.46 179.03 150.19 121.02 89.99 78.62 35.51 -56.00 28.60 26.92 70.26 69.02 67.35 64.33 50.75 28.56 37.29 16.76 11.65 -28.32 -41.26 -34.23 -21.99 -43.18 -61.75 -77.08 -87.26 -106.89 -113.27 -100.34 -105.23 -107.91 -116.30 -111.31 -116.72 -113.52 -108.57 -122.55 -124.50 -124.28 -145.23 -170.47 -143.74 -128.59 -111.50 -113.56 -123.56 -128.49 -122.58 -137.06 -138.83 -140.44 -147.34 -135.64 -148.42 -152.22 -132.69 -138.49 -146.51 -142.64 -131.60 -138.17 -126.68 -123.09 -125.23 -125.94 -131.18 -132.44 -134.08 -139.37 -143.27 -151.47 -145.41 -150.97 -148.69 -152.59 -162.62 -153.44 -158.93 -162.46 -162.62 -172.20 -176.34 -176.00 -170.62 -162.09 -163.97 -172.01 -175.17 -176.66 -176.49 -181.96 -202.44 -211.90 -233.90 -300.96 -317.74 -320.05 -324.42 -334.95 -337.90 -339.49 -350.11 -346.20
