3591.36 3566.58 3505.01 3427.50 3371.72 3345.41 3337.69 3335.97 3327.32 3301.96 3255.37 3204.10 3207.24 3273.53 3312.89 3302.37 3275.57 3252.14 3247.70 3263.89 3285.85 3301.78 3307.81 3290.39 3101.90 2285.83 948.38 132.76 -59.61 -87.13 -99.19 -113.09 -131.10 -147.13 -156.46 -161.59 -167.34 -186.72 -259.11 -377.45 -451.18 -467.84 -466.10 -460.21 -451.57 -440.55 -431.18 -427.57 -428.98 -434.97 -453.74 -514.08 -609.33 -667.95 -680.57 -678.32 -675.12 -674.29 -675.33 -677.82 -681.54 -685.60 -690.67 -714.92 -814.10 -974.68 -1071.76 -1094.34 -1098.13 -1100.60 -1101.41 -1101.68 -1103.12 -1104.43 -1105.07 -1105.25 -1106.18 -1112.19 -1123.55 -1132.52 -1135.07 -1132.88 -1130.14 -1129.82 -1130.38 -1129.77 -1128.60 -1127.44 -1127.87 -1134.86 -1160.22 -1200.43 -1227.45 -1240.30 -1252.55 -1270.21 -1300.52 -1360.49 -1464.94 -1615.66 -1828.98 -2129.83 -2486.58 -2890.35 -3315.76 -3574.59 -3667.44 -3711.81 -3746.02 -3770.55 -3784.50 -3791.75 -3795.78 -3798.59 -3794.86 -3702.99 -3272.47 -2567.51 -2227.79 -2528.45 -3168.31 -3560.41 -3647.20 -3651.61 -3648.28 -3645.07 -3643.22 -3643.88 -3646.66 -3651.77 -3658.68 -3666.98 -3677.60 -3688.49 -3695.28 -3697.54
3559.72 3540.96 3489.05 3420.18 3376.30 3363.19 3361.28 3359.37 3351.00 3327.62 3285.36 3238.26 3238.58 3295.11 3322.46 3303.71 3276.56 3259.61 3263.34 3283.18 3302.18 3312.24 3313.15 3291.25 3099.54 2283.44 948.79 135.78 -55.23 -83.15 -97.06 -112.63 -131.82 -148.39 -159.40 -167.64 -174.31 -192.00 -262.45 -378.72 -450.61 -466.94 -465.44 -459.34 -449.81 -437.67 -427.09 -422.12 -423.15 -430.28 -450.15 -510.72 -605.44 -663.05 -675.22 -673.76 -671.31 -670.45 -671.10 -673.32 -676.79 -680.94 -686.30 -710.67 -809.42 -970.46 -1068.84 -1092.40 -1096.73 -1099.35 -1100.37 -1100.72 -1102.16 -1103.62 -1103.95 -1104.07 -1105.57 -1111.77 -1122.11 -1129.17 -1130.44 -1128.69 -1127.08 -1127.07 -1127.59 -1127.44 -1126.55 -1125.32 -1125.50 -1131.82 -1156.36 -1195.73 -1221.89 -1232.77 -1241.19 -1253.09 -1273.87 -1316.84 -1401.28 -1536.51 -1732.92 -2006.66 -2353.85 -2797.66 -3271.42 -3552.72 -3652.03 -3699.42 -3736.79 -3764.88 -3782.53 -3792.74 -3798.61 -3802.26 -3799.23 -3708.88 -3279.99 -2575.80 -2234.95 -2533.71 -3172.69 -3564.13 -3649.79 -3653.46 -3650.45 -3648.47 -3646.92 -3645.97 -3647.33 -3651.75 -3658.22 -3666.60 -3677.27 -3687.65 -3694.02 -3696.05
3528.44 3511.80 3462.62 3395.46 3355.85 3349.63 3353.86 3356.76 3353.79 3339.13 3307.59 3266.39 3261.76 3305.54 3320.92 3296.75 3273.22 3266.83 3278.27 3296.35 3307.53 3308.57 3302.14 3275.55 3082.80 2270.31 942.10 134.64 -53.04 -80.84 -96.39 -111.46 -127.76 -142.12 -154.30 -165.77 -174.21 -190.74 -259.14 -373.58 -444.00 -460.83 -461.59 -457.25 -448.17 -436.18 -426.04 -421.47 -422.37 -428.66 -447.50 -508.03 -603.22 -661.48 -674.93 -675.03 -672.64 -670.23 -669.70 -671.88 -675.39 -679.12 -683.80 -707.22 -805.12 -966.07 -1065.23 -1089.47 -1094.21 -1096.91 -1098.27 -1099.24 -1101.09 -1102.88 -1102.90 -1102.77 -1104.89 -1111.13 -1120.02 -1125.55 -1126.62 -1125.98 -1125.27 -1125.07 -1125.34 -1125.76 -1125.48 -1124.69 -1125.02 -1131.12 -1155.08 -1193.61 -1218.38 -1226.94 -1232.27 -1240.79 -1256.73 -1287.87 -1352.22 -1467.66 -1643.21 -1880.82 -2197.42 -2662.94 -3194.24 -3516.37 -3630.17 -3682.11 -3722.28 -3754.00 -3776.23 -3789.91 -3797.90 -3802.93 -3800.62 -3711.21 -3283.06 -2578.18 -2235.99 -2534.56 -3174.42 -3566.34 -3652.04 -3656.11 -3653.61 -3651.86 -3650.01 -3648.04 -3648.35 -3652.15 -3658.38 -3667.02 -3677.66 -3687.86 -3694.17 -3696.07
3402.45 3383.78 3333.89 3268.89 3227.91 3220.99 3230.77 3242.13 3249.47 3248.13 3228.78 3193.61 3192.92 3242.40 3261.42 3239.88 3221.63 3221.91 3233.59 3242.71 3243.24 3235.83 3222.16 3191.09 3001.42 2208.05 910.86 124.06 -56.89 -84.00 -99.55 -111.54 -122.98 -134.86 -147.58 -160.90 -170.92 -186.61 -252.28 -364.02 -432.62 -450.19 -454.14 -452.88 -446.43 -437.26 -430.02 -427.53 -428.56 -432.71 -448.58 -507.58 -602.72 -662.23 -677.99 -679.71 -676.79 -672.20 -669.95 -671.45 -674.76 -678.11 -682.00 -704.03 -800.25 -959.59 -1058.07 -1082.14 -1086.72 -1089.46 -1091.14 -1092.80 -1095.11 -1096.77 -1096.60 -1096.56 -1099.28 -1106.30 -1115.54 -1120.97 -1122.26 -1122.31 -1122.00 -1122.06 -1122.84 -1123.83 -1123.86 -1123.31 -1123.56 -1128.93 -1152.13 -1190.15 -1213.84 -1220.78 -1224.12 -1229.71 -1241.11 -1263.04 -1310.04 -1402.50 -1548.12 -1749.80 -2044.59 -2519.30 -3095.19 -3464.23 -3602.42 -3663.78 -3709.53 -3746.05 -3773.45 -3791.80 -3802.72 -3809.61 -3807.94 -3717.66 -3287.07 -2577.99 -2233.05 -2532.10 -3173.23 -3565.76 -3652.21 -3657.58 -3655.66 -3653.65 -3651.65 -3649.78 -3649.84 -3653.25 -3659.56 -3668.38 -3678.27 -3687.92 -3694.45 -3696.42
2905.38 2886.93 2836.93 2769.15 2721.47 2712.15 2729.84 2753.33 2771.94 2781.03 2771.59 2752.37 2796.90 2913.99 2974.37 2966.67 2951.91 2947.71 2946.95 2941.15 2931.73 2918.99 2901.17 2868.63 2695.73 1978.28 805.35 95.35 -67.42 -92.61 -106.34 -114.91 -122.96 -133.50 -145.57 -157.97 -167.81 -182.50 -245.20 -353.89 -420.72 -438.33 -444.02 -445.53 -443.21 -439.85 -437.78 -437.70 -438.96 -441.13 -453.63 -508.86 -600.83 -660.03 -677.44 -679.83 -676.35 -670.90 -667.52 -667.79 -670.28 -673.32 -677.01 -697.59 -789.01 -941.52 -1035.75 -1058.32 -1062.28 -1065.13 -1067.02 -1068.46 -1070.20 -1071.34 -1071.45 -1072.08 -1075.77 -1086.49 -1101.97 -1111.02 -1113.15 -1113.15 -1112.73 -1113.32 -1114.75 -1115.62 -1115.38 -1115.03 -1115.37 -1119.94 -1142.39 -1180.01 -1202.98 -1209.07 -1211.38 -1214.86 -1222.53 -1238.11 -1270.31 -1335.26 -1445.81 -1618.02 -1903.19 -2397.25 -3020.08 -3430.97 -3591.98 -3665.74 -3719.37 -3761.31 -3794.18 -3818.84 -3834.51 -3843.67 -3842.29 -3748.83 -3308.15 -2583.68 -2229.22 -2526.46 -3167.95 -3561.13 -3649.06 -3656.36 -3655.61 -3654.03 -3652.61 -3651.61 -3652.12 -3655.44 -3661.60 -3670.19 -3680.08 -3690.06 -3696.67 -3698.36
2090.81 2073.71 2023.38 1951.81 1904.26 1901.77 1929.90 1963.24 1987.97 2001.53 2000.98 2010.64 2138.59 2375.89 2505.05 2512.82 2494.14 2474.36 2452.74 2431.81 2415.79 2400.05 2380.85 2351.17 2207.19 1612.35 640.77 53.89 -80.95 -103.42 -116.09 -123.80 -131.30 -141.03 -150.62 -158.83 -164.90 -177.65 -239.11 -346.26 -411.74 -428.41 -434.01 -437.11 -438.71 -441.31 -444.66 -447.42 -449.48 -450.61 -460.74 -511.44 -597.78 -654.62 -672.18 -674.41 -671.04 -666.18 -662.57 -661.77 -663.16 -665.99 -670.00 -689.13 -773.32 -914.30 -1001.11 -1021.28 -1024.52 -1027.39 -1029.35 -1029.71 -1030.17 -1031.17 -1031.80 -1032.76 -1037.48 -1053.88 -1079.45 -1094.99 -1098.92 -1099.31 -1099.31 -1100.12 -1101.13 -1101.30 -1100.80 -1100.65 -1101.22 -1105.78 -1127.91 -1164.67 -1186.86 -1192.57 -1194.50 -1196.88 -1202.12 -1213.40 -1235.97 -1281.19 -1363.98 -1511.09 -1786.98 -2306.53 -2978.56 -3420.27 -3594.35 -3681.80 -3747.54 -3795.65 -3832.18 -3862.22 -3883.93 -3896.72 -3896.37 -3799.20 -3342.96 -2593.73 -2224.21 -2518.16 -3159.83 -3554.08 -3644.02 -3653.35 -3654.22 -3653.83 -3653.31 -3653.45 -3654.63 -3657.69 -3663.51 -3672.29 -3683.63 -3694.89 -3700.95 -3701.87
1581.80 1561.59 1507.91 1438.27 1399.47 1408.52 1444.29 1480.50 1505.07 1519.34 1527.31 1565.16 1758.10 2079.05 2250.87 2260.41 2229.84 2191.74 2152.11 2122.79 2104.58 2087.09 2067.93 2041.55 1914.04 1389.99 536.67 21.49 -96.98 -116.77 -128.93 -137.48 -145.65 -153.96 -159.09 -160.79 -160.90 -171.19 -232.93 -339.94 -404.51 -420.62 -426.37 -430.58 -435.29 -442.45 -450.17 -455.84 -458.53 -458.91 -468.03 -516.54 -598.96 -652.65 -669.02 -671.59 -669.40 -665.54 -662.13 -660.87 -661.78 -664.65 -669.20 -687.92 -767.73 -900.94 -982.65 -1001.15 -1003.43 -1005.54 -1007.44 -1007.25 -1006.95 -1007.96 -1008.54 -1008.92 -1013.94 -1033.64 -1065.17 -1085.00 -1090.15 -1091.04 -1091.82 -1092.59 -1092.90 -1092.74 -1092.15 -1091.64 -1092.16 -1097.36 -1119.55 -1155.28 -1176.68 -1182.19 -1183.83 -1185.64 -1189.27 -1197.47 -1216.55 -1255.76 -1323.93 -1450.14 -1711.38 -2232.93 -2914.25 -3362.79 -3546.67 -3651.53 -3737.60 -3798.56 -3840.82 -3875.21 -3901.49 -3918.20 -3920.68 -3823.04 -3358.46 -2595.29 -2217.66 -2510.18 -3152.43 -3547.92 -3639.56 -3650.10 -3652.32 -3653.37 -3653.97 -3655.10 -3656.81 -3660.04 -3666.60 -3676.12 -3687.88 -3699.31 -3705.16 -3706.04
1440.86 1420.30 1366.16 1297.81 1264.46 1280.26 1318.28 1352.97 1375.97 1391.23 1406.07 1461.59 1685.23 2038.71 2225.59 2232.44 2190.90 2140.48 2093.89 2063.39 2043.15 2023.17 2004.21 1978.68 1851.87 1337.81 504.71 1.69 -113.38 -130.77 -141.45 -150.24 -158.02 -163.28 -163.32 -159.01 -154.19 -162.60 -224.57 -331.79 -396.53 -412.90 -419.59 -426.21 -434.34 -444.76 -455.40 -462.80 -465.34 -465.25 -474.74 -523.52 -604.49 -655.05 -669.02 -671.70 -671.04 -668.99 -666.69 -665.25 -665.65 -668.07 -672.80 -692.38 -771.46 -901.73 -981.03 -998.56 -1000.11 -1001.47 -1003.66 -1004.18 -1003.96 -1004.43 -1004.39 -1004.05 -1008.79 -1029.35 -1062.44 -1083.41 -1088.55 -1088.83 -1089.35 -1090.37 -1090.86 -1090.62 -1090.04 -1089.42 -1089.77 -1095.17 -1117.61 -1153.12 -1174.22 -1179.50 -1180.63 -1182.02 -1184.56 -1190.18 -1207.25 -1244.61 -1306.56 -1416.93 -1649.39 -2138.11 -2802.30 -3256.51 -3454.00 -3573.64 -3679.83 -3758.87 -3811.88 -3853.33 -3884.36 -3904.70 -3910.71 -3815.85 -3352.17 -2588.59 -2210.92 -2504.04 -3147.23 -3544.04 -3636.99 -3648.57 -3652.15 -3654.39 -3655.48 -3657.21 -3660.14 -3664.79 -3672.42 -3682.05 -3692.50 -3703.00 -3709.50 -3711.35
1392.49 1375.56 1324.82 1255.88 1221.23 1234.72 1269.46 1302.79 1328.28 1347.44 1367.00 1429.81 1663.30 2027.54 2224.54 2239.66 2203.23 2155.37 2110.88 2077.39 2048.55 2021.93 2001.08 1975.55 1847.67 1330.61 494.05 -10.55 -124.42 -138.74 -146.89 -155.60 -163.25 -165.31 -160.08 -151.10 -143.60 -151.61 -214.57 -323.17 -389.34 -406.55 -414.83 -424.79 -435.95 -448.21 -460.33 -467.70 -469.05 -468.46 -478.99 -528.90 -609.74 -658.07 -669.16 -670.64 -671.00 -671.33 -671.19 -670.22 -669.89 -670.98 -674.66 -694.48 -774.21 -904.06 -982.34 -999.56 -1001.47 -1002.76 -1004.65 -1005.58 -1005.87 -1006.22 -1005.80 -1005.01 -1009.31 -1030.02 -1063.50 -1084.26 -1088.88 -1088.24 -1087.87 -1088.89 -1089.72 -1089.50 -1089.12 -1088.95 -1089.46 -1094.78 -1117.49 -1153.56 -1174.99 -1180.17 -1180.75 -1181.37 -1182.81 -1186.05 -1199.53 -1231.71 -1285.74 -1377.59 -1572.98 -2024.92 -2683.30 -3157.71 -3370.37 -3496.95 -3609.68 -3697.90 -3761.47 -3812.65 -3851.48 -3878.55 -3889.47 -3798.63 -3339.81 -2580.05 -2204.28 -2498.89 -3143.70 -3542.07 -3636.22 -3649.12 -3654.37 -3657.78 -3659.16 -3661.47 -3665.99 -3672.29 -3680.14 -3688.93 -3698.46 -3708.89 -3716.43 -3719.58
1366.47 1349.50 1299.69 1233.29 1195.05 1195.62 1218.75 1249.07 1278.03 1300.18 1318.81 1378.80 1610.12 1976.24 2184.20 2220.64 2208.41 2177.34 2138.05 2097.09 2056.07 2021.29 1996.64 1970.44 1843.83 1327.71 490.66 -14.19 -126.59 -137.70 -143.52 -153.07 -161.54 -161.11 -151.54 -139.80 -131.88 -140.79 -206.29 -318.55 -387.10 -405.18 -415.18 -428.12 -441.18 -453.67 -464.74 -469.98 -469.17 -467.46 -478.55 -529.66 -611.13 -658.56 -667.41 -667.12 -668.05 -670.63 -672.88 -673.04 -672.27 -671.90 -673.93 -692.95 -773.30 -904.17 -983.13 -1001.19 -1003.98 -1005.14 -1005.68 -1005.83 -1006.50 -1007.45 -1007.47 -1007.00 -1010.89 -1030.89 -1064.13 -1084.45 -1088.78 -1088.22 -1087.63 -1088.27 -1088.93 -1088.82 -1088.43 -1088.31 -1088.95 -1094.38 -1117.36 -1154.14 -1176.09 -1181.34 -1181.76 -1181.80 -1182.63 -1184.38 -1193.06 -1216.83 -1260.28 -1335.61 -1513.38 -1958.44 -2615.68 -3095.06 -3316.40 -3446.44 -3551.09 -3633.45 -3701.65 -3760.58 -3808.41 -3846.22 -3864.96 -3779.99 -3327.29 -2571.69 -2198.46 -2495.38 -3142.25 -3542.09 -3636.87 -3650.57 -3656.92 -3661.56 -3664.19 -3667.51 -3673.01 -3680.33 -3688.23 -3696.13 -3705.51 -3716.94 -3725.95 -3730.26
1373.21 1353.48 1301.50 1236.24 1191.67 1173.49 1178.40 1199.72 1224.84 1242.78 1254.33 1306.16 1531.76 1899.85 2122.29 2184.37 2200.05 2188.01 2153.96 2108.41 2061.10 2022.11 1993.98 1965.77 1840.08 1327.71 494.55 -8.04 -119.23 -130.00 -136.82 -147.70 -155.34 -152.36 -141.01 -129.26 -122.74 -133.98 -203.64 -321.19 -393.07 -412.25 -422.64 -435.44 -447.80 -459.13 -467.69 -470.05 -466.92 -463.57 -473.87 -524.98 -606.80 -654.22 -662.25 -661.17 -662.86 -667.46 -671.58 -672.92 -672.53 -671.66 -672.73 -691.08 -771.82 -903.86 -984.00 -1002.79 -1005.80 -1006.62 -1005.82 -1004.54 -1005.00 -1006.69 -1007.38 -1007.50 -1011.66 -1031.28 -1064.03 -1084.04 -1088.42 -1088.50 -1088.40 -1088.96 -1089.44 -1089.15 -1088.39 -1088.04 -1088.31 -1093.67 -1116.60 -1153.64 -1176.10 -1181.78 -1182.32 -1182.34 -1183.59 -1185.78 -1192.77 -1211.52 -1247.75 -1313.30 -1483.29 -1924.55 -2573.18 -3048.43 -3275.35 -3404.67 -3497.33 -3570.88 -3638.24 -3701.50 -3759.91 -3810.67 -3840.54 -3765.31 -3318.86 -2565.71 -2194.88 -2494.81 -3144.42 -3545.33 -3639.85 -3653.40 -3659.67 -3665.01 -3669.39 -3674.09 -3680.38 -3688.30 -3696.75 -3704.83 -3714.15 -3726.00 -3735.67 -3739.89
1400.52 1378.87 1324.86 1257.40 1204.48 1169.48 1156.83 1166.01 1182.12 1192.66 1196.98 1241.60 1462.61 1833.62 2068.71 2148.19 2181.81 2183.49 2155.81 2112.99 2066.91 2026.25 1996.07 1967.59 1842.97 1333.67 504.16 3.16 -109.04 -123.29 -133.10 -142.63 -146.14 -141.01 -130.78 -121.71 -118.32 -133.79 -208.83 -331.59 -406.43 -426.09 -434.69 -443.84 -453.38 -462.71 -468.28 -467.78 -463.07 -458.77 -467.36 -516.30 -597.38 -645.59 -654.47 -653.95 -656.42 -662.33 -667.65 -670.21 -671.01 -671.04 -672.58 -691.17 -772.22 -904.84 -985.45 -1003.93 -1006.17 -1006.35 -1004.87 -1002.66 -1002.78 -1005.18 -1006.50 -1006.81 -1011.42 -1031.53 -1064.40 -1084.11 -1088.13 -1088.32 -1088.53 -1089.39 -1090.15 -1089.65 -1088.92 -1089.01 -1089.17 -1093.99 -1116.10 -1152.57 -1175.09 -1181.13 -1182.05 -1182.33 -1184.37 -1188.63 -1198.50 -1219.08 -1254.19 -1311.69 -1462.63 -1880.10 -2513.02 -2984.15 -3213.12 -3340.36 -3429.60 -3502.58 -3571.60 -3641.35 -3711.81 -3774.72 -3817.25 -3755.16 -3315.61 -2564.29 -2195.16 -2497.14 -3148.53 -3549.85 -3644.11 -3657.59 -3663.71 -3669.72 -3675.88 -3681.93 -3688.91 -3696.81 -3705.01 -3713.44 -3723.23 -3735.43 -3745.16 -3748.67
1418.24 1398.60 1346.52 1275.82 1215.77 1171.56 1147.44 1145.67 1154.61 1162.87 1165.74 1206.17 1422.35 1793.00 2033.77 2119.60 2160.20 2170.88 2151.35 2115.52 2073.44 2031.26 1999.93 1973.25 1851.22 1343.78 514.45 11.28 -104.60 -122.24 -132.11 -136.69 -134.61 -127.82 -120.08 -115.71 -117.44 -138.34 -218.50 -345.14 -421.59 -440.61 -446.67 -452.53 -459.38 -465.55 -466.82 -463.17 -457.94 -453.95 -461.24 -507.77 -587.76 -636.85 -647.04 -647.04 -649.20 -655.36 -661.77 -666.04 -668.94 -670.97 -673.51 -692.11 -772.91 -905.52 -986.25 -1004.29 -1005.49 -1005.02 -1003.55 -1001.55 -1001.82 -1004.51 -1006.13 -1006.34 -1010.89 -1031.30 -1064.29 -1083.62 -1087.47 -1087.76 -1087.81 -1088.62 -1089.85 -1089.77 -1089.59 -1090.25 -1090.74 -1095.10 -1116.38 -1152.45 -1174.86 -1180.61 -1181.46 -1181.66 -1184.22 -1190.67 -1204.03 -1227.27 -1260.67 -1309.39 -1444.17 -1842.52 -2458.34 -2915.57 -3137.67 -3260.16 -3349.35 -3426.81 -3501.79 -3579.17 -3659.93 -3735.93 -3792.08 -3742.58 -3311.14 -2564.57 -2198.45 -2501.05 -3151.75 -3552.19 -3646.31 -3660.50 -3667.57 -3674.53 -3681.72 -3688.55 -3696.19 -3703.94 -3711.14 -3719.72 -3731.07 -3744.74 -3755.00 -3758.44
1421.38 1404.16 1353.18 1278.90 1216.08 1170.38 1140.27 1129.78 1134.40 1144.48 1151.05 1191.44 1403.33 1770.19 2010.66 2096.17 2137.17 2153.68 2142.45 2112.58 2073.07 2031.48 2001.43 1976.41 1856.57 1350.56 519.70 11.95 -107.72 -124.35 -128.71 -126.92 -121.36 -114.80 -110.04 -110.74 -118.27 -143.87 -227.25 -355.91 -433.70 -452.72 -457.19 -461.06 -465.11 -466.59 -462.60 -456.12 -451.24 -448.29 -454.99 -500.21 -579.70 -629.47 -641.27 -642.51 -644.63 -650.16 -656.72 -662.58 -667.89 -671.83 -674.58 -692.12 -772.01 -904.34 -984.98 -1003.00 -1004.06 -1003.53 -1002.64 -1001.42 -1001.77 -1004.03 -1005.51 -1005.81 -1010.23 -1030.48 -1062.94 -1082.10 -1086.96 -1088.19 -1088.12 -1088.35 -1089.34 -1089.46 -1089.48 -1090.24 -1091.38 -1095.87 -1116.79 -1152.89 -1175.34 -1180.60 -1181.05 -1181.18 -1184.21 -1191.12 -1203.65 -1224.45 -1252.22 -1293.23 -1424.58 -1823.66 -2433.94 -2876.26 -3083.76 -3193.53 -3273.65 -3350.27 -3428.70 -3511.22 -3602.37 -3693.80 -3762.53 -3720.93 -3298.17 -2561.84 -2201.89 -2504.79 -3153.55 -3552.69 -3646.25 -3660.58 -3668.30 -3675.72 -3683.24 -3691.04 -3699.61 -3707.77 -3715.23 -3724.82 -3738.02 -3752.90 -3763.12 -3766.39
1430.11 1410.23 1355.17 1278.61 1214.77 1169.08 1137.40 1123.12 1125.58 1136.35 1146.07 1188.11 1397.31 1760.35 1999.02 2081.76 2119.46 2138.41 2133.21 2106.24 2068.72 2032.17 2006.06 1981.38 1860.61 1354.17 522.72 13.28 -106.08 -117.65 -114.83 -108.45 -102.63 -98.62 -97.11 -102.12 -114.84 -144.24 -229.45 -359.30 -438.43 -457.86 -461.70 -464.24 -465.16 -462.17 -454.57 -446.35 -441.44 -439.47 -447.18 -493.50 -573.64 -623.83 -636.89 -640.08 -643.73 -649.08 -654.90 -661.11 -667.22 -671.30 -673.50 -690.00 -768.54 -899.64 -979.78 -998.43 -1000.71 -1000.96 -1000.51 -999.65 -999.60 -1000.83 -1001.74 -1002.41 -1007.26 -1027.57 -1060.09 -1080.06 -1085.82 -1087.29 -1087.39 -1087.49 -1087.87 -1087.68 -1087.51 -1087.83 -1088.97 -1093.86 -1115.53 -1152.55 -1175.35 -1180.48 -1180.91 -1181.02 -1183.75 -1188.95 -1197.27 -1212.54 -1235.24 -1273.10 -1403.41 -1801.49 -2407.63 -2841.14 -3037.94 -3140.54 -3213.60 -3283.67 -3360.57 -3448.30 -3550.17 -3655.02 -3732.53 -3692.86 -3277.57 -2555.14 -2203.08 -2506.53 -3153.48 -3551.47 -3644.53 -3658.35 -3665.71 -3673.07 -3681.15 -3690.48 -3700.10 -3708.97 -3717.73 -3728.33 -3741.88 -3756.54 -3766.46 -3769.60
1545.18 1521.20 1461.61 1383.20 1316.11 1268.20 1238.49 1226.94 1230.16 1239.11 1246.92 1285.95 1480.66 1819.52 2044.24 2123.22 2158.56 2177.29 2174.75 2151.13 2118.08 2087.45 2064.45 2039.11 1915.80 1409.42 582.82 78.62 -36.47 -43.46 -36.49 -28.30 -23.41 -22.25 -24.56 -33.09 -48.61 -81.75 -178.13 -326.50 -417.34 -439.91 -444.53 -447.14 -446.61 -441.32 -432.08 -422.59 -416.53 -414.99 -425.52 -475.72 -558.29 -609.15 -622.30 -626.05 -630.97 -636.76 -642.23 -647.48 -651.85 -654.09 -655.06 -670.65 -747.01 -875.17 -954.49 -974.62 -978.69 -979.59 -978.64 -977.05 -976.20 -976.24 -976.36 -977.42 -983.66 -1005.53 -1039.78 -1061.20 -1067.06 -1067.86 -1067.88 -1068.01 -1068.26 -1068.33 -1068.11 -1067.73 -1068.47 -1074.85 -1102.17 -1147.32 -1174.58 -1180.72 -1181.62 -1181.71 -1182.97 -1185.30 -1189.69 -1200.16 -1220.08 -1258.72 -1381.84 -1755.07 -2337.97 -2768.22 -2969.23 -3075.07 -3149.15 -3213.73 -3288.95 -3385.23 -3497.17 -3611.41 -3693.12 -3652.65 -3244.39 -2537.72 -2195.44 -2501.68 -3150.17 -3549.93 -3644.30 -3658.32 -3665.27 -3673.18 -3683.13 -3694.29 -3704.41 -3713.31 -3722.96 -3734.01 -3746.88 -3760.74 -3770.76 -3774.33
2060.32 2034.68 1973.75 1895.80 1829.04 1781.56 1754.50 1746.16 1750.29 1755.90 1758.47 1781.57 1907.72 2132.52 2289.12 2354.29 2388.34 2406.32 2405.32 2387.53 2362.14 2336.48 2314.90 2288.60 2165.11 1670.05 867.28 380.06 270.28 264.78 273.19 282.01 285.96 284.95 279.17 268.12 252.37 209.44 59.03 -180.63 -327.60 -363.88 -370.74 -374.42 -374.51 -369.10 -359.37 -348.65 -340.54 -338.42 -351.14 -404.38 -489.17 -541.06 -554.15 -557.27 -561.90 -567.60 -572.64 -575.63 -576.50 -576.44 -576.72 -591.67 -663.17 -782.35 -856.74 -876.67 -881.26 -881.95 -880.02 -876.92 -874.48 -873.23 -873.08 -875.40 -883.91 -909.60 -948.74 -972.94 -979.40 -980.44 -980.59 -980.32 -980.16 -980.32 -980.14 -979.65 -980.91 -992.65 -1042.61 -1124.13 -1172.87 -1183.60 -1185.00 -1185.31 -1185.51 -1185.80 -1188.16 -1195.83 -1213.60 -1252.05 -1360.68 -1682.95 -2205.95 -2614.94 -2823.51 -2939.81 -3023.40 -3090.73 -3167.52 -3273.90 -3399.30 -3519.90 -3601.66 -3563.51 -3170.44 -2491.73 -2170.05 -2488.69 -3150.18 -3559.49 -3658.47 -3674.52 -3682.24 -3691.19 -3703.38 -3716.96 -3728.26 -3737.42 -3747.54 -3758.84 -3771.08 -3784.06 -3793.99 -3797.98
2907.15 2881.05 2819.41 2743.87 2685.47 2646.68 2622.30 2611.80 2611.88 2613.37 2611.85 2610.65 2623.39 2657.39 2696.86 2734.56 2765.71 2784.44 2787.21 2777.03 2761.33 2742.86 2723.81 2696.62 2575.22 2101.82 1338.76 876.71 772.34 766.10 773.50 781.38 783.78 780.99 772.93 760.46 744.74 684.32 443.37 52.01 -188.20 -246.48 -255.48 -259.06 -259.51 -255.12 -246.46 -235.28 -225.18 -221.76 -234.11 -286.35 -369.88 -421.78 -435.53 -438.92 -443.05 -448.15 -452.18 -452.26 -449.76 -448.22 -449.27 -464.48 -529.02 -633.91 -698.74 -715.15 -717.66 -716.96 -714.80 -711.65 -708.44 -706.43 -706.69 -710.66 -721.36 -751.65 -797.92 -826.53 -834.32 -836.12 -836.74 -836.41 -835.83 -835.50 -835.09 -834.83 -836.72 -856.11 -942.50 -1084.55 -1170.08 -1189.08 -1190.67 -1190.65 -1190.59 -1190.45 -1192.00 -1197.24 -1210.71 -1244.64 -1337.62 -1605.73 -2048.51 -2406.10 -2599.87 -2722.31 -2823.03 -2908.43 -2996.94 -3112.84 -3250.49 -3375.51 -3458.26 -3428.34 -3060.44 -2421.61 -2128.97 -2467.52 -3150.34 -3572.65 -3676.86 -3696.41 -3707.57 -3719.44 -3734.51 -3751.53 -3765.70 -3776.56 -3787.35 -3798.57 -3810.46 -3822.95 -3832.40 -3836.10
3416.55 3388.51 3323.08 3247.33 3197.61 3170.32 3150.81 3137.20 3130.25 3126.73 3122.57 3107.83 3053.60 2971.48 2935.05 2949.05 2975.17 2996.29 3006.18 3006.02 3001.16 2992.21 2978.08 2951.38 2831.05 2369.42 1629.16 1182.37 1082.26 1075.62 1079.49 1082.71 1081.70 1076.73 1066.57 1052.76 1036.50 965.01 669.77 187.12 -109.25 -179.92 -188.27 -188.85 -187.25 -183.91 -178.15 -168.47 -157.89 -153.04 -163.35 -212.47 -292.80 -343.41 -357.45 -361.67 -365.84 -370.70 -373.70 -371.45 -367.52 -366.45 -369.72 -386.60 -447.52 -544.02 -602.23 -614.61 -614.32 -612.43 -610.79 -609.26 -606.99 -605.19 -606.35 -611.45 -622.97 -655.60 -706.07 -737.13 -745.78 -748.17 -748.79 -748.54 -748.08 -747.88 -747.84 -747.95 -749.83 -773.14 -881.07 -1059.69 -1167.91 -1192.37 -1194.29 -1193.81 -1193.85 -1193.84 -1194.55 -1197.48 -1205.19 -1228.67 -1305.01 -1535.70 -1917.46 -2224.90 -2393.38 -2511.51 -2626.94 -2740.68 -2853.27 -2979.95 -3123.70 -3254.25 -3343.99 -3322.93 -2971.21 -2354.31 -2077.18 -2427.59 -3122.41 -3550.15 -3656.31 -3679.41 -3696.34 -3715.26 -3736.89 -3759.48 -3778.48 -3792.54 -3804.91 -3816.57 -3828.62 -3841.02 -3849.57 -3852.51
3541.09 3509.40 3436.04 3353.43 3304.46 3283.54 3269.86 3256.73 3245.69 3237.90 3230.90 3211.96 3143.25 3034.44 2975.06 2974.20 2992.76 3014.78 3031.46 3041.80 3047.51 3047.38 3039.77 3017.65 2900.48 2441.24 1704.24 1259.91 1161.09 1153.91 1153.28 1149.79 1143.61 1135.28 1122.63 1107.45 1090.73 1017.61 712.08 210.67 -96.86 -168.72 -174.53 -171.02 -165.82 -161.79 -157.76 -150.32 -141.11 -135.81 -144.72 -192.13 -270.31 -319.10 -332.49 -336.96 -340.97 -345.30 -347.45 -344.50 -340.98 -341.53 -347.20 -365.89 -426.74 -521.56 -577.33 -587.04 -585.25 -583.87 -583.03 -582.32 -581.37 -580.95 -583.50 -588.88 -599.55 -632.03 -683.40 -715.00 -724.12 -727.10 -727.69 -727.32 -727.06 -727.58 -728.78 -729.72 -731.50 -755.64 -868.17 -1054.25 -1166.90 -1192.35 -1194.69 -1194.63 -1195.03 -1195.06 -1195.02 -1196.30 -1199.69 -1212.10 -1270.30 -1474.02 -1813.19 -2078.73 -2225.73 -2338.70 -2464.37 -2599.18 -2731.54 -2872.85 -3027.21 -3165.63 -3262.92 -3248.70 -2903.29 -2289.39 -2013.84 -2366.52 -3063.67 -3493.78 -3602.29 -3628.91 -3650.66 -3676.70 -3705.59 -3734.89 -3761.57 -3781.07 -3795.75 -3808.95 -3821.99 -3834.13 -3841.74 -3844.42
3573.66 3540.08 3460.41 3368.86 3316.22 3298.16 3288.92 3277.09 3264.41 3254.00 3244.73 3223.41 3152.88 3040.70 2972.71 2959.34 2967.36 2985.64 3004.37 3020.14 3033.34 3041.60 3042.75 3029.40 2919.80 2464.20 1726.48 1279.37 1177.58 1166.35 1160.03 1151.07 1141.04 1130.01 1115.96 1100.63 1084.01 1011.36 706.85 207.43 -97.46 -167.80 -173.02 -168.31 -160.52 -153.07 -146.50 -139.43 -132.75 -128.81 -137.51 -184.95 -262.71 -310.13 -322.04 -325.92 -329.67 -333.28 -335.11 -333.12 -330.61 -332.06 -338.89 -358.69 -420.31 -515.27 -570.27 -578.64 -576.20 -575.67 -575.58 -574.88 -574.90 -576.46 -580.23 -584.96 -594.34 -626.33 -677.88 -709.94 -719.32 -722.63 -723.88 -723.92 -723.75 -724.50 -726.17 -727.61 -729.82 -754.71 -867.91 -1054.26 -1167.07 -1192.51 -1194.82 -1194.91 -1195.26 -1195.28 -1195.04 -1195.26 -1196.45 -1203.35 -1249.94 -1434.90 -1741.85 -1966.58 -2087.92 -2193.45 -2319.25 -2459.40 -2607.22 -2769.63 -2936.68 -3080.39 -3181.72 -3170.12 -2824.45 -2209.00 -1936.54 -2294.68 -2995.84 -3430.30 -3542.52 -3573.52 -3599.33 -3628.05 -3659.13 -3694.49 -3731.79 -3759.05 -3776.49 -3791.53 -3805.85 -3817.69 -3824.23 -3826.42
3592.52 3561.95 3482.99 3386.02 3331.81 3318.94 3314.49 3302.27 3285.97 3272.41 3261.02 3237.51 3165.92 3052.52 2977.86 2952.95 2950.81 2963.19 2978.09 2990.66 3005.74 3021.76 3033.25 3029.86 2929.05 2479.93 1743.34 1292.43 1184.88 1166.92 1154.12 1141.14 1129.68 1118.07 1104.30 1090.02 1073.92 1001.90 700.08 205.95 -93.77 -162.89 -170.48 -168.15 -159.73 -147.71 -135.60 -126.75 -121.91 -119.88 -129.22 -177.18 -255.31 -302.36 -313.35 -316.62 -320.28 -323.97 -326.39 -325.97 -324.37 -325.61 -332.04 -351.85 -413.58 -508.40 -563.76 -572.99 -570.74 -570.00 -570.10 -569.66 -569.93 -572.26 -576.41 -580.61 -589.74 -622.01 -673.75 -706.30 -716.14 -719.60 -721.42 -722.01 -722.07 -723.09 -724.73 -725.94 -728.39 -753.89 -867.41 -1053.92 -1167.40 -1193.42 -1196.02 -1195.94 -1195.52 -1195.32 -1195.20 -1194.75 -1194.97 -1200.75 -1243.74 -1420.40 -1709.88 -1902.38 -1989.10 -2074.47 -2192.98 -2339.40 -2511.53 -2696.58 -2863.90 -3002.55 -3105.30 -3091.29 -2735.20 -2111.91 -1842.60 -2210.28 -2918.19 -3355.34 -3470.10 -3506.29 -3538.16 -3571.17 -3604.41 -3644.82 -3692.05 -3728.03 -3749.83 -3766.56 -3781.23 -3793.25 -3799.60 -3801.17
3605.16 3577.36 3500.92 3404.50 3354.85 3351.82 3355.58 3343.37 3319.60 3298.81 3283.11 3257.29 3184.09 3068.08 2987.85 2954.63 2944.52 2950.07 2958.70 2965.49 2978.42 2998.16 3016.48 3020.67 2928.32 2488.66 1757.36 1304.47 1191.22 1167.26 1148.76 1131.24 1117.97 1106.45 1093.34 1080.13 1065.42 996.10 699.12 210.49 -85.46 -154.41 -164.94 -165.99 -158.71 -143.69 -126.11 -114.56 -110.60 -110.50 -121.38 -170.01 -248.75 -296.28 -307.70 -311.42 -315.11 -318.91 -321.75 -322.28 -321.13 -321.84 -327.04 -345.09 -405.29 -499.60 -555.97 -567.51 -567.14 -566.82 -566.92 -566.69 -566.78 -568.82 -572.61 -576.60 -586.01 -618.08 -669.39 -702.75 -713.97 -717.68 -719.05 -719.47 -719.76 -721.06 -722.46 -723.51 -726.54 -752.72 -866.41 -1053.12 -1167.18 -1193.40 -1196.23 -1196.40 -1195.79 -1195.67 -1195.71 -1194.97 -1194.91 -1200.12 -1241.67 -1415.37 -1698.82 -1875.59 -1934.90 -1992.19 -2096.21 -2253.13 -2454.24 -2658.48 -2818.14 -2938.97 -3035.04 -3018.45 -2651.90 -2015.01 -1734.78 -2100.83 -2815.27 -3259.28 -3380.60 -3422.61 -3460.79 -3501.80 -3541.73 -3585.71 -3636.85 -3679.87 -3708.49 -3728.78 -3745.65 -3759.78 -3766.73 -3767.81
3603.42 3573.99 3499.55 3415.29 3381.53 3392.39 3405.82 3395.41 3363.88 3331.97 3308.13 3278.85 3201.98 3080.70 2997.20 2961.24 2945.10 2941.73 2943.11 2945.89 2956.65 2976.35 2996.40 3004.72 2919.75 2490.03 1766.58 1315.76 1200.59 1173.50 1151.06 1128.79 1112.10 1099.33 1086.17 1073.66 1061.25 996.05 704.28 219.89 -74.53 -144.19 -156.89 -160.54 -154.82 -138.93 -118.48 -105.13 -101.99 -103.95 -116.98 -167.18 -247.37 -296.00 -308.38 -313.24 -317.48 -320.94 -323.02 -322.81 -321.26 -321.24 -324.68 -340.19 -398.26 -491.85 -548.89 -562.36 -564.35 -565.57 -566.38 -566.57 -566.94 -568.84 -572.63 -577.15 -586.64 -617.44 -667.63 -701.18 -713.06 -716.31 -716.74 -716.93 -717.42 -718.46 -719.43 -720.72 -724.66 -751.52 -865.25 -1052.27 -1166.91 -1193.20 -1195.64 -1195.98 -1196.07 -1196.25 -1196.16 -1195.44 -1195.14 -1199.22 -1239.52 -1411.78 -1693.35 -1865.55 -1912.21 -1947.30 -2028.62 -2179.81 -2393.30 -2607.72 -2763.75 -2873.21 -2963.10 -2945.99 -2574.58 -1925.38 -1628.69 -1985.30 -2703.02 -3155.73 -3284.44 -3329.89 -3372.39 -3421.57 -3470.18 -3516.36 -3564.05 -3608.41 -3644.69 -3673.40 -3697.31 -3716.33 -3725.10 -3726.17
3619.34 3585.07 3507.65 3433.36 3416.75 3439.11 3456.27 3446.30 3410.02 3368.07 3335.40 3301.34 3218.86 3091.16 3006.36 2972.66 2954.29 2942.57 2935.41 2932.84 2939.01 2954.97 2974.45 2985.99 2906.64 2483.81 1767.33 1321.83 1209.11 1182.35 1158.97 1133.66 1113.19 1097.95 1083.80 1071.37 1060.24 997.61 709.87 229.55 -63.11 -133.26 -147.31 -152.28 -147.03 -131.27 -111.97 -99.95 -98.43 -102.60 -117.71 -169.51 -251.29 -301.68 -315.27 -320.81 -325.86 -329.17 -329.36 -326.94 -324.58 -324.09 -326.04 -339.66 -396.44 -489.22 -545.88 -559.70 -562.82 -566.12 -568.75 -569.88 -570.80 -572.92 -577.21 -582.88 -592.50 -622.19 -671.15 -703.27 -713.58 -715.58 -715.44 -715.70 -716.19 -716.81 -717.54 -718.70 -722.50 -749.62 -863.90 -1051.63 -1166.73 -1192.98 -1194.93 -1195.30 -1195.98 -1196.34 -1196.22 -1195.76 -1195.20 -1198.31 -1237.88 -1409.40 -1690.01 -1860.75 -1902.26 -1922.69 -1978.92 -2103.16 -2297.08 -2504.47 -2662.19 -2779.74 -2877.94 -2867.99 -2501.97 -1850.92 -1547.91 -1899.42 -2614.25 -3066.11 -3193.62 -3235.76 -3276.25 -3326.54 -3379.04 -3426.50 -3473.37 -3522.32 -3569.69 -3609.56 -3639.47 -3662.02 -3674.46 -3677.49
3660.78 3624.06 3543.79 3470.21 3458.79 3484.78 3500.81 3489.71 3450.40 3400.46 3360.79 3322.26 3233.23 3097.98 3011.23 2982.29 2967.63 2953.39 2940.14 2930.62 2928.62 2937.15 2953.30 2965.95 2888.95 2468.87 1756.93 1317.22 1208.35 1184.55 1164.55 1139.67 1115.77 1097.84 1083.05 1070.52 1059.37 997.24 711.79 235.20 -54.12 -122.53 -135.72 -140.03 -134.69 -120.85 -105.76 -97.25 -98.02 -104.83 -122.38 -175.75 -258.39 -310.32 -324.86 -329.81 -334.91 -338.47 -337.36 -333.34 -330.53 -330.19 -332.30 -346.02 -402.69 -494.39 -549.50 -562.22 -565.75 -571.13 -575.94 -578.13 -578.97 -580.63 -584.76 -590.33 -599.55 -628.76 -676.94 -707.60 -715.88 -716.64 -716.07 -715.83 -715.54 -715.93 -717.07 -718.31 -721.78 -749.05 -864.10 -1052.25 -1166.96 -1192.62 -1194.25 -1194.69 -1195.41 -1195.67 -1195.59 -1195.67 -1195.19 -1197.79 -1236.97 -1408.16 -1688.19 -1858.11 -1897.78 -1910.35 -1945.92 -2035.72 -2190.84 -2371.43 -2524.69 -2659.26 -2780.39 -2790.93 -2439.83 -1791.86 -1486.20 -1833.76 -2541.37 -2984.14 -3103.80 -3140.91 -3175.73 -3219.10 -3268.76 -3319.40 -3375.17 -3435.48 -3494.75 -3544.59 -3578.70 -3602.35 -3616.69 -3621.20
3693.17 3662.12 3587.55 3509.30 3490.07 3514.45 3532.15 3521.16 3477.85 3418.89 3370.49 3325.69 3229.23 3085.98 2995.98 2970.34 2961.70 2951.64 2938.72 2925.25 2915.76 2915.01 2923.78 2933.49 2856.53 2439.13 1733.87 1301.09 1195.88 1174.71 1158.28 1135.65 1109.86 1090.24 1076.68 1066.29 1056.98 996.02 712.48 239.34 -45.62 -109.79 -119.51 -121.46 -116.30 -106.14 -96.08 -91.33 -94.72 -104.61 -125.31 -181.14 -265.24 -317.58 -330.97 -334.06 -338.82 -343.79 -343.94 -340.22 -337.63 -338.15 -341.95 -357.56 -414.76 -504.89 -557.61 -568.69 -572.31 -578.33 -583.71 -586.24 -586.59 -587.26 -590.36 -594.39 -602.83 -632.76 -681.82 -712.38 -719.33 -719.02 -717.79 -716.98 -716.18 -716.38 -718.04 -719.84 -723.33 -750.32 -865.24 -1053.09 -1167.07 -1192.07 -1193.44 -1193.72 -1194.16 -1194.46 -1194.79 -1195.31 -1194.92 -1197.43 -1236.24 -1406.75 -1685.88 -1855.05 -1894.24 -1903.50 -1924.24 -1982.54 -2098.76 -2250.40 -2401.46 -2558.74 -2708.51 -2738.65 -2392.55 -1739.43 -1426.28 -1765.73 -2463.52 -2895.79 -3007.56 -3040.72 -3070.34 -3108.75 -3158.16 -3215.45 -3280.49 -3345.39 -3408.97 -3466.91 -3509.88 -3538.55 -3553.10 -3556.99
3648.41 3619.67 3542.60 3449.77 3414.76 3433.16 3452.24 3440.93 3392.30 3322.60 3261.27 3203.54 3091.09 2930.89 2831.43 2804.35 2799.84 2796.49 2788.56 2775.94 2762.44 2753.36 2753.70 2758.41 2686.83 2302.14 1652.00 1252.90 1154.80 1134.50 1119.16 1098.70 1074.67 1056.46 1046.66 1041.74 1037.64 982.44 714.31 266.00 -1.72 -57.82 -62.56 -61.56 -56.94 -50.90 -45.99 -45.50 -51.89 -64.51 -89.11 -154.00 -251.08 -309.27 -321.81 -324.13 -329.59 -336.62 -339.81 -338.27 -336.70 -337.91 -342.36 -358.79 -414.90 -500.97 -550.03 -559.26 -561.98 -566.78 -571.16 -573.72 -574.55 -574.74 -576.28 -578.82 -587.77 -622.68 -679.30 -714.19 -721.68 -721.01 -719.61 -718.89 -718.34 -718.27 -719.65 -721.37 -724.72 -751.28 -865.53 -1052.75 -1166.04 -1190.34 -1191.19 -1191.14 -1191.56 -1192.52 -1193.61 -1194.06 -1193.45 -1195.82 -1233.35 -1399.84 -1672.55 -1837.44 -1875.26 -1882.72 -1895.68 -1935.67 -2027.70 -2166.66 -2329.57 -2508.13 -2670.94 -2701.00 -2346.37 -1687.04 -1366.85 -1694.66 -2380.53 -2802.94 -2907.08 -2936.09 -2961.80 -2994.90 -3042.61 -3105.18 -3174.62 -3239.38 -3302.63 -3364.56 -3418.81 -3458.45 -3476.55 -3480.29
3218.27 3179.81 3083.72 2971.63 2920.32 2927.94 2941.31 2925.01 2870.62 2792.96 2718.80 2638.44 2479.97 2258.54 2123.11 2086.42 2081.32 2080.89 2077.00 2067.59 2054.31 2041.79 2037.04 2039.31 1997.73 1759.69 1351.38 1097.34 1030.05 1011.17 995.16 977.07 959.72 948.07 943.72 944.84 947.53 910.95 713.38 380.54 184.33 147.28 147.35 150.63 154.57 156.55 156.15 152.52 143.99 129.87 96.42 -6.14 -164.40 -257.72 -277.53 -282.28 -289.58 -297.48 -302.19 -303.12 -303.40 -304.26 -307.14 -321.47 -368.84 -438.91 -477.75 -484.17 -485.27 -488.12 -491.34 -494.00 -495.28 -495.16 -495.34 -496.78 -509.56 -563.82 -651.44 -704.83 -716.86 -717.23 -716.31 -715.76 -715.55 -715.27 -715.65 -716.75 -720.26 -746.83 -860.89 -1048.30 -1161.51 -1185.40 -1185.62 -1185.05 -1185.53 -1186.94 -1188.64 -1189.22 -1188.40 -1190.03 -1223.07 -1371.90 -1615.99 -1763.60 -1797.41 -1803.60 -1815.12 -1854.16 -1945.04 -2088.10 -2263.54 -2444.51 -2595.72 -2612.32 -2261.09 -1622.72 -1310.11 -1625.00 -2293.27 -2704.01 -2799.86 -2822.13 -2841.79 -2864.06 -2901.84 -2961.94 -3031.09 -3099.27 -3168.80 -3235.98 -3298.24 -3348.61 -3372.57 -3377.22
2421.36 2374.23 2261.48 2134.30 2071.22 2066.18 2064.62 2034.98 1973.27 1892.37 1809.45 1703.87 1479.27 1159.92 965.81 914.01 904.51 901.26 896.71 889.55 879.64 868.66 862.94 866.92 876.46 878.55 867.92 854.66 840.83 825.45 809.77 795.81 787.01 783.56 784.47 790.14 798.96 791.37 712.01 571.95 492.16 481.36 483.93 486.98 489.46 488.14 483.79 477.85 468.79 453.55 406.15 241.41 -18.99 -173.42 -207.63 -215.61 -223.92 -231.15 -235.43 -237.89 -240.33 -240.97 -241.81 -251.97 -283.40 -327.09 -350.99 -355.13 -355.30 -356.10 -357.79 -359.96 -360.59 -359.29 -357.86 -358.52 -377.93 -463.18 -600.97 -684.36 -703.78 -706.12 -705.89 -705.04 -704.84 -704.85 -704.72 -705.08 -708.81 -735.86 -850.62 -1039.24 -1153.35 -1177.53 -1177.31 -1176.04 -1176.57 -1178.08 -1179.78 -1180.59 -1180.00 -1181.09 -1207.33 -1326.86 -1523.69 -1643.16 -1670.60 -1675.92 -1687.96 -1731.22 -1833.35 -1991.94 -2171.14 -2333.17 -2459.09 -2464.51 -2137.38 -1547.36 -1259.55 -1566.23 -2212.54 -2606.60 -2692.64 -2704.28 -2713.19 -2724.70 -2749.74 -2797.95 -2862.35 -2936.62 -3018.26 -3094.51 -3159.61 -3214.31 -3245.14 -3253.60
1949.89 1898.39 1778.05 1646.00 1577.60 1557.84 1533.79 1485.83 1417.51 1336.78 1251.22 1135.15 876.25 499.39 269.50 208.29 193.97 185.33 176.99 169.52 162.06 153.74 148.67 153.28 191.95 337.93 568.43 702.25 722.36 710.98 698.22 689.89 688.47 691.50 697.22 706.69 718.79 729.17 723.11 699.98 687.42 688.48 689.84 690.64 690.82 686.96 679.93 672.96 664.81 650.34 595.52 393.49 71.08 -121.02 -164.08 -172.95 -180.16 -185.12 -188.35 -192.28 -197.04 -198.61 -198.53 -205.53 -226.86 -254.93 -270.78 -275.26 -276.81 -277.67 -278.49 -278.81 -277.21 -274.21 -271.57 -271.88 -294.79 -397.97 -566.08 -668.31 -692.75 -696.59 -697.05 -696.40 -696.32 -696.68 -696.50 -696.40 -700.12 -727.69 -843.14 -1032.27 -1146.94 -1171.78 -1171.87 -1170.32 -1170.90 -1172.43 -1174.03 -1174.92 -1174.80 -1176.37 -1198.84 -1300.55 -1468.55 -1570.83 -1594.29 -1599.32 -1610.61 -1651.34 -1759.03 -1935.16 -2115.51 -2253.70 -2356.64 -2357.68 -2050.25 -1492.99 -1223.38 -1526.86 -2158.91 -2538.79 -2613.68 -2614.38 -2614.18 -2620.61 -2636.56 -2669.73 -2724.72 -2799.74 -2889.71 -2976.06 -3044.08 -3098.65 -3133.69 -3145.91
1841.20 1795.35 1684.61 1558.25 1484.35 1445.62 1400.81 1345.96 1283.64 1210.17 1129.56 1018.11 757.67 369.14 128.89 62.91 44.25 30.23 17.44 7.79 0.59 -6.27 -11.80 -10.57 30.14 205.35 488.66 655.92 685.65 678.24 670.45 668.90 674.55 683.46 693.99 706.48 718.91 733.21 743.97 745.33 742.81 740.88 738.38 736.14 733.44 727.08 718.12 710.88 705.00 694.33 640.64 430.85 94.32 -106.40 -150.96 -158.66 -164.01 -166.65 -168.61 -173.67 -180.27 -183.64 -184.20 -189.48 -207.20 -231.52 -246.40 -252.68 -257.01 -260.64 -262.51 -260.92 -256.65 -252.01 -248.60 -248.19 -270.58 -376.88 -552.21 -659.62 -686.04 -690.75 -692.15 -692.70 -693.53 -694.49 -694.53 -694.24 -697.18 -724.53 -840.44 -1029.77 -1144.38 -1169.58 -1170.32 -1169.14 -1169.71 -1171.25 -1172.96 -1173.50 -1173.45 -1175.56 -1197.47 -1295.54 -1457.20 -1555.49 -1578.17 -1583.46 -1593.16 -1626.52 -1730.59 -1917.84 -2102.10 -2226.82 -2316.60 -2316.48 -2014.01 -1463.88 -1197.73 -1496.73 -2120.24 -2492.24 -2559.92 -2553.30 -2545.72 -2547.00 -2557.85 -2583.47 -2629.36 -2694.24 -2781.26 -2876.06 -2953.89 -3013.29 -3049.87 -3062.46
1786.61 1750.77 1654.23 1530.76 1447.00 1392.11 1340.33 1301.45 1268.35 1218.90 1149.91 1042.64 782.48 390.87 145.63 74.79 51.74 32.77 15.80 2.94 -6.14 -13.49 -20.68 -24.13 11.37 184.54 469.34 639.29 672.21 669.14 666.70 671.45 683.67 698.75 714.10 728.49 739.97 752.88 763.17 763.04 755.31 747.33 741.51 736.77 730.97 722.41 713.32 707.64 704.91 698.88 648.96 439.42 100.90 -100.51 -144.01 -150.14 -154.61 -156.84 -158.40 -163.74 -171.27 -176.62 -178.81 -182.90 -197.86 -220.71 -236.32 -244.51 -251.33 -257.64 -260.68 -258.17 -252.52 -246.94 -242.58 -241.24 -263.09 -369.49 -545.49 -653.69 -680.92 -686.61 -689.52 -691.43 -693.11 -694.86 -695.35 -694.96 -696.91 -723.48 -839.53 -1029.40 -1144.19 -1169.16 -1170.33 -1170.33 -1171.27 -1172.62 -1173.98 -1173.87 -1173.51 -1175.31 -1197.14 -1295.37 -1457.07 -1555.45 -1578.61 -1584.60 -1593.91 -1623.16 -1721.02 -1907.16 -2095.09 -2221.29 -2306.32 -2300.17 -1993.73 -1442.57 -1175.07 -1467.83 -2083.31 -2450.27 -2514.18 -2502.60 -2489.83 -2486.45 -2494.14 -2516.61 -2555.08 -2606.07 -2679.96 -2774.09 -2864.65 -2936.66 -2977.96 -2991.31
1727.49 1691.49 1595.15 1469.05 1375.54 1315.26 1275.76 1267.34 1271.94 1252.15 1196.27 1089.21 824.51 426.68 176.42 103.11 79.29 58.58 38.13 20.62 8.16 -0.21 -9.49 -17.93 11.76 179.90 461.39 630.91 665.99 666.61 668.35 677.12 692.72 711.44 731.11 749.12 761.93 771.68 775.89 769.33 756.16 745.03 737.85 731.42 723.69 715.17 708.60 705.72 705.71 702.97 655.83 446.54 106.10 -95.82 -137.88 -142.66 -146.81 -149.85 -152.39 -158.03 -165.89 -172.91 -177.34 -181.70 -194.93 -216.06 -231.25 -240.35 -248.60 -255.68 -258.17 -254.30 -247.75 -242.11 -237.46 -236.40 -259.40 -366.19 -541.70 -649.59 -677.15 -684.20 -688.92 -692.19 -694.52 -696.41 -696.88 -696.41 -697.91 -723.70 -839.30 -1029.70 -1145.06 -1169.69 -1170.99 -1171.97 -1173.13 -1173.76 -1174.47 -1174.24 -1173.88 -1175.54 -1197.49 -1295.72 -1457.74 -1557.31 -1581.65 -1588.22 -1598.30 -1626.59 -1712.32 -1878.77 -2066.62 -2211.71 -2303.50 -2288.09 -1974.66 -1422.09 -1152.56 -1440.60 -2052.57 -2417.73 -2477.03 -2458.32 -2441.44 -2436.44 -2442.86 -2462.26 -2494.09 -2535.60 -2598.14 -2686.17 -2784.39 -2869.26 -2915.98 -2929.84
1657.27 1622.40 1527.15 1398.62 1299.48 1242.59 1221.85 1238.01 1265.56 1263.80 1221.79 1124.14 861.40 459.02 204.04 129.81 108.93 90.13 66.95 44.84 29.27 18.41 5.40 -7.15 19.10 184.27 463.06 631.51 667.88 670.50 674.09 684.26 700.09 719.42 742.48 764.96 780.18 786.32 782.66 768.95 752.28 740.47 732.92 725.62 718.27 712.82 710.57 710.99 713.08 711.32 664.02 453.28 110.44 -92.80 -134.41 -138.37 -142.73 -147.21 -151.55 -157.95 -165.85 -173.82 -180.29 -186.03 -198.88 -218.77 -232.79 -240.91 -248.11 -253.50 -254.03 -248.58 -241.31 -236.07 -232.32 -232.44 -256.89 -364.21 -539.78 -648.05 -675.97 -683.64 -689.23 -693.55 -696.22 -697.56 -697.71 -697.27 -699.00 -724.64 -839.55 -1029.78 -1145.71 -1170.82 -1172.26 -1173.06 -1173.93 -1173.99 -1174.28 -1174.01 -1173.48 -1175.33 -1198.10 -1296.46 -1457.93 -1558.01 -1583.67 -1590.95 -1602.19 -1631.25 -1704.37 -1843.52 -2021.75 -2184.91 -2289.46 -2270.47 -1953.60 -1400.60 -1129.41 -1415.94 -2027.96 -2392.63 -2447.55 -2422.54 -2401.73 -2394.60 -2398.57 -2414.00 -2442.38 -2483.06 -2543.74 -2626.81 -2723.56 -2813.02 -2862.93 -2877.09
1566.60 1538.34 1454.98 1336.33 1243.80 1193.09 1181.37 1206.20 1238.49 1243.21 1217.14 1140.63 891.60 492.31 234.75 157.52 136.80 117.66 90.26 64.40 46.16 30.97 13.81 0.59 29.24 195.93 473.61 641.00 677.78 681.15 684.75 694.06 708.37 726.56 750.64 775.01 790.23 792.64 783.01 764.82 747.00 735.37 727.86 721.25 716.59 715.94 718.77 722.75 726.02 722.75 672.92 460.11 115.70 -89.25 -132.38 -137.34 -143.04 -149.20 -155.30 -162.83 -170.85 -178.67 -185.48 -191.72 -204.48 -223.97 -237.10 -242.53 -245.97 -248.30 -247.54 -242.84 -236.79 -232.06 -229.13 -230.55 -256.27 -364.32 -540.71 -650.07 -678.20 -685.11 -690.10 -694.27 -696.58 -697.28 -697.10 -696.56 -698.48 -724.69 -839.79 -1029.78 -1145.96 -1171.91 -1173.61 -1173.67 -1173.91 -1173.90 -1174.01 -1173.58 -1172.84 -1174.98 -1198.78 -1297.27 -1457.52 -1556.48 -1582.38 -1590.62 -1603.23 -1634.89 -1703.39 -1821.77 -1980.31 -2143.95 -2259.10 -2245.36 -1930.72 -1379.10 -1107.01 -1392.67 -2003.91 -2367.05 -2419.32 -2392.18 -2370.10 -2360.65 -2361.60 -2374.51 -2402.15 -2443.86 -2504.54 -2584.65 -2675.85 -2762.43 -2814.10 -2829.98
1499.35 1469.04 1389.93 1286.16 1205.30 1159.56 1150.99 1174.57 1200.80 1205.41 1192.60 1137.08 907.13 519.44 264.02 182.66 156.81 132.12 97.45 66.42 45.72 28.69 12.68 4.63 40.20 210.93 488.81 655.71 692.86 696.78 699.38 706.06 717.83 734.48 757.20 780.01 793.01 792.15 778.73 758.71 741.87 731.43 724.49 719.75 718.95 722.96 730.06 737.09 740.66 734.97 682.48 468.14 122.78 -84.47 -131.24 -138.91 -146.09 -153.68 -161.24 -169.33 -176.42 -181.92 -186.08 -191.20 -204.28 -224.53 -237.76 -240.93 -240.72 -240.91 -240.29 -238.02 -234.68 -230.97 -228.74 -231.58 -258.71 -367.89 -545.12 -654.64 -682.22 -688.14 -692.55 -695.80 -696.63 -695.82 -694.68 -693.56 -695.36 -722.51 -839.23 -1030.17 -1146.20 -1171.79 -1173.23 -1172.51 -1171.86 -1172.04 -1172.50 -1172.70 -1172.99 -1175.80 -1199.66 -1297.69 -1457.18 -1554.84 -1579.85 -1588.26 -1601.58 -1635.99 -1706.35 -1815.03 -1954.53 -2105.07 -2222.02 -2214.58 -1904.35 -1354.68 -1081.52 -1365.84 -1975.73 -2336.34 -2386.35 -2359.84 -2339.32 -2330.05 -2331.08 -2345.16 -2373.07 -2411.96 -2467.52 -2542.62 -2630.15 -2716.61 -2769.62 -2786.07
1481.65 1446.35 1362.72 1261.04 1181.65 1135.37 1125.49 1142.53 1160.46 1164.19 1159.88 1118.40 905.56 533.36 284.50 200.53 167.44 134.70 92.27 55.90 35.13 22.21 13.14 12.59 53.43 225.91 503.37 670.05 709.21 715.78 718.30 721.57 729.47 744.16 764.54 784.07 793.95 790.29 774.86 754.67 739.28 730.37 725.12 723.31 725.97 732.54 741.88 750.96 754.46 746.57 692.09 476.99 130.46 -79.94 -130.80 -141.17 -149.28 -157.77 -165.81 -172.89 -177.48 -179.13 -179.63 -183.41 -197.57 -219.36 -232.95 -235.15 -233.71 -234.08 -235.16 -235.61 -234.56 -232.24 -230.96 -234.36 -262.23 -372.57 -550.39 -659.21 -685.91 -691.34 -695.18 -697.36 -696.81 -694.08 -690.83 -688.32 -690.10 -718.75 -837.73 -1030.04 -1145.77 -1170.14 -1170.50 -1168.98 -1168.16 -1169.13 -1170.39 -1171.50 -1173.11 -1176.40 -1199.42 -1296.63 -1455.95 -1553.57 -1578.19 -1585.86 -1598.35 -1631.86 -1703.01 -1807.88 -1930.73 -2061.46 -2169.85 -2165.04 -1862.25 -1319.05 -1048.70 -1333.48 -1942.63 -2300.84 -2349.36 -2324.22 -2306.41 -2299.90 -2302.12 -2316.23 -2343.11 -2378.67 -2427.69 -2494.70 -2578.87 -2667.10 -2722.29 -2739.78
1493.86 1457.89 1372.36 1268.68 1186.53 1132.93 1110.69 1113.67 1123.34 1130.65 1137.48 1107.98 907.75 547.49 304.58 219.12 179.88 141.59 97.82 62.54 45.27 38.74 36.97 40.85 80.78 247.64 518.84 682.95 724.39 735.40 740.50 741.74 745.29 757.52 775.84 791.44 796.57 789.86 773.91 754.36 740.16 732.85 730.22 731.67 736.54 743.94 754.23 764.37 767.31 757.68 701.39 485.03 136.97 -75.74 -128.75 -140.21 -148.23 -157.13 -165.18 -170.46 -172.35 -171.23 -169.70 -173.01 -187.91 -210.34 -223.85 -226.57 -226.60 -229.06 -233.11 -236.32 -236.99 -235.78 -234.72 -237.37 -264.66 -375.04 -552.84 -660.99 -686.79 -691.61 -694.34 -695.46 -694.49 -690.48 -684.68 -680.56 -683.00 -713.35 -833.18 -1024.78 -1139.43 -1163.00 -1162.47 -1160.63 -1160.66 -1162.87 -1164.98 -1166.74 -1168.86 -1172.04 -1194.26 -1290.63 -1449.37 -1546.79 -1570.86 -1577.58 -1588.54 -1615.80 -1675.25 -1765.23 -1870.27 -1983.69 -2078.69 -2075.41 -1788.10 -1262.62 -1005.12 -1295.59 -1903.91 -2259.40 -2307.74 -2284.15 -2268.98 -2265.82 -2269.84 -2283.47 -2308.47 -2341.25 -2383.58 -2441.91 -2521.54 -2607.77 -2664.10 -2683.56
1587.94 1554.68 1475.00 1378.47 1300.74 1241.31 1202.95 1188.81 1190.26 1203.60 1224.78 1210.12 1028.79 692.84 464.35 378.49 331.80 290.64 253.97 227.62 215.25 212.44 214.95 220.02 248.54 371.52 574.90 698.56 731.97 745.40 754.71 757.80 760.48 771.43 787.52 797.95 796.81 786.80 771.39 754.00 741.96 736.43 736.09 740.14 746.26 753.56 763.83 774.31 776.79 765.34 706.97 491.44 147.67 -62.11 -114.09 -124.39 -130.51 -138.76 -147.73 -153.01 -153.61 -151.29 -149.37 -153.04 -168.80 -192.77 -207.75 -212.62 -215.26 -219.78 -226.53 -232.18 -234.29 -233.72 -232.33 -233.90 -258.81 -364.45 -536.39 -641.32 -665.59 -668.73 -669.74 -670.08 -669.21 -664.84 -657.93 -653.28 -656.06 -685.30 -798.86 -979.75 -1087.87 -1110.58 -1110.84 -1109.85 -1110.61 -1113.26 -1115.84 -1118.17 -1120.63 -1123.35 -1143.62 -1234.49 -1384.82 -1476.92 -1499.24 -1505.09 -1513.70 -1531.04 -1567.28 -1626.29 -1704.88 -1797.68 -1877.18 -1880.63 -1632.02 -1161.36 -942.34 -1244.12 -1846.02 -2195.46 -2245.21 -2224.71 -2210.45 -2207.83 -2213.74 -2227.60 -2249.80 -2279.22 -2315.81 -2367.55 -2443.57 -2527.62 -2580.73 -2597.97
2041.22 2011.98 1940.79 1852.63 1781.95 1725.87 1681.53 1656.43 1652.29 1669.35 1700.49 1706.71 1584.37 1341.13 1170.35 1095.88 1044.73 1002.56 972.81 953.34 943.29 941.27 945.36 948.73 936.14 878.27 785.25 727.74 718.99 729.53 742.69 751.04 757.56 769.36 782.24 786.18 779.18 767.26 754.99 743.74 735.14 730.20 731.31 738.34 746.04 752.61 761.37 770.35 770.90 755.91 697.07 497.46 183.86 -7.31 -54.30 -62.19 -66.17 -73.47 -83.49 -90.47 -91.38 -88.25 -85.95 -90.64 -111.62 -144.56 -165.30 -172.37 -176.56 -182.51 -190.83 -197.70 -200.61 -200.48 -199.35 -200.62 -221.27 -309.97 -454.98 -543.44 -562.81 -563.69 -562.90 -562.27 -561.18 -557.43 -551.75 -548.03 -549.94 -571.61 -656.77 -792.39 -873.65 -891.74 -893.26 -893.44 -894.70 -897.32 -899.95 -902.40 -904.85 -906.80 -921.49 -988.86 -1100.23 -1168.38 -1185.15 -1189.85 -1195.39 -1203.90 -1219.72 -1246.68 -1289.83 -1349.20 -1408.62 -1428.58 -1276.45 -965.70 -849.45 -1160.12 -1726.93 -2052.88 -2100.49 -2083.34 -2070.08 -2066.29 -2072.01 -2084.10 -2101.39 -2127.34 -2162.64 -2212.17 -2283.54 -2363.13 -2411.71 -2425.91
2798.26 2774.91 2712.81 2628.10 2560.46 2513.36 2474.22 2446.97 2440.87 2459.44 2495.37 2525.05 2495.18 2402.79 2326.86 2278.71 2233.17 2193.35 2165.19 2146.07 2135.72 2133.47 2137.06 2135.86 2057.79 1704.73 1124.53 768.81 690.90 696.15 713.54 728.73 740.10 751.54 758.71 754.85 743.03 731.73 726.12 724.28 719.87 714.94 717.06 726.52 735.53 741.17 747.09 751.61 747.08 727.13 671.00 501.74 240.25 80.19 40.51 35.31 33.38 27.29 16.77 7.38 4.55 7.64 10.84 5.14 -25.00 -73.20 -102.42 -110.18 -113.78 -120.14 -128.95 -136.00 -139.25 -140.00 -139.89 -141.37 -156.64 -218.91 -319.46 -379.42 -390.55 -389.42 -387.97 -386.59 -384.81 -381.97 -378.39 -376.11 -376.99 -387.61 -426.89 -488.21 -525.36 -534.97 -537.00 -537.96 -539.90 -542.61 -544.86 -546.90 -548.56 -549.44 -556.15 -585.05 -631.93 -660.58 -668.11 -671.14 -674.36 -677.93 -683.49 -692.51 -709.36 -737.88 -777.24 -814.14 -786.61 -699.99 -729.99 -1047.58 -1556.98 -1845.07 -1885.81 -1870.15 -1858.38 -1854.61 -1859.34 -1869.11 -1882.56 -1905.40 -1940.96 -1990.43 -2055.35 -2125.33 -2169.74 -2183.70
3222.24 3207.18 3157.62 3078.90 3015.04 2976.39 2945.11 2921.45 2917.18 2937.40 2974.93 3014.92 3037.72 3036.70 3022.21 2998.64 2967.32 2936.18 2910.79 2891.82 2881.98 2878.84 2878.17 2869.13 2748.69 2216.25 1340.46 803.27 682.82 686.10 708.94 730.00 742.45 748.05 745.07 732.08 716.80 708.59 710.98 716.98 715.93 711.90 714.12 722.43 729.32 732.24 734.19 733.03 723.00 699.97 647.55 498.44 268.73 127.59 92.55 89.34 89.46 85.02 74.81 63.82 58.63 60.06 63.09 56.56 20.42 -37.30 -71.00 -77.51 -78.82 -83.70 -91.62 -98.05 -100.83 -101.93 -102.86 -104.67 -116.35 -162.28 -235.53 -277.31 -282.71 -280.13 -278.18 -276.43 -274.56 -272.84 -271.17 -270.13 -270.84 -275.65 -287.73 -304.38 -315.04 -319.49 -321.94 -323.67 -326.03 -328.32 -329.50 -330.85 -331.99 -332.21 -334.14 -339.95 -347.98 -352.73 -354.32 -355.94 -358.24 -360.03 -361.48 -363.96 -369.93 -383.26 -408.22 -443.52 -471.30 -500.87 -615.05 -945.69 -1430.30 -1701.12 -1740.17 -1726.40 -1715.95 -1712.16 -1715.19 -1723.50 -1736.29 -1756.57 -1789.21 -1834.95 -1892.45 -1953.17 -1993.77 -2007.78
3265.31 3253.38 3210.99 3142.85 3090.38 3061.28 3036.93 3017.83 3016.23 3037.14 3073.61 3112.32 3143.31 3162.50 3167.70 3160.55 3145.14 3127.87 3112.93 3100.89 3092.90 3085.88 3077.46 3058.00 2922.10 2349.48 1410.30 834.84 706.65 711.94 737.61 757.39 763.06 756.60 739.86 717.87 701.89 698.96 708.41 719.41 720.68 717.71 718.28 722.26 724.99 724.07 720.76 714.06 701.70 680.91 633.32 490.63 268.14 131.41 97.88 95.15 95.47 91.78 82.91 72.86 67.10 66.75 67.83 59.42 21.26 -38.45 -72.88 -78.32 -77.34 -79.55 -85.02 -89.50 -90.54 -90.33 -91.02 -93.05 -104.03 -146.62 -214.15 -251.23 -254.33 -250.53 -247.63 -245.68 -244.69 -244.27 -244.00 -244.18 -245.55 -249.25 -255.37 -262.78 -268.50 -272.23 -275.26 -277.54 -279.41 -280.77 -281.59 -283.01 -284.28 -284.06 -284.45 -285.39 -285.24 -285.13 -285.40 -286.08 -287.51 -288.48 -288.52 -288.77 -290.82 -297.54 -312.93 -336.30 -359.80 -397.75 -523.09 -867.04 -1360.71 -1637.00 -1680.61 -1669.79 -1661.25 -1657.59 -1658.94 -1666.43 -1679.79 -1697.86 -1724.40 -1763.12 -1813.27 -1865.88 -1901.85 -1914.91
3232.10 3216.40 3171.64 3111.67 3070.81 3049.33 3031.11 3016.81 3016.48 3035.78 3069.67 3105.40 3133.92 3153.57 3163.97 3167.70 3168.08 3168.50 3170.02 3167.88 3157.73 3141.49 3125.01 3098.64 2958.82 2385.56 1446.35 873.36 750.24 758.26 778.83 786.20 777.43 757.31 728.82 700.77 685.99 687.79 701.33 714.63 716.96 713.78 712.32 713.92 715.25 712.00 703.42 691.62 679.10 663.73 622.42 483.31 262.77 126.88 92.87 87.95 85.67 81.69 75.57 69.30 65.37 64.02 62.43 51.98 14.09 -44.61 -79.47 -85.48 -83.72 -83.67 -86.03 -87.57 -86.18 -83.67 -82.90 -84.98 -96.58 -139.48 -207.02 -244.15 -247.34 -243.29 -239.99 -238.12 -237.98 -238.71 -239.80 -241.45 -243.95 -247.57 -252.85 -259.77 -265.79 -269.81 -272.76 -274.64 -275.37 -275.91 -277.16 -279.34 -281.28 -281.41 -281.23 -281.11 -280.14 -280.00 -280.35 -280.80 -281.54 -281.84 -281.85 -281.70 -281.78 -284.16 -293.16 -308.44 -320.83 -345.09 -461.15 -809.53 -1313.36 -1596.68 -1644.64 -1637.00 -1631.14 -1629.97 -1633.31 -1641.87 -1655.31 -1671.92 -1694.52 -1728.12 -1771.49 -1815.07 -1843.01 -1852.43
3215.15 3195.35 3145.73 3086.90 3049.48 3030.25 3016.61 3007.79 3009.79 3027.31 3057.03 3088.83 3113.23 3129.42 3139.83 3151.53 3168.88 3187.28 3200.75 3202.31 3186.94 3162.66 3140.71 3112.15 2974.65 2407.41 1475.62 910.27 793.39 801.56 811.74 801.73 776.34 745.44 711.23 681.63 667.90 670.65 684.44 698.25 701.08 697.35 695.08 697.45 699.90 696.05 684.66 670.22 658.16 647.19 611.46 476.51 258.74 123.88 88.75 80.99 76.31 71.88 68.11 66.13 64.88 63.00 59.44 48.22 12.27 -44.42 -79.83 -87.15 -85.36 -83.85 -83.93 -83.16 -79.79 -75.49 -73.65 -75.73 -87.50 -130.15 -198.24 -237.37 -242.66 -239.91 -237.64 -236.28 -236.43 -238.02 -240.37 -243.41 -247.11 -251.07 -256.13 -262.66 -267.97 -271.19 -272.94 -273.79 -274.13 -274.50 -275.88 -278.54 -281.27 -282.49 -282.33 -281.08 -279.22 -278.57 -278.92 -279.79 -280.62 -280.77 -280.98 -280.99 -280.65 -281.14 -286.31 -295.99 -299.08 -310.13 -414.39 -759.62 -1270.19 -1560.01 -1611.46 -1606.49 -1603.31 -1605.79 -1613.55 -1625.27 -1639.22 -1655.94 -1678.06 -1707.92 -1743.64 -1778.33 -1799.52 -1806.03
3211.14 3188.75 3134.46 3071.53 3032.39 3013.82 3003.56 2999.30 3004.26 3019.86 3042.42 3066.14 3084.81 3098.88 3111.11 3129.74 3159.16 3188.15 3204.14 3202.91 3185.17 3159.87 3135.47 3105.51 2970.89 2410.62 1488.06 931.60 819.68 826.93 830.68 809.30 770.68 730.57 694.30 666.18 652.44 652.37 663.26 676.69 680.42 677.19 675.38 678.42 680.98 676.52 665.24 652.05 641.60 632.92 600.63 469.64 254.83 121.05 86.26 79.11 74.98 70.56 67.56 67.81 67.92 65.12 60.41 49.94 16.49 -38.38 -74.13 -82.35 -79.91 -76.80 -75.54 -73.99 -70.50 -66.79 -65.24 -66.99 -78.36 -120.84 -189.65 -231.14 -239.13 -238.32 -237.59 -237.31 -238.27 -240.70 -243.48 -246.78 -251.10 -255.81 -261.26 -267.22 -270.96 -272.35 -272.46 -272.63 -273.46 -274.24 -275.76 -278.44 -280.91 -282.44 -282.73 -281.13 -278.58 -277.25 -277.72 -278.97 -280.14 -280.57 -280.60 -280.54 -280.43 -280.55 -283.55 -288.60 -284.36 -284.20 -374.96 -713.04 -1227.19 -1522.93 -1578.22 -1576.41 -1576.28 -1582.24 -1594.04 -1609.62 -1626.44 -1645.75 -1669.10 -1696.61 -1727.46 -1756.51 -1773.15 -1777.79
3220.56 3195.33 3135.02 3065.70 3024.28 3008.06 3000.96 2997.47 2999.68 3008.73 3022.09 3036.50 3050.32 3065.84 3083.51 3106.92 3137.53 3164.76 3176.04 3170.93 3155.20 3134.08 3110.84 3081.85 2950.21 2395.93 1481.71 932.36 823.65 832.08 837.50 815.46 771.03 723.88 686.40 659.94 645.21 641.29 648.60 660.62 664.29 661.25 659.82 662.02 662.98 657.76 648.15 638.47 630.82 623.61 593.01 464.11 250.48 117.69 85.58 82.63 81.76 78.42 75.05 74.79 74.92 71.81 67.26 57.92 24.73 -30.93 -67.20 -75.13 -71.56 -66.77 -64.04 -62.51 -60.91 -59.69 -59.21 -60.76 -72.07 -115.24 -184.69 -227.40 -237.27 -238.13 -238.87 -239.95 -241.80 -244.45 -246.91 -249.94 -254.59 -260.13 -266.01 -271.14 -273.43 -273.46 -272.76 -272.84 -273.90 -275.15 -277.32 -279.98 -281.57 -282.33 -282.58 -281.13 -278.71 -277.60 -278.30 -279.32 -280.43 -281.17 -281.18 -281.03 -280.88 -280.79 -282.22 -283.51 -274.40 -267.07 -347.09 -675.75 -1186.58 -1484.82 -1543.81 -1545.05 -1547.73 -1556.88 -1572.52 -1592.78 -1615.15 -1639.54 -1666.40 -1696.48 -1729.24 -1757.77 -1771.68 -1774.71
3235.31 3208.14 3144.46 3072.02 3031.33 3019.26 3014.75 3007.92 3000.43 2997.52 3000.91 3008.47 3019.80 3037.61 3059.77 3083.50 3106.76 3123.25 3127.56 3122.67 3112.72 3097.08 3076.64 3050.77 2923.19 2373.65 1464.50 917.93 809.29 819.66 830.24 812.87 770.37 723.36 687.54 663.96 649.45 641.72 644.71 654.26 656.68 652.58 650.14 650.27 649.04 643.96 636.55 629.94 625.27 620.05 590.72 462.11 247.92 116.31 87.78 89.19 92.06 90.68 86.97 85.23 85.20 82.97 79.46 70.25 34.62 -23.92 -60.65 -67.68 -63.46 -57.60 -53.64 -52.70 -53.94 -55.58 -56.26 -58.28 -70.30 -114.25 -183.98 -226.84 -237.37 -239.31 -241.61 -244.51 -246.85 -248.48 -249.69 -251.88 -256.54 -262.87 -269.30 -274.04 -275.39 -274.90 -274.74 -275.28 -276.26 -277.61 -279.82 -282.00 -282.72 -282.38 -282.27 -281.36 -279.67 -278.98 -279.28 -279.69 -280.73 -281.60 -281.59 -281.34 -281.37 -281.66 -281.72 -279.52 -265.99 -253.38 -326.17 -646.53 -1151.31 -1449.10 -1510.42 -1513.22 -1516.51 -1527.03 -1545.86 -1571.96 -1602.21 -1633.77 -1667.96 -1706.37 -1744.45 -1775.80 -1792.71 -1797.58
3245.45 3222.99 3165.86 3094.34 3053.71 3044.24 3039.56 3026.28 3007.76 2993.75 2988.25 2989.94 2999.28 3018.10 3040.90 3060.47 3074.69 3082.16 3084.50 3085.74 3083.97 3072.19 3051.86 3026.18 2899.28 2350.40 1441.89 893.81 783.15 795.65 811.90 802.23 768.78 728.34 697.18 679.86 669.11 658.52 656.44 663.09 663.94 657.19 650.88 647.03 643.06 638.43 633.43 628.82 625.80 622.67 595.24 466.89 251.95 120.71 93.63 96.48 101.46 102.70 100.34 97.53 96.49 95.55 93.39 82.84 44.05 -16.30 -52.75 -59.32 -55.35 -49.59 -45.69 -45.30 -48.68 -53.05 -55.58 -58.85 -71.90 -116.51 -186.46 -229.15 -239.83 -242.40 -245.90 -250.39 -253.00 -253.06 -252.16 -252.55 -256.46 -263.38 -270.80 -275.91 -277.03 -276.81 -277.70 -278.87 -279.87 -280.68 -281.41 -282.18 -282.27 -281.81 -281.86 -281.48 -280.26 -279.52 -279.36 -279.47 -280.51 -281.24 -281.22 -281.22 -281.67 -282.20 -281.56 -277.20 -259.78 -242.27 -310.25 -624.81 -1123.09 -1417.34 -1478.90 -1483.27 -1487.22 -1498.00 -1518.40 -1548.92 -1586.68 -1626.89 -1672.32 -1721.70 -1764.72 -1798.61 -1820.29 -1828.18
3261.92 3246.52 3197.24 3123.72 3077.31 3064.15 3054.23 3032.91 3005.89 2984.92 2973.16 2969.78 2976.84 2994.45 3014.18 3028.24 3037.36 3043.25 3049.58 3059.63 3066.66 3058.51 3036.22 3005.66 2873.31 2320.98 1412.35 864.11 753.93 769.66 791.61 791.47 770.39 740.02 715.96 706.09 700.83 690.22 684.17 687.07 685.06 673.69 661.18 652.45 646.29 642.12 638.90 635.39 632.73 631.06 606.18 479.64 265.45 133.96 105.61 106.84 111.81 115.24 114.41 110.05 106.72 106.60 106.08 94.26 53.04 -7.50 -42.81 -49.63 -47.36 -43.24 -40.68 -41.15 -45.61 -51.78 -56.69 -61.81 -75.39 -120.28 -190.94 -233.70 -244.28 -247.58 -251.90 -256.69 -258.95 -257.91 -255.43 -254.18 -256.83 -263.33 -271.16 -276.59 -277.79 -278.11 -279.38 -280.31 -281.07 -281.55 -281.22 -280.59 -280.32 -280.56 -281.21 -281.37 -280.86 -280.51 -280.61 -280.77 -281.51 -282.19 -282.65 -283.14 -283.34 -283.30 -282.66 -277.71 -257.11 -233.78 -295.07 -601.48 -1091.22 -1382.11 -1445.58 -1452.50 -1457.57 -1468.13 -1489.21 -1522.34 -1565.15 -1614.19 -1670.94 -1728.61 -1776.00 -1810.88 -1831.99 -1839.23
3186.00 3169.65 3118.36 3043.73 2993.77 2972.17 2952.34 2922.85 2891.12 2866.89 2851.02 2843.52 2845.57 2855.62 2867.39 2875.62 2883.16 2893.03 2906.77 2924.55 2937.91 2934.17 2912.32 2877.30 2742.67 2209.35 1341.61 821.05 719.62 738.02 763.50 771.57 761.35 742.53 727.93 723.32 720.50 711.52 705.72 707.84 703.19 686.38 667.71 655.47 649.35 646.38 643.77 640.28 637.31 636.05 613.50 492.09 283.88 154.51 123.77 121.75 125.18 128.74 128.16 123.02 118.57 118.37 118.20 105.79 63.52 2.49 -32.73 -40.68 -41.11 -40.00 -39.68 -41.46 -46.59 -53.44 -60.00 -66.36 -79.36 -123.59 -194.96 -238.57 -249.47 -253.48 -258.32 -262.55 -264.00 -262.75 -260.18 -258.39 -259.73 -264.82 -271.57 -276.50 -277.55 -277.73 -278.48 -278.74 -279.22 -279.93 -279.94 -279.06 -278.43 -278.97 -281.14 -287.15 -295.95 -301.17 -302.92 -303.83 -304.61 -305.38 -306.21 -306.52 -305.94 -305.45 -305.07 -298.72 -269.86 -230.90 -275.87 -563.49 -1032.84 -1315.15 -1380.01 -1388.74 -1393.72 -1403.63 -1424.62 -1458.05 -1501.90 -1556.04 -1620.65 -1683.12 -1732.69 -1767.55 -1785.78 -1790.78
2693.66 2671.44 2616.00 2549.37 2503.68 2471.28 2437.71 2400.75 2367.22 2342.29 2324.24 2310.88 2295.45 2277.88 2269.98 2270.73 2277.40 2291.57 2311.43 2333.03 2348.41 2348.50 2330.92 2298.27 2186.89 1772.83 1108.84 715.81 645.58 665.47 689.05 699.55 696.28 688.07 684.06 684.80 683.08 676.94 680.57 695.44 695.06 675.04 652.83 639.88 636.02 634.95 631.52 626.09 621.46 619.30 598.48 486.86 294.55 174.10 143.37 139.25 140.83 143.02 142.61 138.94 135.65 134.84 133.10 120.10 76.70 11.54 -27.73 -38.37 -41.19 -42.75 -44.20 -46.81 -52.34 -59.35 -66.24 -72.56 -84.16 -126.44 -196.91 -241.10 -253.05 -257.70 -262.75 -266.78 -268.28 -267.49 -265.20 -263.53 -264.06 -267.35 -271.91 -275.40 -276.01 -276.06 -276.68 -276.88 -277.60 -278.91 -279.80 -279.67 -279.07 -279.68 -287.14 -318.47 -368.80 -399.11 -407.07 -409.43 -410.45 -410.98 -411.41 -411.13 -410.27 -409.66 -408.89 -396.55 -340.16 -253.43 -256.51 -491.65 -890.80 -1132.63 -1188.86 -1196.42 -1200.57 -1209.92 -1229.90 -1260.62 -1300.13 -1353.34 -1422.35 -1488.53 -1537.24 -1570.00 -1586.51 -1591.10
1856.87 1833.51 1780.58 1722.87 1680.32 1637.99 1591.09 1546.62 1510.90 1485.78 1466.54 1444.60 1400.18 1337.77 1300.43 1292.04 1296.78 1311.74 1333.57 1355.21 1369.09 1370.22 1356.64 1331.58 1268.45 1062.02 740.80 558.51 536.09 555.48 572.08 578.12 576.09 574.26 578.87 586.56 589.05 590.23 613.41 654.85 667.14 647.48 624.60 612.54 611.16 611.82 607.07 598.41 590.83 586.23 565.30 464.87 293.89 187.28 159.75 155.24 155.26 155.77 155.34 153.60 152.43 152.25 150.32 137.22 90.92 18.92 -26.22 -40.32 -45.40 -48.95 -51.61 -54.49 -59.78 -66.54 -73.49 -79.73 -90.38 -130.02 -197.05 -239.84 -252.35 -257.62 -263.02 -267.76 -270.41 -270.49 -268.81 -267.62 -267.40 -268.33 -270.49 -272.82 -273.95 -275.34 -277.05 -277.65 -278.53 -280.13 -281.57 -282.25 -281.92 -282.80 -299.01 -371.93 -491.09 -563.13 -580.25 -583.01 -584.03 -584.56 -584.74 -584.27 -583.33 -582.38 -580.70 -559.12 -460.29 -300.99 -243.03 -397.70 -683.85 -858.10 -898.05 -902.81 -905.59 -913.24 -929.96 -955.62 -989.25 -1039.15 -1108.15 -1173.80 -1218.64 -1247.70 -1263.07 -1268.09
1379.25 1357.50 1305.89 1245.75 1198.56 1149.59 1094.82 1044.42 1005.15 978.62 958.58 930.57 866.31 773.62 715.73 699.72 701.28 713.95 733.73 752.08 762.10 762.11 751.83 734.25 704.69 628.68 519.17 465.57 468.82 483.53 492.40 492.98 490.26 491.50 500.22 512.04 519.44 529.59 570.11 633.27 657.67 639.92 616.65 605.07 605.01 606.80 601.70 591.22 581.73 574.22 550.04 453.17 292.74 193.26 167.31 162.49 161.66 160.50 158.85 157.47 158.06 160.66 161.81 150.71 102.88 26.68 -22.42 -39.46 -46.72 -52.01 -55.66 -58.89 -63.59 -69.82 -77.27 -84.02 -94.71 -132.85 -196.82 -238.01 -250.67 -255.83 -260.73 -265.65 -269.48 -270.87 -270.24 -269.22 -267.89 -266.73 -267.51 -270.13 -273.16 -276.53 -278.93 -279.24 -279.74 -281.32 -282.93 -283.98 -283.90 -284.90 -306.19 -404.37 -566.21 -664.25 -686.19 -688.24 -689.11 -689.89 -690.16 -689.78 -688.91 -687.98 -685.73 -658.61 -534.41 -331.32 -236.70 -342.97 -561.13 -694.78 -724.98 -728.01 -729.22 -733.63 -744.96 -764.89 -794.46 -840.28 -902.71 -961.55 -1000.94 -1027.54 -1042.69 -1047.77
1310.07 1289.04 1235.76 1168.15 1113.27 1059.92 1001.99 949.82 909.51 881.98 860.86 829.70 757.87 653.68 586.91 566.72 566.29 576.53 591.90 604.23 608.81 606.91 600.04 588.83 571.23 528.38 469.32 444.72 449.79 457.03 458.39 455.19 453.67 457.89 466.41 476.01 484.80 502.58 555.53 632.17 666.13 652.10 629.32 617.00 615.09 615.77 611.02 601.28 591.90 582.63 554.85 454.83 293.22 193.06 166.81 162.03 160.69 158.00 154.59 152.00 152.60 157.36 162.23 154.71 108.57 31.77 -19.42 -38.38 -46.78 -52.91 -57.56 -61.58 -65.96 -71.52 -78.93 -85.85 -97.33 -135.97 -199.06 -239.24 -251.73 -256.61 -259.90 -263.09 -266.37 -268.46 -268.52 -267.08 -265.38 -264.51 -265.89 -269.82 -274.17 -277.53 -278.91 -278.43 -278.86 -281.06 -282.78 -283.42 -283.45 -284.71 -307.16 -410.73 -582.38 -686.67 -709.72 -711.60 -712.20 -712.80 -712.95 -712.87 -713.01 -712.81 -709.92 -681.04 -551.45 -338.37 -234.55 -329.19 -532.31 -657.35 -685.28 -687.72 -688.24 -690.14 -696.37 -709.87 -733.30 -770.48 -821.57 -873.71 -911.04 -937.18 -952.31 -957.40
1312.50 1293.91 1243.87 1176.27 1118.07 1061.25 1000.50 949.02 911.71 885.06 862.47 829.52 755.39 647.96 578.89 557.44 555.16 561.72 571.70 578.52 579.11 576.11 571.48 565.21 553.94 518.51 466.03 443.31 444.85 444.85 438.67 431.69 431.59 438.03 444.05 448.86 457.04 480.75 544.20 631.63 674.16 665.45 644.55 630.60 624.41 621.38 615.90 607.77 599.61 589.75 560.09 456.07 290.29 188.11 161.88 157.39 155.51 151.93 147.48 143.98 143.55 148.00 154.73 150.17 106.93 31.27 -20.91 -40.94 -49.46 -55.15 -60.25 -64.71 -68.34 -72.57 -78.58 -85.39 -98.83 -139.91 -203.78 -243.23 -255.21 -259.74 -261.45 -262.17 -263.48 -265.16 -265.20 -263.47 -262.67 -263.89 -267.12 -272.11 -275.95 -277.36 -277.09 -276.24 -277.13 -280.12 -282.12 -282.32 -282.06 -283.35 -305.98 -409.88 -582.09 -687.15 -711.13 -713.54 -713.80 -713.88 -714.06 -714.43 -715.33 -715.53 -712.34 -682.92 -552.89 -339.10 -233.86 -326.34 -527.61 -651.92 -679.49 -681.60 -682.41 -683.96 -687.07 -694.25 -708.23 -731.45 -768.40 -813.90 -851.30 -878.72 -894.70 -900.25
1296.06 1276.74 1228.53 1166.03 1108.46 1047.50 983.24 933.12 900.92 878.37 857.72 826.71 755.02 650.26 583.77 562.22 556.01 556.16 559.95 562.80 562.43 560.66 558.22 555.82 549.66 518.15 466.70 442.37 440.64 435.43 423.78 413.88 413.63 420.04 424.71 428.61 438.13 465.45 534.84 628.41 675.59 670.45 650.96 635.65 626.17 619.64 612.79 605.72 598.70 588.91 558.55 452.54 284.78 182.45 156.94 152.44 150.35 146.95 142.74 139.21 137.31 139.69 146.33 143.44 102.51 28.46 -23.41 -43.57 -52.18 -57.43 -62.06 -65.91 -68.49 -71.23 -75.77 -83.22 -98.91 -142.30 -207.39 -246.95 -258.73 -262.73 -263.85 -263.45 -263.10 -263.21 -262.26 -260.75 -261.02 -263.84 -268.76 -274.10 -276.70 -276.58 -275.46 -274.91 -276.36 -279.26 -281.24 -281.34 -280.67 -281.58 -303.91 -408.00 -580.40 -686.06 -710.91 -713.60 -713.72 -713.70 -714.21 -715.07 -715.84 -715.34 -711.89 -682.49 -552.10 -337.91 -232.21 -323.72 -524.03 -647.94 -675.44 -677.48 -678.92 -681.40 -683.83 -687.31 -693.33 -703.78 -725.59 -758.72 -791.08 -818.68 -836.83 -843.44
1263.29 1243.18 1195.02 1133.49 1074.90 1013.04 951.21 905.75 877.59 857.86 840.29 814.57 750.54 653.88 592.69 570.48 559.05 552.70 551.18 551.50 551.22 549.96 548.60 549.24 546.02 514.86 461.34 434.19 430.48 424.15 411.47 400.44 398.61 403.72 409.79 418.36 432.85 461.89 530.10 622.23 668.56 664.17 645.94 630.82 620.33 612.36 605.05 598.91 593.01 583.72 553.30 447.73 281.62 181.38 157.41 153.52 151.86 149.26 145.22 140.14 134.90 133.73 138.81 137.19 98.74 27.06 -22.64 -41.79 -50.68 -56.21 -59.93 -62.56 -64.82 -67.52 -72.25 -81.07 -98.24 -142.36 -208.16 -248.16 -259.47 -263.06 -264.83 -264.70 -263.44 -261.97 -260.35 -259.72 -260.76 -263.92 -268.88 -273.23 -274.85 -274.89 -274.56 -274.91 -276.34 -277.91 -279.03 -278.89 -278.03 -279.02 -301.62 -406.04 -578.79 -685.30 -710.82 -713.46 -713.72 -713.89 -714.44 -715.45 -715.81 -714.59 -710.92 -681.57 -550.77 -336.13 -230.22 -320.98 -519.95 -642.88 -670.35 -672.70 -674.61 -677.85 -681.03 -684.12 -686.84 -690.72 -701.30 -719.69 -741.39 -764.73 -782.16 -788.75
1207.06 1192.04 1152.01 1094.51 1036.99 981.38 930.91 894.54 867.45 842.97 823.06 802.95 750.16 664.35 607.80 583.66 567.71 557.59 553.80 552.67 550.59 546.56 543.22 543.85 540.37 506.35 447.37 416.28 412.50 408.69 399.35 390.28 387.36 390.78 398.67 413.00 433.19 462.81 525.69 611.87 654.69 650.01 633.90 620.50 610.43 602.72 595.97 590.97 586.57 578.80 549.98 447.16 284.92 187.48 164.75 161.12 159.03 156.54 152.14 144.80 135.89 130.65 132.22 130.22 94.21 25.68 -20.54 -37.33 -45.36 -50.63 -54.06 -56.64 -59.41 -62.91 -68.90 -78.96 -96.72 -140.29 -205.62 -245.93 -257.16 -260.71 -262.85 -262.55 -260.74 -258.93 -257.95 -259.25 -261.87 -264.73 -267.51 -269.53 -270.47 -271.66 -273.09 -274.09 -274.18 -274.09 -274.61 -274.35 -273.61 -275.48 -299.55 -405.02 -578.25 -685.17 -710.81 -713.43 -714.27 -714.75 -714.70 -714.94 -715.26 -714.59 -710.97 -681.05 -550.02 -335.69 -229.81 -320.08 -517.63 -638.41 -664.76 -667.22 -669.76 -673.94 -678.05 -681.63 -683.96 -686.22 -691.51 -700.09 -712.20 -728.88 -742.40 -747.51
1141.92 1135.00 1110.61 1067.51 1020.65 976.88 939.60 911.52 882.39 848.18 821.30 804.37 761.14 683.17 628.01 600.75 581.53 570.92 568.44 566.80 561.13 552.29 544.22 540.68 533.65 495.59 430.42 394.81 391.96 392.32 388.01 382.36 379.42 381.07 388.42 404.72 427.97 457.96 517.72 600.21 641.03 636.77 622.45 610.81 602.17 595.85 590.04 585.47 582.42 577.54 552.19 452.82 293.71 197.73 174.53 169.24 165.13 161.91 157.70 149.97 139.75 131.40 128.02 122.73 87.54 22.17 -20.35 -34.08 -40.24 -44.96 -49.10 -52.90 -56.63 -60.78 -67.27 -76.97 -93.70 -135.73 -199.49 -239.46 -251.34 -255.27 -257.06 -256.28 -254.47 -253.28 -253.98 -257.96 -262.29 -264.24 -264.70 -265.42 -266.36 -268.04 -269.98 -270.32 -268.78 -267.96 -268.67 -268.93 -269.06 -272.06 -297.48 -404.12 -578.20 -685.20 -710.29 -712.84 -714.01 -714.81 -714.65 -714.06 -714.25 -714.45 -710.90 -680.14 -549.19 -335.76 -230.54 -320.99 -517.38 -635.71 -659.90 -661.51 -664.51 -670.13 -675.57 -679.39 -681.81 -684.42 -687.88 -691.74 -698.06 -708.37 -716.96 -720.17
1103.34 1099.45 1083.31 1053.65 1023.23 995.67 970.26 946.59 915.19 873.99 840.73 823.04 782.61 705.34 647.72 617.46 595.98 586.05 586.97 586.69 577.77 563.62 549.84 540.64 528.57 486.41 417.11 378.01 374.95 378.72 379.00 376.27 373.53 374.12 379.81 394.46 417.82 448.96 509.54 592.18 633.26 630.15 617.06 606.69 599.55 594.64 590.27 586.65 584.98 582.56 559.66 461.66 302.68 205.81 181.00 173.33 167.09 162.85 158.85 152.71 144.45 135.67 127.85 116.81 79.41 16.64 -21.95 -32.65 -37.47 -42.45 -47.79 -52.83 -57.07 -61.47 -67.92 -76.11 -89.89 -129.12 -191.03 -230.38 -242.58 -246.54 -248.34 -248.40 -247.72 -247.93 -250.80 -256.60 -261.04 -261.52 -260.70 -261.41 -262.51 -263.97 -265.61 -265.47 -263.67 -262.97 -263.89 -264.80 -266.17 -270.33 -296.45 -403.58 -578.18 -684.87 -709.09 -711.19 -711.89 -712.51 -712.75 -712.48 -712.87 -713.50 -709.99 -678.88 -548.11 -335.57 -231.24 -321.64 -516.79 -633.85 -656.89 -657.54 -660.42 -666.79 -673.30 -677.83 -680.73 -683.74 -686.54 -688.36 -690.82 -694.48 -697.05 -698.06
1108.34 1100.11 1078.46 1051.08 1032.62 1020.71 1005.87 985.35 955.84 916.03 879.71 856.31 810.49 727.79 665.52 633.38 612.33 604.81 610.20 612.81 602.23 584.19 566.23 552.50 535.74 488.69 414.59 370.99 364.80 368.89 371.77 371.00 369.08 370.51 376.48 390.00 412.39 443.99 506.45 591.20 633.91 632.41 621.13 612.00 605.89 602.56 600.25 597.73 595.73 592.95 570.01 470.88 308.78 208.81 182.31 173.02 164.96 158.82 154.03 150.10 146.18 140.21 130.38 113.39 71.33 9.27 -25.67 -32.73 -35.72 -40.77 -47.09 -53.57 -58.82 -63.38 -69.16 -75.24 -85.66 -122.30 -183.18 -222.29 -234.21 -237.98 -239.96 -241.45 -243.18 -245.85 -250.18 -255.51 -258.67 -257.91 -256.33 -256.60 -257.27 -258.61 -260.75 -261.40 -260.41 -259.78 -260.59 -262.21 -264.81 -269.93 -296.35 -403.00 -576.85 -682.65 -706.09 -707.57 -707.20 -706.77 -707.16 -708.11 -709.41 -710.40 -707.46 -676.71 -546.18 -334.06 -229.75 -319.33 -513.50 -630.79 -654.12 -654.09 -656.40 -662.75 -669.54 -674.87 -678.77 -681.73 -683.80 -684.85 -684.93 -684.10 -683.49 -683.84
1175.91 1164.47 1137.04 1106.94 1093.40 1092.62 1088.12 1073.60 1049.69 1015.50 979.48 951.81 903.24 820.37 756.48 723.39 705.60 704.04 715.04 719.97 708.21 687.51 666.40 649.17 626.15 561.05 459.31 396.99 382.15 382.02 383.99 384.10 384.60 389.31 398.21 413.38 435.44 465.26 525.91 609.63 653.44 654.18 644.76 636.79 632.40 631.62 630.37 625.84 620.13 614.59 589.31 484.59 313.06 205.92 176.59 166.72 158.17 150.18 143.74 140.80 140.58 138.27 128.89 108.89 63.71 1.74 -30.30 -33.72 -34.04 -37.68 -43.82 -51.39 -58.17 -62.67 -66.61 -70.38 -78.96 -114.86 -176.02 -215.64 -227.40 -231.00 -233.25 -235.88 -239.71 -243.99 -248.32 -251.92 -253.44 -252.09 -250.09 -249.66 -249.75 -250.75 -253.00 -254.19 -253.76 -253.21 -254.20 -256.83 -260.40 -265.92 -291.55 -392.71 -557.19 -657.38 -679.67 -680.95 -679.99 -678.75 -678.30 -679.35 -681.28 -682.86 -680.96 -651.98 -526.88 -323.68 -223.26 -307.83 -492.82 -605.17 -627.82 -627.99 -630.32 -636.27 -643.00 -649.10 -653.91 -656.83 -658.27 -658.88 -658.01 -655.87 -654.77 -655.12
1454.34 1442.68 1414.57 1383.84 1372.15 1377.97 1383.64 1379.26 1363.41 1334.12 1301.64 1278.97 1249.75 1199.96 1154.15 1124.19 1110.43 1116.62 1133.02 1137.85 1123.42 1099.06 1074.35 1053.20 1012.49 876.00 658.05 523.27 486.88 479.08 477.59 478.05 481.99 491.00 503.91 522.36 544.09 568.22 615.58 682.54 719.55 721.88 714.27 707.53 705.77 707.59 706.23 698.09 687.43 678.36 648.49 526.49 325.45 198.53 163.21 153.18 145.33 136.33 128.12 124.53 125.26 125.06 117.53 98.46 54.77 -4.56 -33.66 -34.56 -32.60 -34.04 -38.57 -45.37 -52.50 -56.70 -58.93 -61.45 -69.95 -104.84 -163.67 -202.14 -213.84 -217.61 -220.77 -224.95 -229.66 -233.47 -236.65 -238.54 -238.50 -236.82 -234.78 -233.58 -232.74 -232.51 -233.63 -234.58 -234.54 -234.58 -236.32 -239.97 -244.48 -250.20 -270.48 -346.24 -468.93 -544.43 -562.13 -563.62 -562.67 -561.00 -559.27 -559.07 -560.55 -562.25 -561.34 -539.06 -442.17 -284.63 -205.64 -269.33 -411.16 -497.01 -513.87 -514.69 -517.67 -523.22 -529.81 -536.05 -541.03 -544.30 -545.65 -545.65 -544.41 -542.50 -541.51 -541.73
1915.36 1904.72 1878.71 1849.33 1838.02 1845.76 1857.67 1862.85 1856.12 1833.61 1808.22 1797.38 1805.86 1819.52 1811.95 1790.64 1781.41 1794.92 1815.38 1818.88 1800.79 1771.38 1742.37 1716.43 1646.65 1391.76 981.57 728.55 661.43 645.85 640.49 640.68 647.21 659.88 676.51 697.12 717.38 734.47 760.70 796.07 816.79 818.97 813.92 809.50 809.90 813.06 811.66 801.73 788.25 777.13 741.89 594.23 348.65 192.88 149.63 137.97 129.35 119.87 110.97 105.97 105.20 105.15 99.32 82.99 43.95 -10.40 -37.05 -36.91 -32.99 -31.72 -33.58 -38.16 -44.20 -48.17 -50.14 -53.10 -62.66 -95.14 -147.84 -182.62 -194.11 -198.40 -202.04 -206.72 -211.31 -214.11 -215.43 -215.77 -215.58 -214.52 -212.23 -209.43 -206.72 -204.75 -204.53 -205.48 -206.25 -207.04 -209.72 -214.50 -219.76 -224.91 -235.56 -269.13 -323.10 -357.87 -367.56 -369.10 -367.98 -365.45 -363.06 -362.11 -362.97 -364.44 -364.32 -352.80 -303.16 -222.17 -179.98 -209.91 -279.70 -321.14 -328.03 -328.59 -331.51 -336.58 -342.85 -348.71 -353.69 -357.58 -359.27 -359.11 -358.26 -357.52 -357.56 -358.19
2187.75 2179.18 2157.12 2130.37 2119.27 2126.05 2138.76 2148.32 2148.82 2135.69 2118.84 2116.59 2149.60 2205.90 2226.71 2214.15 2209.09 2226.15 2248.66 2252.12 2232.06 2198.59 2163.78 2131.12 2040.16 1710.13 1180.05 853.16 767.17 747.39 739.70 738.36 744.46 758.37 777.19 798.50 817.87 831.73 844.21 856.62 864.10 865.90 864.24 863.93 866.51 869.64 868.00 858.13 845.18 835.12 797.87 636.05 365.73 194.54 146.86 132.76 122.26 112.48 103.39 96.03 91.72 89.60 84.47 70.93 35.49 -16.64 -43.60 -43.13 -36.61 -31.83 -30.49 -32.75 -37.08 -40.85 -44.01 -48.51 -59.37 -90.45 -139.11 -171.51 -182.97 -187.62 -190.92 -194.31 -197.52 -199.34 -199.20 -198.74 -199.46 -199.45 -196.98 -193.35 -189.72 -186.91 -186.16 -187.31 -188.63 -190.01 -193.30 -198.47 -203.48 -207.38 -211.72 -220.14 -232.92 -242.78 -247.25 -248.69 -247.75 -245.24 -242.99 -241.62 -241.65 -242.69 -243.05 -238.17 -217.17 -183.07 -164.53 -174.55 -200.25 -214.82 -216.02 -216.10 -218.20 -222.01 -227.26 -232.31 -236.82 -240.80 -243.51 -244.86 -245.21 -245.12 -245.33 -245.84
2235.87 2228.67 2210.53 2188.74 2179.41 2184.32 2194.21 2202.65 2205.90 2200.55 2191.22 2194.30 2238.13 2312.59 2348.38 2343.09 2339.91 2354.45 2374.39 2377.85 2358.88 2324.45 2283.80 2241.41 2138.31 1787.31 1227.49 882.00 792.01 772.55 764.19 760.03 762.44 774.19 792.58 813.76 832.75 845.33 852.12 855.42 857.20 859.32 861.03 864.62 868.92 871.44 869.84 861.81 851.55 843.76 807.13 643.81 371.06 199.54 152.24 137.70 126.60 117.04 108.04 98.48 89.76 83.28 77.56 66.25 31.29 -23.08 -52.54 -51.99 -42.61 -33.98 -29.12 -29.18 -32.10 -36.14 -41.21 -47.53 -59.22 -90.06 -137.65 -169.38 -180.50 -184.71 -187.37 -189.22 -190.44 -191.17 -190.97 -190.70 -191.43 -191.51 -189.57 -186.84 -183.66 -181.30 -181.23 -182.52 -183.81 -185.61 -188.69 -192.54 -196.56 -199.76 -202.46 -206.09 -210.44 -214.17 -216.40 -217.68 -217.69 -216.37 -214.72 -212.91 -211.91 -212.16 -212.54 -209.84 -195.95 -173.26 -161.51 -167.94 -183.73 -192.66 -193.23 -193.10 -194.02 -195.78 -199.36 -203.43 -207.03 -210.37 -213.68 -216.63 -218.06 -217.27 -215.58 -215.01
2226.69 2220.64 2205.94 2188.88 2182.01 2186.17 2193.07 2197.59 2199.01 2196.57 2192.49 2201.10 2253.10 2338.27 2384.61 2387.46 2386.92 2397.09 2409.24 2408.97 2390.76 2355.70 2310.97 2261.13 2150.81 1795.04 1231.53 884.94 798.07 782.31 773.91 765.75 762.28 769.25 785.20 805.01 821.72 831.07 834.45 835.76 836.85 839.17 842.10 846.73 851.50 854.98 855.93 851.36 843.84 836.82 800.11 637.87 368.40 200.96 156.66 143.71 133.48 125.19 117.23 107.32 96.24 86.31 79.14 67.23 28.83 -29.97 -61.19 -60.45 -49.39 -37.79 -29.95 -27.93 -29.88 -34.63 -41.22 -48.74 -61.39 -92.58 -139.30 -169.85 -180.16 -183.76 -185.70 -186.37 -186.26 -186.22 -186.28 -185.93 -185.45 -184.77 -183.87 -182.77 -180.35 -178.76 -179.30 -180.44 -181.91 -184.28 -187.02 -189.46 -192.87 -196.05 -198.72 -202.71 -207.01 -209.68 -210.46 -211.10 -211.53 -211.15 -210.54 -209.11 -207.62 -207.13 -207.46 -205.54 -193.21 -172.77 -163.06 -170.37 -185.68 -194.39 -195.66 -195.52 -195.05 -194.40 -195.67 -198.38 -201.11 -203.74 -206.77 -209.97 -211.52 -209.74 -206.73 -205.81
2213.19 2208.73 2197.33 2183.66 2178.66 2183.12 2188.94 2191.10 2190.24 2187.59 2185.95 2198.75 2256.33 2347.78 2401.04 2410.62 2412.46 2418.12 2421.51 2414.48 2393.43 2357.58 2313.34 2263.43 2152.08 1795.03 1231.93 888.59 807.09 795.08 785.44 772.57 763.45 765.54 778.18 794.24 806.05 810.73 812.28 815.13 817.75 820.11 822.19 825.59 831.37 838.20 843.12 842.44 837.17 828.75 789.36 626.11 358.97 196.16 156.18 145.85 137.49 130.96 123.99 114.97 104.90 94.81 85.75 70.13 26.28 -36.39 -67.36 -65.74 -54.14 -40.98 -31.59 -28.57 -30.62 -36.28 -43.74 -51.81 -65.19 -96.62 -142.16 -171.28 -181.48 -185.63 -187.23 -186.79 -185.61 -184.38 -183.60 -182.66 -181.01 -179.10 -178.38 -178.44 -177.56 -177.35 -178.09 -178.87 -180.67 -183.71 -186.75 -189.24 -192.74 -195.83 -198.39 -202.67 -207.19 -209.60 -209.63 -209.45 -209.86 -210.11 -210.15 -209.19 -207.56 -206.86 -207.28 -205.45 -193.92 -175.00 -166.68 -175.21 -190.91 -199.23 -200.70 -200.60 -198.95 -196.33 -195.02 -195.55 -196.87 -198.64 -201.15 -204.04 -204.93 -202.50 -199.48 -198.72
2203.43 2199.48 2189.75 2178.66 2174.88 2179.05 2184.44 2186.22 2184.90 2182.00 2181.47 2196.88 2257.55 2351.51 2407.50 2420.15 2422.45 2424.01 2420.94 2407.64 2382.77 2349.08 2311.11 2265.97 2156.33 1798.92 1236.86 896.64 817.91 805.71 792.79 776.70 764.74 763.10 771.20 781.54 788.12 789.53 791.14 797.04 802.02 804.84 806.06 808.35 816.05 827.11 835.61 838.25 835.01 824.95 781.69 615.27 347.52 187.31 151.38 143.93 137.12 131.40 125.62 118.66 110.40 100.06 88.44 69.31 22.26 -41.41 -70.86 -67.82 -55.85 -42.42 -33.17 -31.02 -34.35 -40.61 -48.47 -56.96 -70.41 -101.82 -146.77 -175.09 -185.79 -191.16 -193.10 -192.15 -189.91 -186.77 -183.83 -181.41 -178.68 -175.73 -174.77 -175.70 -176.60 -177.68 -178.60 -179.32 -181.46 -185.25 -189.37 -192.55 -196.04 -199.36 -202.22 -206.27 -209.96 -211.84 -211.86 -211.55 -212.08 -212.56 -212.29 -211.19 -209.48 -208.82 -209.35 -207.91 -197.28 -179.14 -171.03 -179.41 -195.05 -203.56 -205.64 -205.84 -203.58 -199.58 -195.81 -193.85 -193.40 -194.14 -196.27 -199.09 -199.77 -197.42 -194.53 -193.50
2200.97 2196.89 2187.12 2176.51 2172.83 2176.07 2180.05 2180.91 2179.61 2177.61 2178.91 2196.39 2257.96 2351.43 2407.06 2419.90 2421.88 2421.53 2414.92 2398.18 2373.34 2346.10 2317.04 2277.36 2168.39 1808.69 1244.83 903.43 822.62 806.81 790.83 774.22 762.18 758.04 760.72 764.96 767.41 768.25 772.37 782.03 789.28 791.75 791.77 793.93 803.82 818.27 829.93 836.00 835.53 825.61 780.03 610.83 340.36 178.83 143.89 138.27 132.19 126.43 122.31 117.51 109.72 98.07 84.27 63.64 17.09 -44.70 -72.39 -68.19 -56.28 -44.56 -38.06 -38.32 -42.44 -47.98 -55.28 -63.98 -77.76 -109.51 -154.55 -182.45 -193.00 -198.96 -201.44 -200.34 -197.32 -192.92 -187.83 -183.28 -179.31 -175.79 -174.89 -176.86 -179.54 -181.45 -181.83 -181.61 -183.47 -187.95 -193.28 -197.09 -200.83 -204.99 -208.63 -212.07 -214.36 -215.55 -215.81 -215.83 -216.29 -216.45 -215.73 -214.62 -213.19 -212.45 -212.80 -211.87 -201.79 -183.46 -174.44 -181.86 -197.77 -207.59 -210.84 -211.70 -209.38 -204.52 -198.96 -194.87 -192.57 -192.08 -193.88 -197.11 -198.49 -196.80 -194.75 -194.40
2202.48 2198.67 2188.69 2177.13 2172.64 2174.73 2176.99 2176.98 2175.87 2175.00 2178.21 2197.31 2258.39 2349.04 2401.66 2412.98 2414.77 2414.15 2406.30 2389.45 2368.83 2349.89 2328.43 2292.65 2184.18 1820.23 1248.91 900.98 816.12 797.87 781.81 767.34 758.23 754.53 752.95 751.17 749.65 750.63 757.84 770.93 779.64 780.34 778.08 780.09 791.20 807.74 822.62 832.54 835.34 826.72 780.46 610.05 337.34 172.40 134.94 129.43 124.46 119.11 115.85 112.11 104.32 92.41 78.93 59.45 15.16 -44.72 -72.35 -68.83 -58.78 -51.47 -49.97 -51.66 -53.62 -56.90 -63.68 -72.99 -87.10 -119.00 -164.15 -191.45 -200.77 -206.46 -209.45 -208.33 -205.23 -200.93 -195.11 -189.18 -183.85 -179.53 -178.53 -181.09 -184.92 -187.41 -187.05 -185.57 -186.20 -190.05 -195.27 -199.53 -204.00 -208.68 -212.80 -215.91 -217.53 -218.50 -219.30 -220.21 -220.97 -221.00 -219.84 -218.45 -217.42 -217.07 -217.28 -216.11 -205.53 -186.40 -176.80 -184.34 -201.23 -212.07 -215.35 -215.88 -213.81 -209.37 -203.45 -197.98 -194.41 -193.31 -194.72 -198.03 -200.14 -199.54 -199.13 -200.08
2203.26 2199.72 2190.10 2178.42 2172.96 2173.57 2175.13 2175.83 2175.40 2174.67 2178.34 2198.07 2258.41 2346.16 2394.92 2403.94 2405.21 2403.77 2394.65 2378.42 2361.54 2348.62 2333.06 2300.86 2192.89 1824.53 1244.88 890.99 805.42 789.57 777.12 766.60 761.38 759.14 754.72 748.12 742.94 742.15 749.36 764.26 774.24 773.36 768.26 767.86 777.35 795.38 814.43 827.46 831.71 823.83 778.49 609.29 336.68 169.35 128.19 120.90 116.44 111.58 108.44 105.78 98.93 88.07 77.20 61.12 19.20 -41.46 -72.67 -72.49 -65.70 -62.89 -64.45 -64.58 -62.97 -64.65 -71.79 -81.91 -96.20 -128.08 -173.13 -199.65 -207.33 -211.79 -214.54 -213.55 -210.94 -207.26 -201.81 -195.80 -190.07 -185.63 -184.79 -187.20 -190.68 -192.93 -191.98 -189.64 -188.94 -191.28 -195.33 -199.38 -203.63 -207.63 -211.68 -215.40 -217.63 -219.12 -220.97 -223.06 -224.64 -224.97 -223.45 -221.60 -220.87 -221.15 -221.21 -219.28 -207.46 -187.09 -177.56 -186.54 -205.06 -216.64 -219.21 -218.14 -215.37 -211.63 -206.61 -201.07 -197.53 -196.85 -197.99 -200.75 -203.30 -204.30 -205.64 -207.39
2198.73 2195.08 2185.06 2172.42 2165.67 2165.28 2166.86 2168.09 2168.09 2167.72 2171.54 2190.71 2249.50 2334.89 2380.87 2387.77 2387.20 2383.43 2372.80 2356.36 2339.13 2326.66 2315.05 2287.66 2180.38 1811.76 1234.56 884.66 803.56 792.15 783.75 776.00 771.32 767.32 760.55 752.77 746.80 743.13 746.44 760.16 771.56 770.83 762.53 756.88 761.94 780.39 803.55 818.73 822.70 814.90 771.70 606.10 336.42 169.05 125.35 115.88 110.65 105.83 102.63 100.58 95.45 87.23 79.46 66.26 25.48 -38.41 -76.11 -80.87 -76.42 -74.95 -76.24 -73.95 -70.37 -71.73 -78.62 -88.33 -102.88 -135.30 -180.76 -207.11 -213.32 -215.26 -216.42 -215.76 -214.27 -211.27 -206.09 -200.39 -195.43 -192.30 -192.45 -194.60 -196.83 -197.79 -195.60 -192.08 -190.37 -191.96 -195.34 -199.08 -202.47 -205.20 -208.51 -212.80 -216.25 -218.60 -221.21 -223.94 -226.00 -226.46 -225.40 -224.35 -224.23 -224.49 -224.01 -221.17 -208.30 -187.03 -177.41 -187.48 -207.46 -219.73 -221.99 -220.04 -216.37 -212.06 -207.35 -203.04 -201.13 -201.58 -202.97 -205.09 -207.57 -209.68 -211.90 -213.72
2118.94 2114.95 2103.39 2088.68 2080.50 2079.29 2080.56 2081.30 2081.25 2082.12 2086.80 2104.41 2158.62 2237.72 2279.49 2283.98 2279.88 2271.94 2259.32 2241.91 2222.14 2206.25 2195.05 2172.03 2071.57 1727.31 1192.66 872.13 799.51 788.90 780.74 772.63 765.58 758.12 750.37 745.30 741.71 735.91 735.39 748.32 761.82 763.59 754.97 745.22 745.29 761.40 784.78 800.53 803.70 795.91 755.97 596.73 333.41 168.70 124.49 114.01 108.23 103.96 100.68 97.70 94.04 89.53 84.88 73.53 32.39 -35.91 -80.19 -89.93 -87.57 -86.16 -86.60 -83.53 -79.02 -79.38 -85.05 -93.47 -107.78 -140.18 -185.86 -212.36 -217.09 -215.54 -214.30 -214.60 -215.46 -214.29 -210.00 -204.83 -200.90 -199.18 -200.19 -202.17 -203.16 -202.44 -198.60 -193.60 -191.37 -193.57 -197.86 -201.96 -204.45 -205.88 -208.11 -212.07 -216.06 -218.61 -221.00 -223.77 -226.02 -226.61 -226.26 -226.20 -226.48 -226.54 -225.90 -222.72 -209.67 -188.39 -178.09 -187.30 -206.90 -218.82 -220.49 -218.50 -215.22 -210.48 -205.47 -202.56 -202.64 -204.40 -206.43 -208.10 -210.08 -212.00 -213.69 -214.99
1744.31 1739.16 1726.47 1711.75 1703.30 1700.50 1700.08 1700.05 1700.62 1703.04 1708.49 1722.23 1760.61 1815.06 1841.93 1841.61 1833.71 1822.21 1808.03 1789.24 1765.91 1744.16 1729.16 1710.33 1638.60 1396.76 1021.68 796.59 742.07 728.32 716.56 706.12 697.30 689.39 683.86 683.00 681.59 675.59 681.12 707.97 730.86 737.24 731.46 720.34 716.59 728.08 746.78 760.62 763.72 757.59 723.05 575.03 325.22 167.37 124.13 114.12 110.41 108.83 106.26 102.24 99.33 98.24 96.99 87.22 44.34 -29.35 -79.72 -94.86 -96.35 -96.39 -96.84 -94.12 -89.12 -87.74 -91.51 -98.34 -111.40 -142.50 -187.08 -212.51 -215.30 -211.00 -208.50 -210.33 -214.15 -216.46 -215.08 -211.51 -208.66 -207.46 -208.02 -209.16 -209.17 -207.24 -202.15 -196.10 -194.03 -197.44 -202.79 -207.12 -209.14 -209.95 -211.20 -213.93 -217.22 -219.14 -220.90 -223.48 -225.67 -226.32 -225.93 -225.71 -226.04 -226.18 -225.90 -223.05 -210.19 -189.14 -177.97 -183.73 -198.44 -207.06 -207.54 -205.85 -203.63 -199.62 -195.03 -193.10 -194.61 -197.49 -199.68 -200.86 -202.04 -203.24 -204.32 -205.23
1122.63 1116.31 1103.82 1090.79 1083.01 1078.47 1075.75 1075.11 1076.48 1079.66 1084.93 1092.90 1106.21 1119.99 1122.16 1115.11 1104.67 1092.07 1078.14 1059.42 1033.74 1007.65 989.11 975.12 948.08 868.22 743.02 662.59 633.15 614.95 598.34 585.56 577.82 574.98 575.84 578.35 576.19 571.32 593.40 649.66 689.39 699.68 695.37 683.60 676.95 682.72 693.55 702.11 705.58 703.93 676.84 543.10 311.67 163.32 121.73 113.57 114.91 118.50 119.05 116.16 113.62 113.81 114.00 104.06 58.42 -20.33 -75.57 -95.20 -100.82 -103.22 -104.22 -102.09 -97.71 -95.62 -97.72 -102.93 -114.17 -143.20 -185.29 -207.28 -207.24 -202.55 -201.57 -205.66 -211.96 -217.27 -219.17 -218.00 -216.51 -215.48 -214.88 -214.76 -214.45 -212.22 -206.58 -200.48 -199.13 -203.32 -208.63 -212.33 -214.43 -215.62 -216.25 -217.60 -219.65 -220.66 -221.65 -223.46 -224.81 -224.82 -223.95 -223.37 -223.70 -223.91 -224.07 -221.71 -209.25 -188.66 -176.55 -176.89 -182.69 -185.81 -185.63 -184.79 -183.21 -180.42 -177.28 -176.05 -178.07 -181.24 -183.22 -184.06 -184.60 -185.24 -185.80 -186.21
742.91 737.26 726.47 715.06 707.58 702.08 698.10 697.01 698.21 700.90 705.10 709.49 708.05 697.32 684.90 674.46 663.10 650.19 636.97 620.68 598.81 576.65 559.24 547.41 545.22 559.91 580.73 582.34 565.37 543.82 524.18 510.81 506.22 510.49 518.72 522.95 518.42 514.41 548.14 623.10 672.07 682.02 676.41 663.44 653.36 652.99 655.96 658.20 660.44 662.20 640.97 516.67 296.20 153.21 112.57 106.71 113.76 123.90 130.08 130.86 129.05 127.84 125.63 112.67 64.31 -16.25 -72.17 -92.96 -101.11 -105.45 -106.65 -104.56 -101.10 -99.52 -101.15 -105.45 -114.98 -141.66 -180.46 -198.22 -196.20 -193.23 -194.90 -200.87 -208.77 -215.68 -219.51 -220.46 -220.68 -220.23 -218.97 -218.53 -218.69 -216.41 -210.76 -205.63 -205.29 -209.64 -214.17 -217.12 -219.39 -221.05 -221.30 -221.46 -222.45 -222.89 -222.98 -223.73 -224.35 -223.43 -221.73 -220.61 -220.70 -221.13 -221.88 -219.95 -208.07 -188.40 -176.03 -172.65 -172.10 -171.69 -171.79 -171.69 -170.30 -168.43 -166.87 -166.53 -168.16 -170.70 -172.68 -173.77 -174.24 -174.15 -173.57 -173.30
650.45 646.96 639.19 629.96 623.26 618.28 614.40 612.56 612.71 614.63 618.12 621.33 616.54 601.10 587.30 578.03 567.13 553.04 538.90 526.38 514.79 504.35 492.60 479.83 477.12 504.28 549.83 564.75 548.74 525.97 506.44 495.28 495.25 505.10 517.75 522.48 516.28 512.59 549.77 629.01 678.53 685.48 677.35 662.99 650.62 646.49 645.31 643.67 642.70 642.36 620.51 497.34 279.19 138.38 99.46 96.29 107.36 122.40 133.57 138.56 138.69 136.56 130.93 114.14 63.51 -16.82 -70.30 -88.77 -96.38 -100.97 -101.94 -99.59 -96.37 -95.00 -96.58 -100.31 -108.61 -133.50 -170.38 -187.28 -186.92 -186.95 -190.35 -196.43 -204.24 -211.41 -215.67 -217.70 -219.59 -220.45 -219.95 -220.42 -221.34 -219.50 -214.92 -211.31 -211.45 -214.97 -218.38 -220.53 -222.06 -223.25 -223.30 -222.97 -223.66 -224.35 -224.08 -223.83 -223.72 -222.20 -219.64 -217.49 -217.32 -218.75 -220.54 -218.96 -207.44 -188.67 -176.78 -172.19 -169.56 -168.08 -168.15 -168.40 -167.50 -165.94 -165.03 -165.56 -167.09 -169.18 -171.11 -172.61 -173.36 -172.94 -172.00 -171.75
634.77 632.48 626.70 619.59 614.65 611.10 607.61 605.18 604.67 606.24 609.32 611.35 605.48 590.88 579.51 572.49 563.41 549.66 534.72 525.58 523.55 523.16 516.84 503.37 494.01 510.89 548.89 560.64 544.09 522.15 505.38 498.79 503.63 516.72 530.69 535.43 528.39 524.03 561.89 641.87 689.87 693.35 682.35 667.28 656.20 653.62 653.43 650.34 644.86 638.12 609.71 481.95 263.65 125.61 89.26 86.75 97.47 113.89 128.47 137.57 141.14 140.58 133.97 115.14 63.30 -16.18 -66.76 -81.61 -86.32 -89.22 -89.94 -88.17 -85.62 -84.77 -86.34 -88.93 -95.88 -119.67 -157.02 -177.39 -181.53 -184.71 -188.86 -193.61 -199.24 -204.65 -207.89 -210.18 -213.74 -216.81 -218.43 -220.45 -222.37 -221.85 -219.16 -217.05 -216.89 -218.72 -220.88 -222.16 -222.39 -222.23 -221.89 -221.78 -222.79 -223.93 -223.35 -221.74 -220.31 -218.64 -216.42 -214.32 -214.34 -216.66 -219.40 -218.40 -207.17 -188.62 -176.92 -172.62 -170.58 -169.01 -168.27 -168.48 -168.11 -166.63 -165.80 -166.78 -168.40 -170.13 -171.89 -173.80 -175.26 -175.49 -174.89 -174.61
630.25 628.32 622.57 615.69 611.69 609.25 606.57 604.56 604.07 605.41 607.95 608.71 601.92 588.21 578.50 572.69 565.56 554.96 542.67 535.99 537.56 540.69 536.30 522.03 508.11 516.84 547.41 556.16 540.37 521.18 508.68 506.85 514.25 527.42 541.32 547.23 540.99 536.34 574.67 654.63 700.02 699.70 686.28 672.16 665.26 667.69 670.66 666.63 656.86 644.29 610.14 478.41 259.54 123.20 87.04 80.75 86.27 99.88 115.69 129.23 137.83 140.82 135.65 117.26 66.09 -11.51 -59.74 -72.15 -74.53 -75.72 -76.03 -74.86 -73.54 -74.02 -76.09 -77.93 -83.87 -107.78 -147.50 -172.43 -180.20 -184.60 -188.52 -192.00 -194.91 -197.06 -198.49 -201.19 -206.80 -212.63 -216.58 -219.94 -222.64 -222.99 -221.42 -220.33 -220.10 -220.34 -220.93 -221.57 -221.26 -219.83 -218.86 -219.32 -220.87 -221.70 -220.11 -217.44 -215.24 -213.67 -212.44 -211.76 -212.32 -214.71 -218.03 -217.73 -206.56 -187.67 -176.10 -173.22 -172.85 -171.28 -169.27 -168.74 -168.73 -168.14 -167.75 -168.63 -169.93 -171.06 -172.62 -174.58 -176.54 -177.89 -177.92 -177.29
629.06 627.19 620.77 613.16 608.90 606.77 604.95 603.92 603.89 604.94 606.93 607.14 599.92 586.43 577.21 571.97 566.20 558.92 550.93 546.70 548.34 550.83 545.62 530.41 515.53 522.03 548.68 555.05 539.88 524.18 517.01 519.92 528.95 540.42 552.48 559.16 554.49 550.76 589.10 666.55 707.43 703.41 688.81 677.78 676.40 683.16 686.99 680.72 668.62 655.12 620.96 489.28 269.72 132.24 93.23 80.65 78.42 85.98 99.82 116.40 130.16 136.99 134.26 118.09 69.28 -5.79 -52.59 -64.81 -67.18 -67.80 -67.35 -65.73 -64.97 -67.09 -70.30 -72.07 -77.60 -103.00 -146.09 -174.51 -183.79 -187.36 -189.85 -191.89 -192.49 -192.29 -193.24 -196.76 -203.19 -210.14 -215.30 -219.56 -222.84 -223.24 -221.58 -220.50 -220.33 -219.76 -218.92 -218.71 -218.02 -216.08 -215.08 -216.10 -217.73 -217.72 -215.45 -212.74 -210.91 -210.01 -209.83 -210.64 -211.68 -213.54 -216.58 -216.38 -205.34 -186.50 -175.36 -173.83 -174.55 -173.05 -170.38 -169.16 -169.28 -169.78 -170.02 -170.56 -171.45 -171.74 -172.72 -174.71 -176.80 -179.03 -180.45 -180.33
629.70 627.20 620.65 613.45 608.71 605.86 604.06 603.36 603.45 604.21 605.96 606.15 598.33 584.05 574.73 570.56 566.51 561.57 556.97 555.06 555.90 555.85 548.76 533.71 520.87 529.83 556.31 561.27 546.54 534.39 532.59 539.82 551.67 562.87 571.27 574.37 568.86 566.06 603.57 676.81 712.75 705.79 691.39 684.48 688.10 696.26 697.75 688.85 676.64 666.29 636.15 505.98 285.05 145.01 102.78 84.96 75.15 75.58 85.58 102.54 118.92 127.54 126.86 113.61 67.75 -4.93 -51.33 -65.19 -68.78 -68.94 -67.14 -64.32 -63.90 -68.20 -73.28 -75.41 -80.46 -106.43 -151.22 -181.03 -190.66 -193.67 -194.87 -195.23 -194.35 -193.67 -195.47 -199.57 -204.63 -209.63 -214.18 -218.70 -221.98 -221.97 -219.94 -218.19 -217.51 -216.85 -215.70 -214.74 -213.49 -211.77 -211.09 -211.92 -212.87 -212.53 -210.93 -209.13 -208.13 -208.05 -208.61 -210.37 -212.06 -213.41 -215.87 -215.70 -205.08 -186.56 -175.66 -174.11 -174.74 -173.75 -171.72 -170.74 -170.94 -171.77 -172.43 -172.84 -173.61 -173.64 -174.40 -176.71 -179.15 -182.37 -185.41 -186.24
635.03 631.99 624.75 616.61 610.73 607.01 604.83 603.79 603.27 603.25 604.50 604.54 595.94 580.43 571.00 568.32 566.31 563.51 561.46 560.89 560.97 558.82 550.26 535.58 524.97 538.05 568.00 574.29 560.91 552.50 555.57 565.94 580.03 591.56 594.79 590.14 580.46 577.19 613.28 682.90 716.54 710.44 699.07 695.89 701.79 708.14 705.75 695.98 686.37 680.14 652.97 521.55 296.59 152.59 108.01 88.81 75.54 70.42 75.59 89.68 104.56 112.36 112.76 101.50 57.63 -13.32 -59.22 -73.81 -77.90 -77.71 -74.73 -70.46 -69.61 -75.21 -82.49 -85.91 -91.00 -116.31 -160.28 -189.27 -198.59 -201.90 -202.56 -201.12 -199.14 -198.72 -201.24 -205.69 -209.46 -211.95 -214.61 -217.93 -219.82 -218.65 -215.91 -213.29 -211.70 -211.14 -210.79 -209.90 -208.36 -206.99 -206.56 -206.91 -207.59 -207.95 -207.45 -206.64 -206.49 -207.00 -208.01 -210.15 -212.13 -213.42 -216.11 -216.51 -206.04 -187.43 -176.62 -174.69 -174.62 -173.74 -172.51 -172.40 -173.11 -174.37 -176.27 -178.67 -181.26 -182.85 -184.20 -185.98 -188.35 -193.04 -197.18 -198.20
646.50 642.56 632.52 620.55 612.58 608.48 606.01 604.60 603.69 603.03 603.33 602.72 593.86 578.08 568.79 567.03 566.42 565.56 565.00 564.21 563.56 561.02 552.82 539.46 530.32 545.77 581.35 595.26 587.81 582.20 586.23 596.48 608.85 616.02 611.64 598.29 583.03 578.11 613.40 682.67 719.06 719.07 713.95 713.70 718.43 720.85 715.65 707.38 702.04 699.57 672.13 535.10 303.22 155.07 110.13 93.45 81.49 72.97 71.34 78.59 89.03 95.22 95.72 84.64 41.20 -28.59 -72.67 -85.87 -89.79 -89.67 -86.23 -81.51 -79.99 -84.61 -92.12 -96.63 -102.44 -127.56 -170.75 -198.60 -207.33 -210.36 -210.39 -207.74 -204.80 -204.23 -207.09 -211.70 -215.15 -216.41 -217.22 -218.33 -217.78 -214.78 -210.86 -207.13 -204.35 -203.62 -204.35 -204.23 -202.66 -201.40 -201.29 -201.98 -203.70 -205.30 -205.37 -205.26 -206.17 -207.74 -209.49 -211.41 -212.71 -213.90 -216.92 -217.69 -207.23 -188.21 -177.15 -174.90 -174.19 -173.23 -172.60 -173.20 -174.87 -177.79 -183.19 -191.24 -199.81 -205.54 -207.31 -206.42 -207.32 -213.84 -219.70 -221.10
655.72 650.26 637.29 622.85 614.25 610.24 607.57 606.05 604.87 603.51 602.75 601.58 593.02 577.63 568.44 566.87 566.98 567.13 566.95 565.97 565.14 563.21 557.54 548.09 541.10 556.55 596.67 621.84 625.66 624.62 626.33 631.01 635.36 632.90 620.04 599.79 580.11 573.40 608.77 681.08 723.66 731.56 733.62 736.54 739.01 737.54 731.49 725.49 723.19 721.67 690.62 546.29 308.15 158.56 116.78 104.85 95.14 83.34 74.07 73.04 78.14 82.66 82.86 71.33 27.47 -42.08 -84.78 -96.18 -99.23 -99.12 -96.34 -93.03 -91.54 -93.47 -98.04 -101.65 -107.73 -133.13 -176.52 -203.98 -212.28 -215.22 -215.80 -213.94 -210.66 -209.07 -211.33 -215.11 -217.66 -218.39 -218.41 -218.12 -216.15 -211.96 -206.77 -201.81 -197.69 -196.19 -197.27 -198.14 -197.46 -196.78 -197.09 -198.45 -201.00 -203.48 -204.36 -204.85 -206.70 -209.76 -212.68 -214.36 -214.65 -215.33 -217.81 -217.97 -207.47 -188.58 -177.45 -174.91 -173.83 -172.91 -172.73 -173.82 -176.98 -183.15 -194.06 -209.84 -226.21 -236.77 -239.41 -236.77 -236.83 -244.87 -252.11 -253.94
