1218.08 1200.03 1143.64 1061.45 998.16 958.35 930.90 914.78 906.74 902.70 899.82 894.19 883.15 871.56 867.71 867.41 863.21 853.70 839.82 824.67 812.59 806.67 804.92 799.32 744.72 508.78 124.33 -103.80 -148.38 -146.46 -145.57 -150.65 -157.40 -163.75 -169.57 -173.86 -177.15 -192.87 -261.12 -374.30 -443.85 -460.22 -460.97 -458.49 -456.30 -456.95 -459.79 -462.13 -463.60 -465.49 -475.90 -515.83 -579.12 -616.62 -622.76 -621.00 -621.11 -622.95 -626.07 -635.71 -654.74 -676.14 -695.71 -733.94 -860.29 -1063.29 -1185.94 -1215.47 -1229.56 -1257.54 -1298.91 -1349.10 -1396.81 -1432.97 -1460.60 -1487.37 -1516.07 -1548.67 -1578.90 -1615.04 -1665.71 -1705.36 -1717.64 -1712.43 -1705.78 -1718.51 -1776.34 -1885.48 -2010.42 -2107.97 -2175.84 -2238.06 -2297.87 -2350.71 -2390.24 -2413.46 -2429.80 -2449.33 -2477.64 -2515.25 -2556.30 -2598.90 -2667.08 -2836.31 -3086.21 -3243.10 -3291.54 -3309.04 -3324.80 -3342.08 -3358.54 -3372.49 -3385.44 -3399.64 -3416.71 -3444.17 -3510.36 -3616.83 -3707.78 -3767.08 -3814.49 -3861.93 -3908.19 -3944.76 -3971.96 -3995.49 -4013.30 -4018.58 -3940.69 -3548.28 -2892.42 -2501.46 -2428.93 -2439.43 -2449.87 -2452.17
1234.31 1211.31 1146.42 1057.85 990.65 950.77 926.03 912.65 905.65 901.08 897.66 893.13 884.76 875.62 872.34 870.15 862.87 850.76 835.75 821.18 811.06 806.70 806.19 801.97 747.89 512.81 130.32 -96.38 -141.08 -141.15 -143.80 -152.31 -160.64 -166.39 -169.99 -171.39 -172.33 -187.27 -255.95 -369.62 -439.23 -455.92 -457.07 -455.13 -453.66 -455.46 -459.93 -463.12 -464.50 -466.70 -477.39 -517.29 -580.17 -616.96 -622.03 -619.47 -619.66 -621.63 -624.45 -632.58 -648.99 -665.66 -676.14 -702.61 -817.68 -1011.63 -1129.84 -1158.44 -1170.46 -1195.29 -1235.33 -1285.53 -1332.27 -1366.92 -1393.59 -1417.49 -1441.99 -1471.27 -1499.36 -1527.78 -1564.92 -1592.52 -1595.94 -1584.98 -1573.95 -1579.28 -1622.26 -1707.90 -1810.40 -1903.46 -1987.96 -2076.48 -2169.64 -2261.21 -2333.67 -2379.66 -2410.31 -2436.43 -2465.95 -2501.22 -2537.37 -2577.04 -2644.91 -2812.69 -3062.22 -3220.40 -3270.73 -3291.16 -3310.01 -3329.97 -3348.98 -3363.81 -3375.52 -3386.73 -3400.42 -3424.96 -3487.90 -3591.15 -3679.58 -3737.66 -3782.95 -3826.64 -3871.41 -3904.72 -3927.52 -3950.97 -3971.84 -3979.41 -3903.22 -3512.16 -2856.50 -2466.73 -2396.71 -2409.39 -2420.56 -2423.30
1243.73 1216.47 1145.33 1052.65 981.58 941.29 919.99 909.19 903.00 898.24 895.35 894.06 889.37 881.01 876.15 871.30 860.19 844.58 828.94 817.38 812.21 811.39 811.87 807.14 752.91 518.71 137.08 -89.68 -135.64 -138.07 -143.51 -153.86 -162.45 -166.31 -165.85 -163.38 -162.96 -178.76 -248.64 -363.06 -432.96 -449.91 -452.09 -452.02 -452.52 -456.14 -461.90 -465.61 -467.03 -469.33 -479.53 -518.11 -579.68 -616.02 -620.97 -617.94 -617.93 -619.97 -622.31 -627.85 -638.42 -648.31 -653.79 -677.18 -791.26 -985.23 -1103.76 -1131.66 -1141.36 -1161.87 -1194.77 -1236.02 -1276.94 -1309.81 -1335.42 -1357.64 -1380.08 -1408.02 -1435.53 -1457.75 -1482.21 -1500.29 -1501.52 -1493.19 -1484.93 -1486.87 -1512.56 -1564.13 -1630.28 -1706.09 -1801.12 -1915.30 -2032.95 -2145.34 -2240.78 -2318.78 -2380.20 -2421.82 -2454.41 -2488.04 -2521.26 -2558.50 -2624.66 -2790.91 -3041.14 -3202.99 -3256.72 -3279.23 -3299.95 -3322.48 -3343.73 -3359.03 -3369.47 -3377.92 -3387.96 -3409.34 -3468.94 -3567.48 -3651.67 -3707.70 -3752.13 -3794.71 -3837.63 -3867.18 -3882.90 -3900.50 -3923.33 -3937.81 -3867.01 -3478.46 -2823.80 -2433.41 -2362.03 -2374.79 -2387.48 -2391.56
1249.89 1220.75 1145.50 1047.74 973.86 934.63 915.76 906.43 901.97 899.29 898.61 900.56 897.86 887.34 877.64 868.68 854.49 836.97 822.50 815.46 816.57 820.71 821.87 815.43 761.34 528.36 145.91 -83.34 -131.90 -136.62 -143.07 -152.50 -159.58 -161.33 -158.02 -153.72 -153.51 -170.53 -241.59 -356.72 -426.58 -443.26 -446.77 -449.08 -451.77 -456.69 -462.88 -467.14 -469.12 -471.35 -480.37 -517.07 -577.39 -613.62 -619.22 -616.67 -616.79 -619.23 -621.26 -624.08 -628.68 -632.62 -636.14 -661.36 -778.80 -975.27 -1095.19 -1122.71 -1130.09 -1145.88 -1170.90 -1201.88 -1235.51 -1266.14 -1291.00 -1313.57 -1335.65 -1360.80 -1385.92 -1404.76 -1421.06 -1432.06 -1432.14 -1426.73 -1421.37 -1420.33 -1429.78 -1455.32 -1500.27 -1566.57 -1662.15 -1776.70 -1884.84 -1987.64 -2095.95 -2218.11 -2329.38 -2398.05 -2438.81 -2474.56 -2507.85 -2543.95 -2609.60 -2776.10 -3026.63 -3191.18 -3248.79 -3273.39 -3295.58 -3319.86 -3341.20 -3355.49 -3365.15 -3372.39 -3379.89 -3398.75 -3455.85 -3549.77 -3627.49 -3677.32 -3717.87 -3758.12 -3799.31 -3830.35 -3845.41 -3857.88 -3878.70 -3897.02 -3830.25 -3442.43 -2786.65 -2394.48 -2321.81 -2335.41 -2350.28 -2355.64
1256.27 1225.46 1146.70 1045.80 971.92 933.32 914.56 906.82 905.79 906.63 908.21 911.14 907.68 893.55 877.58 863.22 847.06 831.00 820.93 819.47 826.38 834.42 835.10 826.74 773.11 541.66 158.26 -74.34 -126.14 -132.69 -138.93 -146.60 -152.07 -152.68 -149.04 -145.71 -146.75 -164.72 -236.94 -353.03 -423.12 -439.47 -443.51 -447.02 -451.22 -456.94 -462.77 -467.19 -469.82 -471.62 -479.38 -514.92 -574.71 -610.75 -616.94 -615.67 -616.55 -619.39 -621.34 -622.83 -624.55 -625.73 -628.73 -655.81 -775.40 -972.70 -1092.83 -1120.20 -1126.20 -1137.89 -1156.14 -1178.04 -1203.52 -1229.23 -1251.07 -1272.91 -1295.08 -1318.18 -1341.40 -1359.22 -1371.91 -1378.40 -1378.10 -1376.27 -1374.24 -1371.01 -1370.28 -1381.30 -1415.41 -1476.43 -1560.99 -1649.66 -1726.53 -1811.17 -1932.53 -2096.84 -2255.11 -2354.92 -2413.36 -2459.94 -2496.51 -2531.68 -2598.74 -2769.49 -3022.34 -3187.35 -3246.88 -3274.14 -3297.84 -3321.85 -3341.10 -3353.71 -3362.75 -3369.36 -3375.59 -3392.87 -3448.04 -3538.69 -3610.14 -3652.28 -3686.07 -3718.73 -3753.86 -3786.84 -3807.50 -3820.88 -3838.39 -3854.81 -3787.90 -3399.04 -2743.12 -2353.16 -2283.49 -2298.85 -2313.29 -2317.65
1267.56 1236.18 1157.00 1056.71 983.09 942.49 922.08 916.31 919.83 924.55 927.17 928.19 921.47 903.28 882.24 863.48 846.30 833.48 829.61 834.68 845.77 854.20 852.68 842.08 788.34 557.94 174.48 -60.14 -114.70 -122.75 -128.62 -135.22 -140.18 -141.15 -139.25 -139.10 -142.80 -162.11 -235.93 -353.35 -423.66 -439.50 -443.09 -446.85 -451.87 -457.64 -462.34 -466.57 -469.28 -469.97 -476.75 -511.84 -571.27 -607.03 -614.08 -614.35 -615.90 -618.34 -620.06 -621.49 -622.60 -623.04 -625.68 -653.29 -773.60 -970.62 -1089.91 -1116.86 -1121.42 -1128.48 -1139.46 -1152.98 -1170.30 -1189.14 -1205.86 -1225.48 -1249.05 -1273.49 -1296.72 -1314.33 -1326.03 -1331.30 -1332.57 -1334.22 -1335.02 -1331.82 -1326.92 -1328.57 -1349.59 -1396.33 -1459.74 -1522.55 -1581.85 -1661.45 -1794.73 -1982.23 -2166.78 -2293.23 -2376.35 -2440.86 -2485.05 -2520.65 -2588.98 -2765.90 -3024.61 -3190.51 -3251.14 -3282.33 -3307.78 -3329.40 -3344.94 -3355.37 -3363.19 -3369.09 -3375.18 -3392.31 -3446.66 -3535.10 -3602.26 -3638.87 -3665.82 -3689.20 -3714.49 -3742.12 -3763.51 -3778.48 -3794.78 -3809.43 -3741.60 -3353.33 -2699.87 -2313.47 -2247.12 -2263.46 -2277.14 -2280.95
1324.33 1296.53 1221.16 1119.40 1042.89 1001.30 982.36 980.84 989.11 995.83 997.21 993.81 980.50 956.64 932.90 913.37 896.39 885.08 885.10 896.13 910.48 917.22 912.37 899.61 845.05 612.78 226.22 -10.88 -67.50 -77.52 -84.32 -90.68 -95.64 -97.98 -98.90 -102.51 -109.40 -131.15 -211.05 -338.11 -413.49 -429.28 -431.95 -435.82 -441.09 -445.87 -448.61 -451.48 -452.98 -452.34 -458.94 -494.72 -554.52 -590.57 -599.25 -601.05 -602.76 -604.69 -606.36 -607.95 -608.81 -609.20 -611.85 -638.54 -754.78 -945.14 -1059.92 -1085.18 -1088.15 -1091.26 -1095.93 -1103.13 -1114.04 -1126.76 -1140.27 -1158.35 -1182.15 -1208.25 -1232.60 -1249.80 -1259.41 -1263.92 -1267.44 -1271.11 -1273.23 -1272.16 -1267.40 -1263.55 -1270.12 -1294.97 -1337.71 -1392.05 -1454.73 -1542.36 -1687.51 -1889.80 -2091.75 -2241.14 -2346.63 -2423.71 -2474.17 -2513.29 -2583.63 -2764.04 -3026.63 -3194.57 -3258.12 -3294.38 -3321.33 -3339.32 -3350.26 -3357.66 -3363.62 -3369.39 -3376.56 -3394.45 -3449.61 -3537.88 -3602.52 -3634.67 -3655.85 -3673.64 -3692.16 -3711.60 -3727.98 -3741.83 -3757.29 -3770.49 -3702.40 -3316.26 -2664.51 -2277.40 -2210.09 -2226.51 -2241.59 -2246.83
1565.99 1541.48 1468.01 1361.37 1280.91 1241.17 1228.25 1233.43 1244.69 1249.15 1245.35 1234.91 1211.25 1177.31 1150.62 1132.90 1117.22 1106.17 1107.24 1121.32 1137.99 1144.43 1138.16 1124.75 1068.56 826.50 423.18 175.41 115.16 102.75 93.86 86.32 80.65 76.88 73.85 68.58 60.07 32.38 -72.82 -242.81 -344.46 -365.70 -368.49 -372.13 -376.56 -379.68 -380.53 -380.87 -379.83 -378.03 -385.25 -423.98 -487.68 -526.37 -537.18 -540.40 -542.38 -543.95 -545.17 -546.51 -547.46 -548.32 -550.85 -572.87 -669.63 -829.18 -925.64 -946.32 -948.14 -949.49 -950.95 -954.22 -960.37 -968.81 -980.72 -996.66 -1017.49 -1045.32 -1075.73 -1095.70 -1103.68 -1107.36 -1111.59 -1115.48 -1117.01 -1115.71 -1111.48 -1107.17 -1107.78 -1122.85 -1173.74 -1261.86 -1349.76 -1447.33 -1598.45 -1807.44 -2024.90 -2200.28 -2328.29 -2414.31 -2469.09 -2513.98 -2588.50 -2767.96 -3025.20 -3192.75 -3260.46 -3299.55 -3325.33 -3339.46 -3346.76 -3351.57 -3355.85 -3361.82 -3370.24 -3389.87 -3450.54 -3546.04 -3612.12 -3640.20 -3656.34 -3671.28 -3687.36 -3702.07 -3713.54 -3724.44 -3737.25 -3746.90 -3676.94 -3290.35 -2636.38 -2245.86 -2176.28 -2192.23 -2208.48 -2214.86
1974.47 1946.06 1868.36 1761.77 1680.41 1638.48 1627.47 1636.23 1647.56 1648.04 1637.47 1618.94 1584.74 1539.12 1507.56 1490.70 1476.66 1467.29 1469.44 1483.87 1500.88 1508.57 1504.21 1492.42 1433.89 1175.22 742.94 476.25 409.64 395.17 385.27 376.74 370.32 366.01 362.98 358.83 350.66 314.18 167.08 -73.75 -219.95 -253.09 -258.48 -261.90 -264.37 -265.35 -264.77 -263.21 -259.96 -257.71 -266.44 -309.64 -380.03 -423.43 -436.01 -439.81 -442.13 -443.37 -443.96 -445.02 -446.34 -447.54 -448.98 -463.32 -529.16 -638.53 -704.58 -718.01 -718.71 -719.63 -720.40 -721.70 -724.49 -729.57 -738.75 -751.07 -768.24 -799.39 -840.39 -867.99 -878.43 -882.34 -884.35 -884.81 -882.96 -878.64 -874.22 -872.69 -875.81 -898.49 -992.64 -1157.37 -1287.81 -1386.80 -1526.26 -1717.30 -1922.19 -2105.92 -2260.99 -2374.07 -2448.46 -2509.25 -2597.27 -2777.75 -3023.98 -3187.81 -3259.11 -3298.16 -3320.34 -3331.38 -3337.15 -3340.79 -3343.60 -3348.57 -3357.09 -3379.10 -3449.07 -3558.39 -3629.93 -3655.53 -3668.14 -3680.58 -3694.30 -3705.84 -3713.84 -3721.58 -3731.67 -3737.64 -3662.64 -3270.25 -2610.95 -2218.37 -2149.04 -2165.27 -2179.97 -2184.86
2270.45 2236.19 2149.70 2038.78 1952.09 1898.67 1878.50 1883.94 1893.66 1891.64 1877.09 1854.04 1815.82 1765.37 1730.40 1711.70 1697.28 1688.74 1691.31 1704.81 1721.22 1730.62 1728.91 1719.07 1658.98 1389.38 938.55 659.11 587.66 572.74 564.32 557.43 551.70 547.48 545.37 542.95 535.48 493.35 320.05 35.76 -138.34 -180.88 -189.55 -193.22 -194.14 -193.36 -191.72 -189.28 -185.22 -183.17 -193.12 -239.48 -314.99 -362.21 -375.65 -379.14 -380.98 -381.80 -382.21 -382.95 -383.91 -384.91 -385.95 -396.03 -443.63 -522.74 -569.85 -578.78 -578.99 -579.77 -580.84 -581.89 -582.99 -585.13 -590.23 -598.03 -611.81 -644.16 -691.22 -724.49 -737.84 -742.36 -742.58 -739.20 -733.87 -728.65 -725.05 -724.67 -729.72 -759.93 -885.78 -1101.31 -1256.27 -1345.44 -1458.21 -1610.46 -1771.14 -1935.07 -2109.18 -2259.18 -2373.81 -2475.54 -2597.14 -2788.56 -3030.79 -3192.67 -3265.12 -3303.90 -3325.10 -3335.92 -3341.82 -3344.87 -3346.61 -3349.85 -3356.97 -3378.74 -3452.73 -3570.37 -3646.09 -3671.30 -3682.20 -3691.47 -3700.84 -3708.42 -3713.89 -3719.89 -3728.37 -3732.14 -3652.32 -3252.85 -2587.90 -2194.04 -2125.58 -2141.78 -2154.54 -2158.10
2441.90 2401.45 2297.96 2165.32 2061.56 1993.03 1961.05 1960.85 1967.87 1965.57 1951.03 1926.59 1886.30 1832.56 1793.97 1771.94 1754.85 1743.77 1744.65 1757.73 1775.11 1786.69 1786.75 1777.35 1715.70 1442.12 985.51 701.38 628.63 615.80 610.99 606.65 601.42 596.76 594.72 593.29 586.30 541.84 360.86 65.49 -116.14 -162.32 -172.40 -176.25 -176.19 -174.17 -172.32 -169.99 -165.68 -162.99 -172.87 -220.95 -299.45 -348.67 -362.22 -365.02 -365.66 -365.75 -366.18 -366.60 -367.03 -368.14 -369.87 -379.61 -423.29 -495.32 -538.00 -546.64 -547.45 -548.29 -549.65 -551.03 -551.51 -551.59 -553.29 -557.39 -567.85 -597.78 -644.51 -678.42 -692.05 -697.02 -697.29 -692.97 -687.44 -683.50 -680.86 -680.37 -684.98 -716.39 -849.52 -1074.51 -1228.21 -1298.42 -1375.21 -1482.23 -1600.13 -1744.64 -1927.08 -2102.52 -2262.63 -2425.23 -2592.44 -2800.22 -3045.42 -3207.60 -3278.95 -3317.23 -3340.45 -3353.57 -3360.06 -3362.50 -3363.73 -3365.88 -3371.10 -3390.95 -3463.89 -3582.54 -3659.63 -3685.14 -3695.18 -3701.77 -3707.24 -3711.41 -3714.92 -3719.63 -3726.34 -3728.01 -3645.42 -3241.90 -2572.85 -2176.44 -2106.01 -2120.28 -2132.62 -2136.63
2565.00 2521.67 2403.38 2243.77 2119.62 2044.72 2014.02 2013.94 2015.78 2010.44 1995.89 1969.62 1921.47 1856.95 1811.79 1787.66 1769.33 1756.06 1754.25 1766.58 1786.03 1800.00 1801.73 1792.73 1729.55 1453.37 993.36 706.43 633.97 623.66 621.96 618.77 612.49 606.49 603.65 602.80 596.80 550.92 366.70 68.53 -115.18 -161.84 -170.90 -173.40 -171.55 -168.22 -166.61 -165.15 -161.06 -157.71 -167.27 -216.11 -295.96 -345.92 -359.11 -361.00 -360.55 -360.24 -360.79 -361.34 -362.13 -364.01 -366.61 -376.93 -420.37 -491.24 -533.50 -542.87 -544.20 -545.06 -546.44 -547.98 -548.75 -548.56 -548.90 -551.12 -558.83 -584.88 -628.46 -660.21 -672.68 -677.76 -678.51 -675.17 -671.12 -668.24 -666.15 -666.10 -670.72 -702.39 -835.86 -1057.47 -1202.06 -1255.28 -1300.42 -1366.78 -1453.63 -1582.95 -1766.78 -1965.49 -2169.25 -2386.15 -2587.79 -2808.64 -3059.68 -3224.41 -3295.50 -3332.19 -3356.31 -3371.72 -3379.36 -3381.89 -3382.65 -3383.76 -3387.28 -3406.46 -3479.03 -3596.87 -3673.39 -3698.50 -3708.68 -3714.99 -3719.16 -3721.18 -3722.13 -3724.31 -3728.47 -3727.64 -3642.81 -3237.13 -2565.78 -2167.00 -2093.34 -2104.48 -2116.04 -2120.26
2623.18 2583.59 2465.89 2296.22 2164.13 2094.18 2075.10 2080.36 2076.29 2060.83 2039.52 2007.55 1948.36 1872.15 1822.30 1798.94 1781.99 1768.36 1763.19 1772.60 1792.81 1809.17 1813.31 1805.80 1741.99 1463.03 999.35 710.38 638.14 628.16 626.56 622.64 614.24 605.94 601.83 601.23 595.90 548.83 362.69 63.62 -120.30 -165.52 -171.87 -171.82 -167.82 -162.96 -160.52 -159.30 -156.36 -154.06 -164.26 -213.37 -293.42 -343.53 -356.40 -357.09 -355.29 -354.70 -355.61 -356.99 -359.10 -361.97 -365.27 -376.04 -419.50 -489.69 -531.81 -541.57 -542.90 -543.61 -544.70 -546.27 -547.98 -548.97 -549.43 -550.86 -556.91 -580.23 -620.91 -650.57 -661.94 -665.67 -665.16 -662.26 -659.83 -658.30 -656.83 -656.85 -661.78 -694.49 -828.18 -1046.33 -1183.76 -1227.62 -1256.62 -1299.74 -1367.04 -1481.63 -1656.79 -1864.82 -2097.17 -2352.02 -2579.32 -2812.60 -3071.13 -3239.63 -3309.90 -3343.97 -3368.15 -3385.67 -3394.92 -3397.74 -3398.33 -3398.89 -3401.57 -3420.94 -3494.10 -3611.65 -3687.27 -3711.83 -3722.41 -3729.54 -3733.79 -3734.29 -3732.42 -3731.33 -3732.84 -3729.95 -3643.16 -3235.95 -2563.02 -2161.89 -2084.95 -2092.88 -2102.87 -2106.89
2608.87 2573.27 2471.68 2326.84 2211.87 2152.59 2141.40 2149.47 2142.14 2116.89 2082.94 2037.24 1966.89 1886.65 1838.07 1816.00 1798.05 1781.73 1773.63 1781.36 1801.65 1819.35 1826.01 1820.29 1755.77 1473.85 1007.59 718.14 645.17 633.00 628.66 622.20 611.08 599.99 594.25 593.06 586.85 539.53 354.46 56.60 -126.08 -169.14 -172.68 -170.21 -164.49 -157.71 -153.16 -151.72 -150.90 -150.89 -162.40 -211.77 -291.66 -341.84 -354.55 -354.03 -350.79 -349.61 -350.81 -353.22 -356.68 -360.13 -363.44 -374.36 -418.32 -488.60 -530.60 -540.35 -541.98 -543.28 -544.08 -545.16 -547.19 -549.00 -549.81 -550.83 -556.27 -578.71 -618.26 -646.91 -656.93 -657.97 -655.26 -652.60 -651.57 -651.05 -650.07 -649.75 -654.15 -687.21 -820.80 -1036.98 -1170.65 -1209.94 -1232.46 -1266.33 -1322.95 -1423.02 -1576.33 -1764.70 -1997.73 -2282.95 -2551.19 -2808.09 -3075.63 -3247.06 -3316.22 -3349.79 -3375.58 -3395.34 -3405.98 -3409.22 -3410.16 -3411.23 -3414.60 -3434.47 -3507.99 -3626.08 -3702.14 -3726.47 -3736.12 -3742.53 -3745.83 -3745.22 -3742.16 -3738.97 -3738.16 -3733.65 -3645.68 -3237.22 -2562.07 -2157.86 -2078.16 -2084.03 -2092.58 -2096.19
2555.86 2524.58 2444.96 2340.52 2258.48 2214.53 2204.53 2208.55 2200.72 2174.11 2129.60 2066.15 1985.39 1906.34 1860.40 1836.25 1812.85 1791.16 1782.71 1793.45 1814.81 1832.56 1840.48 1835.31 1768.63 1483.52 1016.52 727.93 653.83 638.18 629.68 619.40 604.91 591.13 583.55 580.80 573.50 527.87 346.25 50.64 -130.76 -172.13 -173.50 -169.09 -161.95 -152.96 -145.80 -143.69 -144.72 -147.74 -161.52 -211.15 -290.29 -339.94 -351.75 -350.02 -346.26 -344.81 -345.95 -348.82 -352.80 -356.49 -359.96 -371.41 -416.26 -487.33 -529.61 -539.45 -541.71 -543.80 -544.46 -544.88 -546.51 -548.16 -549.10 -549.78 -554.66 -577.26 -616.86 -644.63 -652.95 -651.84 -648.36 -646.81 -646.75 -646.16 -645.20 -644.56 -647.82 -679.76 -812.10 -1027.09 -1159.70 -1197.23 -1215.71 -1242.11 -1286.95 -1368.80 -1495.57 -1658.89 -1882.55 -2187.70 -2501.99 -2790.10 -3067.04 -3241.10 -3312.20 -3350.11 -3379.81 -3401.65 -3413.59 -3418.30 -3420.40 -3422.53 -3427.27 -3447.43 -3520.64 -3639.31 -3716.61 -3740.73 -3748.27 -3752.36 -3753.91 -3752.39 -3749.02 -3745.09 -3742.96 -3737.28 -3648.48 -3238.86 -2561.58 -2155.09 -2073.81 -2078.38 -2085.83 -2088.76
2506.44 2481.66 2420.08 2342.57 2286.80 2260.49 2252.77 2251.04 2242.40 2216.99 2168.76 2097.57 2011.43 1930.52 1880.61 1850.16 1821.73 1798.25 1793.81 1810.00 1831.96 1847.89 1854.22 1846.47 1775.91 1488.31 1022.17 735.03 660.58 642.74 630.98 617.07 599.06 583.03 573.70 568.51 560.82 517.77 339.26 45.97 -133.88 -174.21 -174.41 -168.58 -159.94 -148.93 -139.55 -135.94 -137.34 -143.14 -159.59 -209.53 -287.60 -335.81 -346.11 -343.67 -340.46 -339.63 -340.68 -343.17 -346.88 -350.92 -355.00 -367.23 -412.58 -484.40 -527.64 -538.20 -541.01 -543.45 -544.26 -544.54 -545.97 -547.28 -547.93 -548.42 -553.15 -576.18 -615.62 -641.62 -647.96 -646.09 -643.36 -643.03 -643.60 -642.98 -641.81 -640.72 -643.08 -673.61 -804.53 -1018.76 -1151.33 -1187.73 -1201.91 -1219.63 -1249.94 -1309.92 -1414.37 -1565.08 -1778.36 -2077.81 -2417.44 -2744.50 -3043.43 -3225.54 -3301.27 -3344.25 -3378.41 -3402.94 -3416.89 -3424.14 -3428.17 -3431.26 -3436.77 -3457.46 -3531.20 -3650.82 -3728.45 -3751.25 -3756.65 -3758.59 -3758.27 -3755.53 -3751.98 -3748.77 -3746.69 -3739.74 -3649.80 -3239.39 -2561.23 -2154.01 -2071.91 -2075.19 -2081.75 -2084.01
2474.85 2456.09 2404.18 2335.31 2291.42 2278.32 2276.41 2274.50 2266.13 2242.70 2198.80 2131.77 2042.80 1952.10 1890.15 1851.48 1822.69 1805.70 1809.42 1829.26 1848.26 1858.32 1859.52 1847.30 1773.51 1485.89 1022.56 738.02 664.93 646.70 633.08 617.51 598.31 581.74 570.74 562.44 553.83 512.47 335.93 44.75 -133.23 -173.23 -173.68 -167.63 -158.10 -145.96 -135.39 -130.41 -131.44 -138.38 -155.92 -206.10 -283.68 -330.89 -340.74 -339.09 -336.63 -335.78 -336.43 -338.64 -342.12 -346.24 -350.61 -362.96 -407.88 -480.15 -524.69 -536.24 -539.59 -542.17 -543.20 -543.54 -544.98 -546.45 -546.78 -547.22 -552.51 -575.75 -614.18 -638.27 -643.34 -641.90 -640.30 -640.29 -640.81 -640.67 -639.78 -638.60 -640.72 -670.59 -800.68 -1014.07 -1145.78 -1180.21 -1190.56 -1202.51 -1223.30 -1266.27 -1350.71 -1485.94 -1682.30 -1954.64 -2284.71 -2651.80 -2999.08 -3203.67 -3285.87 -3331.85 -3369.17 -3397.26 -3414.91 -3425.13 -3430.99 -3434.92 -3441.13 -3463.34 -3538.71 -3659.10 -3735.61 -3756.51 -3761.01 -3762.31 -3760.85 -3757.37 -3754.14 -3752.17 -3750.38 -3741.82 -3650.46 -3239.37 -2560.76 -2153.62 -2071.58 -2074.35 -2080.49 -2082.52
2445.20 2428.56 2379.38 2312.22 2272.61 2266.39 2270.62 2273.52 2270.55 2255.84 2222.65 2161.38 2066.83 1962.34 1887.79 1843.56 1818.38 1811.94 1823.38 1841.46 1852.64 1853.68 1847.54 1830.63 1755.80 1471.81 1014.94 735.97 666.22 648.10 632.85 617.77 601.47 587.12 574.94 563.40 553.03 513.03 339.40 51.47 -124.18 -164.49 -167.18 -162.89 -153.82 -141.83 -131.69 -127.12 -128.01 -134.12 -150.75 -201.39 -280.29 -328.66 -339.90 -339.83 -337.43 -335.02 -334.49 -336.67 -340.18 -343.87 -347.57 -358.97 -402.94 -475.01 -520.25 -532.46 -536.21 -538.88 -540.25 -541.22 -543.06 -544.85 -544.89 -545.07 -551.05 -574.60 -612.01 -634.84 -639.77 -639.45 -638.74 -638.55 -638.82 -639.23 -638.96 -638.22 -640.49 -670.13 -799.59 -1012.08 -1142.35 -1174.45 -1181.72 -1190.29 -1206.23 -1237.37 -1301.72 -1417.16 -1592.67 -1828.88 -2128.34 -2517.08 -2921.78 -3167.12 -3263.79 -3314.33 -3354.46 -3386.18 -3408.41 -3422.09 -3430.08 -3435.38 -3442.31 -3465.46 -3541.55 -3661.22 -3736.38 -3757.07 -3762.45 -3764.22 -3762.80 -3759.72 -3757.00 -3755.25 -3753.17 -3743.59 -3651.21 -3239.55 -2560.82 -2154.01 -2071.95 -2074.54 -2080.62 -2082.52
2339.09 2320.42 2270.53 2205.53 2164.54 2157.63 2167.41 2178.77 2186.11 2184.71 2163.57 2106.63 2008.34 1896.90 1818.31 1774.99 1754.96 1755.17 1766.86 1775.98 1776.51 1769.10 1755.72 1734.33 1662.63 1397.95 972.44 714.34 651.35 633.92 618.67 606.67 595.24 583.35 570.64 557.27 545.51 508.67 348.24 80.26 -83.11 -121.83 -127.51 -126.30 -119.86 -110.68 -103.45 -100.95 -101.98 -106.06 -121.12 -176.44 -265.51 -321.35 -336.29 -337.93 -335.01 -330.42 -328.17 -329.67 -332.98 -336.30 -339.18 -348.98 -390.37 -459.30 -502.94 -514.78 -518.35 -521.06 -522.74 -524.41 -526.71 -528.37 -528.22 -528.55 -535.86 -563.44 -606.59 -632.58 -638.45 -638.88 -638.58 -638.64 -639.42 -640.41 -640.44 -639.95 -642.12 -670.91 -799.09 -1010.19 -1138.85 -1169.21 -1174.47 -1180.12 -1191.52 -1213.46 -1260.46 -1352.91 -1498.49 -1698.75 -1976.22 -2373.31 -2821.23 -3112.66 -3233.53 -3293.47 -3339.17 -3375.69 -3403.09 -3421.44 -3432.37 -3439.53 -3447.10 -3469.33 -3542.76 -3657.89 -3730.06 -3751.14 -3757.70 -3760.02 -3759.34 -3757.55 -3755.43 -3753.41 -3751.19 -3741.72 -3649.26 -3238.05 -2560.76 -2154.95 -2072.32 -2074.37 -2080.68 -2082.65
1931.10 1912.66 1862.66 1794.88 1747.20 1737.87 1755.57 1779.06 1797.67 1806.68 1794.82 1746.16 1658.68 1558.13 1486.51 1449.36 1432.19 1427.91 1427.15 1421.35 1411.93 1399.19 1381.66 1358.82 1304.09 1116.24 816.45 636.03 591.43 575.95 562.51 553.94 545.89 535.35 523.28 510.86 500.14 474.77 364.19 176.56 61.87 33.57 27.00 25.46 27.79 31.15 33.22 33.29 32.02 29.41 11.52 -67.85 -199.63 -282.98 -305.78 -308.61 -305.15 -299.69 -296.32 -296.58 -299.08 -302.08 -304.69 -312.12 -344.58 -399.87 -435.14 -444.55 -447.43 -450.25 -452.14 -453.58 -455.32 -456.46 -456.58 -457.87 -469.40 -515.29 -588.76 -632.98 -642.96 -643.60 -643.21 -643.80 -645.22 -646.09 -645.85 -645.56 -647.78 -675.24 -800.29 -1007.08 -1132.65 -1161.64 -1165.83 -1169.36 -1177.03 -1192.61 -1224.81 -1289.76 -1400.27 -1570.99 -1838.00 -2250.72 -2739.42 -3068.95 -3211.81 -3284.08 -3337.66 -3379.60 -3412.48 -3437.14 -3452.81 -3462.24 -3470.08 -3488.92 -3551.32 -3649.48 -3711.13 -3729.94 -3736.45 -3739.18 -3739.92 -3740.07 -3739.11 -3737.52 -3735.88 -3727.35 -3636.17 -3228.56 -2557.21 -2154.87 -2073.07 -2075.53 -2081.90 -2083.59
1263.42 1246.32 1195.99 1124.42 1076.87 1074.38 1102.51 1135.85 1160.58 1174.04 1170.03 1137.58 1076.82 1002.97 943.42 909.08 886.95 867.07 845.44 824.51 808.49 792.75 773.85 753.89 728.41 664.64 568.64 512.83 496.48 483.75 471.37 463.66 456.15 446.43 436.83 428.65 423.12 416.93 384.90 326.28 290.24 280.14 275.08 272.00 270.40 267.79 264.44 261.68 259.59 257.18 231.42 110.70 -91.09 -217.95 -251.14 -254.65 -251.32 -246.46 -242.85 -242.05 -243.44 -246.23 -249.04 -253.49 -271.92 -304.46 -325.50 -331.00 -333.03 -335.87 -337.82 -338.19 -338.65 -339.64 -340.31 -342.35 -360.29 -435.96 -559.23 -634.03 -651.18 -652.65 -652.69 -653.49 -654.51 -654.68 -654.18 -654.09 -656.46 -683.04 -803.86 -1003.34 -1124.21 -1151.95 -1155.69 -1158.12 -1163.36 -1174.64 -1197.21 -1242.43 -1325.17 -1470.68 -1727.05 -2159.09 -2686.84 -3041.03 -3195.59 -3281.43 -3347.13 -3395.24 -3431.77 -3461.81 -3483.52 -3496.59 -3505.43 -3520.20 -3565.48 -3636.28 -3681.22 -3695.98 -3702.00 -3705.40 -3708.07 -3710.23 -3710.89 -3710.50 -3709.76 -3702.48 -3613.33 -3211.56 -2549.91 -2153.86 -2074.87 -2078.71 -2084.55 -2085.47
843.49 823.29 769.61 699.97 661.16 670.22 705.99 742.20 766.77 780.91 784.80 772.87 742.69 695.79 644.50 604.26 569.60 531.37 491.75 462.42 444.21 426.72 407.86 391.23 382.41 390.32 414.06 430.84 431.08 421.02 409.16 400.60 392.44 384.13 378.99 377.34 378.63 385.37 399.96 418.79 430.55 431.47 427.12 422.94 418.24 411.07 403.36 397.69 394.94 392.77 361.82 215.46 -28.29 -179.82 -218.02 -222.39 -220.25 -216.39 -212.98 -211.72 -212.63 -215.47 -218.73 -221.85 -231.77 -249.74 -261.56 -264.46 -265.47 -267.53 -269.43 -269.25 -268.94 -269.95 -270.58 -272.31 -293.81 -387.37 -540.70 -634.40 -656.03 -658.27 -659.09 -659.87 -660.18 -660.02 -659.42 -658.96 -661.25 -687.94 -806.46 -1000.98 -1118.70 -1145.70 -1149.10 -1150.97 -1154.60 -1162.80 -1181.88 -1221.09 -1289.21 -1413.75 -1654.63 -2084.93 -2615.82 -2973.11 -3136.63 -3239.83 -3325.84 -3386.80 -3429.06 -3463.46 -3489.73 -3506.72 -3518.37 -3532.47 -3568.44 -3623.74 -3659.56 -3672.45 -3678.62 -3683.03 -3687.34 -3690.72 -3692.72 -3693.77 -3694.15 -3687.93 -3600.14 -3202.23 -2547.42 -2155.80 -2078.06 -2082.14 -2087.77 -2088.64
722.43 701.87 647.73 579.38 546.04 561.83 599.86 634.55 657.55 672.68 683.29 687.31 680.16 653.15 609.24 564.59 518.83 468.27 421.69 391.18 370.95 350.97 332.30 316.52 308.44 326.55 370.84 399.98 403.65 396.01 385.63 376.83 369.05 363.79 363.75 368.11 374.52 385.48 410.30 446.16 468.22 471.21 466.11 459.54 451.41 440.99 430.35 422.95 420.35 418.53 385.83 232.99 -19.54 -174.15 -211.34 -215.92 -215.32 -213.28 -210.98 -209.53 -209.93 -212.31 -215.75 -219.53 -227.79 -241.30 -249.79 -251.52 -251.77 -253.10 -255.28 -255.80 -255.58 -256.06 -256.06 -257.13 -279.07 -376.76 -537.02 -635.12 -657.47 -659.16 -659.73 -660.74 -661.23 -660.99 -660.41 -659.85 -661.95 -688.72 -806.96 -1000.39 -1117.28 -1143.93 -1146.81 -1148.26 -1150.80 -1156.43 -1173.49 -1210.86 -1272.75 -1381.44 -1593.35 -1989.99 -2502.37 -2864.50 -3041.44 -3159.40 -3265.54 -3344.58 -3397.59 -3439.04 -3470.07 -3490.69 -3505.86 -3522.69 -3559.36 -3613.90 -3649.45 -3662.84 -3669.86 -3675.53 -3681.15 -3685.56 -3688.92 -3691.16 -3692.03 -3686.43 -3600.04 -3204.38 -2551.99 -2161.31 -2082.44 -2085.61 -2091.88 -2093.73
675.69 658.76 608.02 539.09 504.43 517.93 552.66 585.99 611.48 630.52 645.84 657.01 659.08 641.78 607.37 570.85 530.18 482.19 437.70 404.22 375.37 348.75 328.20 312.42 303.28 318.40 359.26 386.83 391.70 387.13 379.28 370.57 362.92 360.86 366.09 375.12 384.22 395.77 420.46 456.36 477.84 480.20 473.52 463.61 452.44 440.18 428.06 420.70 419.29 417.96 384.10 229.63 -23.61 -176.51 -210.93 -214.33 -214.75 -215.08 -214.94 -213.97 -213.63 -214.69 -217.07 -221.07 -229.90 -242.88 -250.27 -251.67 -252.28 -253.53 -255.42 -256.35 -256.64 -256.99 -256.62 -257.25 -278.81 -376.91 -538.00 -636.16 -658.05 -658.82 -658.49 -659.52 -660.34 -660.13 -659.75 -659.63 -661.90 -688.58 -807.04 -1000.96 -1118.14 -1144.68 -1147.01 -1147.69 -1149.12 -1152.36 -1165.85 -1198.03 -1252.00 -1342.17 -1517.00 -1876.79 -2383.25 -2765.51 -2957.61 -3082.50 -3195.18 -3283.40 -3346.97 -3398.15 -3436.98 -3464.33 -3484.42 -3505.27 -3546.76 -3605.10 -3642.53 -3657.41 -3666.04 -3673.27 -3680.08 -3685.81 -3690.84 -3694.25 -3695.41 -3690.39 -3605.60 -3211.66 -2559.61 -2168.16 -2088.38 -2091.48 -2098.80 -2101.95
649.73 632.76 582.94 516.55 478.30 478.87 502.00 532.32 561.28 583.30 597.69 606.05 605.93 590.47 567.00 551.80 535.33 504.13 464.85 423.88 382.86 348.09 323.73 307.28 299.41 315.47 355.83 383.17 389.51 388.15 382.62 373.07 364.60 365.03 374.61 386.40 395.92 406.56 428.74 461.04 480.16 481.65 473.25 460.36 447.30 434.80 423.74 418.50 419.25 419.05 384.62 228.92 -24.97 -176.98 -209.17 -210.79 -211.78 -214.36 -216.61 -216.77 -216.00 -215.59 -216.33 -219.52 -228.97 -242.96 -251.03 -253.27 -254.77 -255.88 -256.42 -256.58 -257.25 -258.20 -258.26 -259.21 -280.36 -377.78 -538.63 -636.35 -657.96 -658.81 -658.27 -658.91 -659.56 -659.46 -659.07 -659.00 -661.39 -688.19 -806.91 -1001.55 -1119.24 -1145.85 -1148.03 -1148.12 -1148.95 -1150.69 -1159.38 -1183.15 -1226.54 -1300.19 -1457.40 -1810.31 -2315.62 -2702.85 -2903.63 -3031.99 -3136.58 -3218.95 -3287.15 -3346.08 -3393.91 -3431.99 -3459.90 -3486.61 -3534.24 -3596.73 -3636.71 -3653.89 -3664.58 -3673.27 -3680.72 -3687.25 -3693.39 -3698.02 -3700.43 -3696.43 -3612.62 -3219.69 -2567.70 -2175.36 -2095.43 -2099.53 -2108.32 -2112.63
656.47 636.73 584.76 519.50 474.92 456.74 461.66 482.98 508.10 525.91 533.22 533.41 527.57 514.08 505.09 515.53 526.97 514.80 480.75 435.20 387.90 348.91 321.07 302.60 295.66 315.47 359.73 389.32 396.87 395.85 389.32 378.45 370.80 373.78 385.13 396.93 405.05 413.38 431.39 458.40 474.19 474.57 465.79 453.04 440.68 429.35 420.79 418.43 421.50 422.93 389.29 233.61 -20.64 -172.64 -204.00 -204.84 -206.59 -211.19 -215.30 -216.65 -216.26 -215.35 -215.12 -217.65 -227.50 -242.66 -251.90 -254.87 -256.59 -257.36 -256.57 -255.28 -255.75 -257.44 -258.16 -259.71 -281.13 -378.16 -538.53 -635.94 -657.60 -659.09 -659.03 -659.59 -660.07 -659.79 -659.03 -658.73 -660.76 -687.48 -806.15 -1001.05 -1119.25 -1146.29 -1148.58 -1148.66 -1149.91 -1152.10 -1159.09 -1177.84 -1214.02 -1277.88 -1427.31 -1776.42 -2273.12 -2656.22 -2862.59 -2990.22 -3082.82 -3156.38 -3223.74 -3287.00 -3345.41 -3396.44 -3435.48 -3471.94 -3525.81 -3590.75 -3633.12 -3653.32 -3666.75 -3676.52 -3683.70 -3690.08 -3696.13 -3701.48 -3705.63 -3703.01 -3619.99 -3227.66 -2576.22 -2184.06 -2104.07 -2108.58 -2118.04 -2122.25
683.78 662.12 608.11 540.65 487.73 452.73 440.09 449.26 465.37 475.79 475.86 468.85 458.42 447.86 451.51 479.35 508.74 510.29 482.61 439.79 393.70 353.04 323.16 304.42 298.55 321.43 369.34 400.52 407.06 402.56 393.04 383.52 380.00 385.14 395.36 404.48 409.47 413.57 426.20 447.99 460.83 460.73 453.74 444.63 435.10 425.76 420.20 420.70 425.34 427.73 395.81 242.29 -11.22 -164.01 -196.23 -197.62 -200.15 -206.06 -211.38 -213.94 -214.74 -214.73 -214.97 -217.75 -227.90 -243.63 -253.35 -256.02 -256.96 -257.10 -255.62 -253.41 -253.52 -255.92 -257.29 -259.02 -280.90 -378.41 -538.90 -636.02 -657.31 -658.91 -659.16 -660.02 -660.78 -660.28 -659.56 -659.70 -661.61 -687.80 -805.65 -999.97 -1118.23 -1145.64 -1148.32 -1148.65 -1150.69 -1154.95 -1164.82 -1185.40 -1220.46 -1276.27 -1406.64 -1731.97 -2212.96 -2591.94 -2800.35 -2925.91 -3015.09 -3088.07 -3157.10 -3226.84 -3297.30 -3360.49 -3412.19 -3461.78 -3522.57 -3589.33 -3633.41 -3655.65 -3670.87 -3681.04 -3687.96 -3694.27 -3700.18 -3706.18 -3712.12 -3710.84 -3628.52 -3236.17 -2584.48 -2192.67 -2113.15 -2118.02 -2127.53 -2131.04
701.50 681.85 629.77 559.08 499.03 454.82 430.69 428.93 437.86 446.00 444.63 433.41 418.16 407.23 416.57 450.76 487.13 497.67 478.14 442.32 400.23 358.06 327.02 310.09 306.80 331.54 379.63 408.64 411.50 403.61 394.03 389.46 391.53 398.32 406.07 410.48 410.36 409.02 416.54 434.45 445.67 446.21 441.76 435.95 429.10 422.92 421.66 425.30 430.48 432.55 401.93 250.81 -1.60 -155.27 -188.80 -190.71 -192.93 -199.09 -205.50 -209.76 -212.67 -214.66 -215.91 -218.68 -228.59 -244.32 -254.16 -256.37 -256.28 -255.76 -254.29 -252.29 -252.56 -255.25 -256.91 -258.54 -280.36 -378.18 -538.79 -635.53 -656.65 -658.35 -658.45 -659.26 -660.49 -660.40 -660.23 -660.94 -663.19 -688.90 -805.93 -999.86 -1118.01 -1145.12 -1147.73 -1147.98 -1150.54 -1156.99 -1170.35 -1193.58 -1226.94 -1273.97 -1388.19 -1694.39 -2158.29 -2523.37 -2724.90 -2845.70 -2934.85 -3012.31 -3087.28 -3164.66 -3245.43 -3321.70 -3387.02 -3449.21 -3518.09 -3589.60 -3636.70 -3659.56 -3674.08 -3683.38 -3690.16 -3697.18 -3704.03 -3710.99 -3717.96 -3717.46 -3635.79 -3243.30 -2590.61 -2198.94 -2120.98 -2127.33 -2137.37 -2140.81
704.52 687.30 636.32 562.04 499.22 453.52 423.41 412.92 417.55 427.49 429.82 418.59 399.08 384.44 393.51 427.39 464.16 480.53 469.31 439.44 399.92 358.33 328.58 313.31 312.20 338.31 384.77 409.15 408.22 401.33 397.26 399.05 404.62 411.17 415.94 415.28 409.36 403.33 407.65 423.59 433.50 434.05 431.19 427.36 423.32 421.83 425.82 432.30 437.13 438.16 408.13 258.33 6.44 -147.90 -183.04 -186.19 -188.37 -193.89 -200.45 -206.31 -211.63 -215.52 -216.97 -218.70 -227.70 -243.16 -252.91 -255.12 -254.88 -254.31 -253.42 -252.20 -252.54 -254.81 -256.33 -258.05 -279.74 -377.38 -537.45 -634.00 -656.13 -658.78 -658.76 -658.98 -659.97 -660.10 -660.12 -660.92 -663.82 -689.66 -806.30 -1000.21 -1118.37 -1144.99 -1147.20 -1147.38 -1150.40 -1157.32 -1169.85 -1190.65 -1218.36 -1257.69 -1368.48 -1675.40 -2133.73 -2483.89 -2670.83 -2778.91 -2858.99 -2935.60 -3014.04 -3096.55 -3187.71 -3279.41 -3357.31 -3427.40 -3504.99 -3586.79 -3640.08 -3663.24 -3675.82 -3683.82 -3690.03 -3697.19 -3704.70 -3712.12 -3719.41 -3719.89 -3639.15 -3247.08 -2594.67 -2204.03 -2127.92 -2135.47 -2145.47 -2148.74
709.46 689.58 634.52 557.95 494.12 448.43 416.75 402.47 404.93 415.57 421.07 411.80 391.04 374.93 383.63 415.06 448.55 467.37 462.17 435.20 397.68 361.13 335.31 320.34 317.90 341.71 384.53 405.35 404.30 402.45 405.56 411.94 417.76 421.77 423.28 418.31 407.22 397.60 401.02 417.31 426.81 427.16 424.95 422.45 421.54 424.52 432.12 440.34 445.20 445.26 414.30 263.76 11.81 -142.59 -178.91 -184.00 -187.71 -193.06 -198.88 -205.09 -211.20 -215.24 -216.14 -216.88 -224.74 -239.32 -248.78 -251.66 -252.65 -252.85 -252.40 -251.54 -251.50 -252.72 -253.68 -255.76 -277.81 -375.23 -534.86 -631.93 -654.90 -657.78 -657.92 -658.02 -658.40 -658.21 -658.04 -658.42 -661.28 -687.32 -803.78 -997.06 -1114.64 -1140.92 -1143.08 -1143.24 -1145.98 -1151.17 -1159.49 -1174.76 -1197.41 -1233.58 -1343.25 -1648.84 -2102.47 -2443.49 -2619.65 -2720.55 -2793.56 -2863.63 -2940.53 -3028.26 -3130.13 -3235.26 -3321.95 -3394.17 -3480.13 -3577.29 -3639.32 -3663.12 -3673.70 -3680.43 -3686.12 -3692.78 -3699.91 -3707.27 -3715.13 -3717.14 -3637.55 -3246.60 -2596.16 -2206.94 -2131.27 -2138.62 -2148.31 -2151.45
778.32 754.33 694.75 616.34 549.25 501.34 471.63 460.08 463.30 472.13 476.04 467.65 449.77 438.13 450.27 481.81 513.26 531.87 529.32 505.70 472.66 442.03 419.31 403.27 393.22 394.44 404.73 408.13 406.30 408.61 415.86 424.05 428.94 430.10 427.79 419.31 405.63 394.80 398.42 414.92 424.08 423.82 421.04 418.47 419.00 424.30 433.54 443.03 449.03 448.75 415.93 265.90 18.73 -131.96 -167.39 -172.97 -177.93 -183.72 -189.19 -194.44 -198.82 -201.02 -200.74 -201.14 -209.39 -225.25 -236.45 -241.38 -244.20 -245.07 -244.12 -242.53 -241.68 -241.72 -241.87 -244.29 -266.92 -362.30 -517.75 -612.67 -634.93 -637.08 -637.14 -637.27 -637.52 -637.59 -637.37 -637.03 -639.30 -664.28 -774.96 -957.56 -1068.18 -1092.92 -1095.36 -1095.49 -1096.75 -1099.08 -1103.47 -1113.94 -1133.81 -1170.67 -1272.24 -1548.86 -1972.47 -2306.11 -2485.56 -2589.63 -2663.66 -2728.24 -2803.46 -2899.74 -3011.68 -3126.20 -3217.30 -3291.14 -3394.97 -3525.75 -3608.09 -3635.63 -3645.51 -3652.54 -3659.21 -3666.03 -3672.76 -3680.67 -3690.41 -3694.34 -3616.36 -3230.42 -2589.10 -2205.32 -2130.09 -2136.72 -2146.51 -2150.08
1086.36 1060.72 999.79 921.83 855.08 807.59 780.53 772.20 776.33 781.86 781.96 775.01 766.47 769.20 791.11 826.23 857.81 875.72 874.72 856.92 831.53 805.87 784.52 765.66 732.77 643.74 510.41 429.22 410.05 411.98 420.61 429.43 433.38 432.38 426.59 415.63 402.64 393.39 393.90 403.08 407.03 404.43 400.33 396.74 396.65 402.06 411.79 422.51 430.57 431.22 400.61 267.15 50.10 -82.00 -112.99 -117.58 -122.25 -127.96 -132.99 -135.98 -136.85 -136.76 -136.01 -138.32 -153.20 -179.03 -196.79 -204.09 -207.64 -208.30 -206.37 -203.27 -200.83 -199.58 -199.46 -202.84 -224.15 -307.24 -441.02 -522.63 -541.89 -543.98 -544.17 -543.90 -543.73 -543.89 -543.71 -543.25 -545.09 -564.02 -646.18 -780.80 -861.75 -879.66 -881.64 -881.98 -882.17 -882.47 -884.83 -892.50 -910.21 -946.54 -1029.51 -1236.72 -1570.03 -1863.97 -2046.87 -2161.06 -2244.58 -2311.92 -2388.71 -2495.09 -2620.48 -2741.39 -2833.43 -2920.44 -3088.08 -3326.88 -3476.96 -3521.13 -3534.01 -3544.00 -3553.80 -3562.53 -3570.04 -3578.99 -3590.97 -3597.73 -3525.92 -3162.59 -2558.59 -2197.41 -2126.54 -2132.70 -2142.42 -2146.40
1591.74 1565.64 1504.00 1428.46 1370.06 1331.26 1306.89 1296.39 1296.46 1297.95 1296.32 1293.72 1300.19 1323.86 1357.07 1393.37 1424.41 1443.14 1445.90 1435.72 1420.02 1401.56 1382.63 1359.81 1291.65 1056.83 687.13 463.66 412.53 410.65 418.19 426.07 428.47 425.68 417.62 405.28 393.86 385.85 379.79 375.70 370.38 364.51 359.81 356.36 355.91 360.30 368.96 380.14 390.21 392.76 369.72 269.61 107.16 7.39 -17.04 -21.31 -25.47 -30.57 -34.60 -34.67 -32.18 -30.62 -30.98 -37.78 -64.65 -107.42 -134.57 -142.58 -144.40 -143.67 -141.52 -138.37 -135.16 -133.14 -133.42 -137.95 -155.54 -216.68 -313.81 -373.26 -387.94 -390.30 -390.94 -390.61 -390.03 -389.70 -389.29 -389.00 -389.94 -397.69 -431.94 -488.02 -521.41 -528.78 -529.41 -529.36 -529.30 -529.16 -530.71 -535.95 -549.34 -580.60 -641.13 -763.78 -966.74 -1178.87 -1340.18 -1459.96 -1560.60 -1646.00 -1734.51 -1850.41 -1988.06 -2113.44 -2207.93 -2321.06 -2594.03 -3004.68 -3261.54 -3332.61 -3350.31 -3362.44 -3375.04 -3387.08 -3398.01 -3409.89 -3424.77 -3435.64 -3374.92 -3050.15 -2507.58 -2183.16 -2120.17 -2126.51 -2135.77 -2139.48
1894.04 1866.00 1800.57 1724.82 1675.10 1647.81 1628.30 1614.69 1607.74 1604.26 1601.41 1602.65 1620.05 1656.03 1691.22 1721.20 1748.64 1769.79 1779.69 1779.53 1774.67 1765.72 1751.66 1727.48 1637.72 1313.10 798.75 488.97 419.44 415.31 419.26 422.48 421.47 416.49 406.33 392.68 381.65 373.94 364.52 353.10 342.54 335.64 332.53 332.11 333.71 337.05 342.81 352.49 363.06 367.39 350.77 273.40 146.49 67.62 47.28 42.54 38.36 33.50 30.50 32.75 36.68 37.76 34.97 23.94 -10.80 -64.13 -96.15 -102.69 -101.93 -100.02 -98.38 -96.85 -94.58 -92.78 -93.94 -99.32 -114.13 -161.50 -236.28 -282.07 -294.02 -296.68 -297.31 -297.06 -296.60 -296.39 -296.35 -296.41 -296.40 -296.66 -301.29 -309.59 -314.51 -315.92 -315.94 -315.41 -315.45 -315.44 -316.15 -319.08 -326.70 -347.17 -386.94 -453.73 -565.26 -708.81 -840.71 -955.84 -1071.18 -1184.92 -1297.52 -1424.20 -1567.95 -1698.88 -1801.25 -1934.08 -2271.87 -2784.49 -3104.01 -3191.17 -3210.87 -3221.84 -3234.92 -3250.38 -3267.08 -3286.00 -3307.45 -3324.31 -3273.40 -2974.19 -2470.05 -2168.43 -2110.57 -2117.24 -2125.62 -2128.56
1972.36 1940.67 1867.31 1784.71 1735.74 1714.82 1701.14 1688.01 1676.97 1669.23 1663.86 1664.78 1685.08 1723.01 1752.64 1771.65 1791.84 1813.91 1830.58 1840.93 1846.63 1846.51 1838.96 1818.93 1727.28 1382.40 833.94 503.96 430.66 425.58 425.00 421.52 415.33 407.01 394.35 379.34 368.06 361.25 352.90 341.46 331.11 325.55 325.19 328.87 334.06 338.09 342.12 349.56 358.76 363.62 349.38 278.09 160.56 87.89 69.17 64.27 60.24 55.92 53.76 56.71 60.23 59.69 54.46 41.03 3.81 -52.07 -84.22 -88.66 -86.44 -85.04 -84.21 -83.50 -82.54 -82.12 -84.67 -90.27 -103.42 -147.05 -216.81 -259.55 -271.15 -274.34 -274.94 -274.56 -274.31 -274.83 -276.03 -276.90 -276.59 -275.13 -272.94 -269.88 -267.81 -267.67 -267.91 -267.78 -268.18 -268.21 -268.17 -269.45 -272.75 -282.08 -302.80 -338.50 -400.65 -498.18 -607.69 -717.59 -843.17 -977.97 -1110.33 -1251.64 -1406.00 -1544.81 -1654.93 -1797.03 -2151.97 -2685.46 -3017.08 -3107.46 -3127.25 -3139.11 -3154.22 -3173.18 -3194.70 -3220.73 -3249.45 -3273.10 -3231.00 -2942.20 -2448.60 -2153.51 -2097.75 -2104.25 -2111.69 -2114.37
2001.14 1967.57 1887.90 1796.35 1743.70 1725.65 1716.41 1704.58 1691.89 1681.54 1673.92 1672.78 1692.69 1729.61 1752.05 1758.87 1768.54 1786.87 1805.60 1821.37 1834.57 1842.83 1844.04 1832.75 1748.26 1405.14 852.90 518.29 441.60 432.43 426.17 417.21 407.18 396.15 382.10 366.94 355.78 349.64 343.24 335.33 328.55 324.73 324.97 329.84 337.63 345.08 351.66 358.72 365.39 368.89 354.95 283.99 167.46 96.52 79.37 75.06 71.30 67.69 65.85 67.85 70.35 68.92 62.52 47.94 9.73 -46.63 -78.22 -81.37 -78.50 -77.96 -77.87 -77.16 -77.19 -78.74 -82.52 -87.45 -99.26 -142.09 -211.55 -254.46 -266.26 -269.77 -271.03 -271.06 -270.90 -271.65 -273.31 -274.69 -274.78 -273.87 -271.41 -267.08 -264.24 -263.87 -264.06 -264.09 -264.43 -264.46 -264.22 -264.44 -265.53 -269.35 -278.38 -294.99 -324.37 -380.74 -464.51 -566.96 -692.67 -832.82 -980.64 -1143.05 -1310.10 -1454.19 -1568.38 -1713.29 -2068.86 -2602.26 -2937.84 -3033.76 -3057.37 -3073.48 -3092.26 -3115.59 -3141.17 -3169.88 -3200.80 -3230.52 -3199.13 -2918.50 -2428.33 -2135.48 -2081.11 -2087.31 -2093.68 -2095.87
2019.89 1989.32 1910.36 1813.39 1759.18 1746.31 1741.86 1729.64 1713.34 1699.83 1690.10 1686.77 1705.67 1741.44 1757.25 1752.53 1752.05 1764.48 1779.39 1791.95 1807.03 1823.05 1834.60 1833.28 1757.55 1420.87 869.66 531.20 448.74 432.83 420.09 407.11 395.66 384.04 370.27 356.16 345.52 340.02 336.34 333.77 332.18 329.58 327.46 329.95 338.37 350.39 362.50 371.35 376.18 377.78 363.19 291.73 174.85 104.29 88.05 84.35 80.68 76.99 74.57 74.99 76.59 75.36 69.36 54.78 16.45 -39.79 -71.74 -75.75 -73.07 -72.33 -72.42 -71.98 -72.25 -74.58 -78.73 -83.13 -94.68 -137.80 -207.42 -250.82 -263.07 -266.74 -268.56 -269.15 -269.21 -270.23 -271.87 -273.02 -273.35 -273.04 -270.88 -266.66 -264.45 -264.66 -265.14 -265.00 -264.58 -264.38 -264.26 -263.81 -263.93 -266.63 -272.06 -280.35 -292.25 -316.38 -365.54 -447.82 -566.24 -712.66 -884.79 -1069.84 -1237.15 -1376.20 -1491.80 -1634.31 -1979.48 -2505.09 -2843.84 -2949.30 -2979.65 -2998.45 -3019.78 -3048.29 -3079.93 -3112.95 -3146.01 -3180.79 -3159.32 -2887.43 -2401.64 -2110.50 -2056.47 -2062.85 -2069.04 -2070.60
2032.53 2004.73 1928.29 1831.87 1782.22 1779.19 1782.95 1770.74 1746.97 1726.23 1712.19 1706.56 1723.84 1757.00 1767.25 1754.21 1745.76 1751.36 1759.99 1766.79 1779.71 1799.46 1817.84 1824.08 1756.82 1429.60 883.68 543.23 455.07 433.17 414.74 397.21 383.94 372.43 359.32 346.27 337.02 334.22 335.38 338.30 340.49 338.07 332.99 332.11 339.39 354.41 371.99 383.54 387.49 387.16 371.03 298.90 181.41 110.37 93.70 89.55 85.85 82.05 79.21 78.68 79.83 79.13 74.36 61.53 24.74 -30.99 -63.96 -70.27 -69.48 -69.14 -69.24 -69.01 -69.10 -71.14 -74.93 -79.13 -90.96 -133.87 -203.06 -247.27 -260.91 -264.81 -266.20 -266.61 -266.90 -268.21 -269.60 -270.58 -271.50 -271.87 -269.87 -265.85 -264.23 -264.64 -265.35 -265.45 -264.85 -264.73 -264.77 -264.03 -263.87 -266.00 -269.98 -275.32 -281.18 -289.59 -311.34 -365.54 -469.47 -626.38 -827.50 -1031.74 -1191.40 -1312.62 -1421.54 -1561.47 -1896.18 -2408.19 -2736.02 -2839.85 -2876.73 -2902.39 -2930.27 -2964.62 -3002.56 -3043.57 -3083.33 -3121.68 -3104.12 -2839.27 -2360.30 -2072.72 -2020.90 -2029.39 -2036.17 -2037.24
2030.79 2001.36 1926.92 1842.66 1808.90 1819.76 1833.19 1822.78 1791.25 1759.39 1737.21 1728.11 1741.73 1769.62 1776.59 1760.83 1746.34 1743.02 1744.40 1747.19 1757.94 1777.65 1797.75 1808.13 1748.26 1430.98 892.91 554.52 464.44 439.41 417.03 394.77 378.08 365.31 352.14 339.80 332.85 334.17 340.54 347.70 351.42 348.29 341.05 337.56 343.28 359.17 379.62 392.97 396.09 393.71 375.43 301.73 182.78 110.65 93.03 87.73 83.48 80.02 77.94 78.15 79.69 79.73 76.72 66.43 31.77 -23.24 -56.88 -65.12 -66.68 -67.89 -68.70 -68.89 -69.26 -71.16 -74.96 -79.68 -91.58 -133.24 -201.30 -245.70 -259.99 -263.45 -263.88 -264.07 -264.56 -265.60 -266.57 -267.80 -269.62 -270.67 -268.71 -265.01 -263.96 -264.44 -264.76 -265.04 -265.13 -265.30 -265.22 -264.50 -264.10 -265.10 -267.83 -271.73 -275.72 -279.55 -288.65 -320.65 -401.88 -553.07 -766.56 -980.98 -1137.01 -1246.85 -1349.59 -1489.01 -1818.86 -2318.56 -2629.93 -2724.32 -2764.49 -2798.84 -2834.12 -2871.89 -2914.16 -2963.35 -3011.78 -3052.32 -3031.32 -2767.81 -2296.50 -2017.34 -1972.55 -1985.94 -1994.53 -1995.61
2046.71 2012.44 1935.02 1860.73 1844.12 1866.48 1883.64 1873.67 1837.39 1795.50 1764.48 1750.60 1758.60 1780.07 1785.76 1772.25 1755.54 1743.86 1736.71 1734.13 1740.30 1756.26 1775.81 1789.40 1735.15 1424.76 893.65 560.60 472.96 448.26 424.94 399.63 379.16 363.93 349.77 337.51 331.84 335.74 346.13 357.36 362.84 359.21 350.62 345.82 351.07 366.83 386.13 398.15 399.65 395.05 374.70 299.40 178.86 104.97 86.13 80.16 75.09 71.79 71.60 74.02 76.38 76.88 75.36 66.96 33.58 -20.60 -53.86 -62.46 -65.16 -68.44 -71.07 -72.20 -73.12 -75.24 -79.53 -85.41 -97.45 -137.98 -204.82 -247.78 -260.52 -262.72 -262.58 -262.84 -263.33 -263.95 -264.68 -265.78 -267.45 -268.77 -267.37 -264.36 -263.78 -264.22 -264.05 -264.36 -265.03 -265.40 -265.28 -264.82 -264.16 -264.19 -266.19 -269.35 -272.38 -274.75 -278.70 -296.04 -352.17 -476.42 -670.34 -877.73 -1035.45 -1153.39 -1264.44 -1411.01 -1746.25 -2244.10 -2549.15 -2638.44 -2675.72 -2709.22 -2743.29 -2777.77 -2818.02 -2868.31 -2920.64 -2962.47 -2940.64 -2681.72 -2221.50 -1953.50 -1914.72 -1931.62 -1943.90 -1946.92
2088.27 2051.55 1971.29 1897.71 1886.28 1912.28 1928.30 1917.21 1877.90 1828.01 1790.00 1771.66 1773.12 1787.08 1790.82 1782.07 1769.07 1754.88 1741.63 1732.11 1730.11 1738.64 1754.85 1769.56 1717.65 1409.96 883.34 556.03 472.25 450.50 430.56 405.68 381.78 363.85 349.06 336.70 331.00 335.39 348.04 362.94 371.71 369.82 362.09 357.95 363.28 377.13 392.21 400.72 399.94 392.70 369.91 293.07 171.71 96.30 76.52 71.14 66.03 62.47 63.57 67.60 70.40 70.76 69.08 60.58 27.31 -25.82 -57.53 -65.03 -68.13 -73.50 -78.30 -80.50 -81.34 -82.99 -87.14 -92.90 -104.54 -144.59 -210.63 -252.12 -262.82 -263.78 -263.21 -262.98 -262.69 -263.07 -264.21 -265.39 -266.74 -268.20 -267.57 -264.99 -264.02 -263.87 -263.37 -263.75 -264.47 -264.73 -264.65 -264.73 -264.16 -263.68 -265.29 -268.14 -270.62 -272.20 -274.31 -283.79 -319.27 -409.07 -564.19 -744.78 -898.04 -1033.00 -1166.98 -1334.03 -1684.15 -2184.99 -2487.35 -2572.67 -2602.74 -2627.15 -2653.37 -2682.82 -2717.41 -2760.77 -2810.27 -2855.27 -2842.35 -2594.82 -2146.54 -1888.53 -1853.95 -1871.97 -1886.14 -1890.65
2124.78 2093.73 2019.16 1940.91 1921.68 1946.06 1963.75 1952.77 1909.46 1850.55 1803.82 1779.34 1773.96 1780.90 1781.98 1776.67 1769.70 1759.69 1746.77 1733.30 1723.81 1723.06 1731.89 1743.63 1691.47 1385.20 863.16 541.50 461.09 441.95 425.59 402.95 377.17 357.54 343.98 333.76 329.88 335.15 348.41 364.61 376.45 378.51 374.22 372.44 377.60 387.76 397.82 402.57 399.16 388.86 363.10 284.61 163.14 88.14 69.69 66.18 61.41 56.45 56.30 60.01 62.61 62.10 58.73 48.29 14.27 -37.65 -67.19 -73.10 -76.30 -82.31 -87.69 -90.21 -90.56 -91.23 -94.34 -98.56 -109.34 -149.73 -216.04 -257.07 -266.35 -266.23 -265.01 -264.20 -263.39 -263.60 -265.25 -266.99 -268.36 -269.54 -268.78 -265.90 -264.20 -263.39 -262.64 -262.86 -263.29 -263.60 -263.93 -264.45 -263.97 -263.41 -264.82 -267.72 -270.52 -272.09 -273.87 -280.06 -300.71 -359.01 -475.23 -626.87 -777.93 -935.60 -1098.19 -1284.48 -1637.97 -2131.00 -2424.26 -2501.23 -2521.63 -2535.65 -2554.02 -2579.51 -2608.89 -2647.30 -2696.54 -2748.22 -2744.76 -2502.68 -2060.13 -1811.10 -1785.58 -1808.62 -1823.00 -1826.89
2130.12 2101.38 2024.32 1931.49 1896.48 1914.88 1933.96 1922.65 1874.02 1804.38 1744.85 1709.05 1694.89 1696.75 1695.58 1690.44 1687.73 1684.43 1676.49 1663.88 1650.38 1641.29 1641.69 1648.15 1597.90 1308.83 816.33 512.84 436.07 417.53 402.24 381.78 357.75 339.54 329.74 324.98 326.02 333.51 346.33 361.23 374.47 381.05 381.46 382.61 387.23 393.28 398.18 398.67 392.28 379.43 351.99 274.40 156.38 85.49 70.11 67.56 62.09 55.06 51.87 53.41 54.98 53.79 49.71 37.85 2.26 -49.98 -78.51 -83.17 -85.51 -90.30 -94.68 -97.25 -98.07 -98.26 -99.81 -102.46 -112.73 -153.59 -220.03 -260.87 -269.69 -269.13 -267.73 -267.02 -266.46 -266.39 -267.77 -269.43 -270.66 -271.41 -269.98 -266.49 -264.11 -262.60 -261.34 -261.23 -261.65 -262.60 -263.69 -264.14 -263.44 -262.90 -265.04 -272.90 -284.07 -290.32 -292.75 -297.30 -310.18 -350.17 -442.20 -581.16 -744.07 -923.01 -1098.27 -1280.07 -1605.29 -2059.55 -2326.32 -2388.58 -2398.92 -2404.42 -2415.44 -2436.81 -2462.29 -2495.39 -2542.94 -2600.08 -2603.37 -2371.71 -1946.25 -1711.76 -1699.86 -1734.08 -1752.01 -1755.75
1924.57 1886.11 1790.02 1677.93 1626.62 1634.24 1647.61 1631.31 1576.92 1499.33 1427.57 1376.34 1348.46 1342.33 1337.49 1329.93 1327.23 1326.87 1322.98 1313.57 1300.29 1287.77 1283.03 1285.78 1250.02 1038.06 672.77 444.80 383.33 364.94 348.94 330.85 313.50 301.85 297.50 298.73 305.27 315.53 327.89 341.16 354.88 364.67 368.59 371.98 375.93 377.90 377.50 373.88 365.36 351.83 325.51 254.88 149.27 87.90 75.21 71.05 63.76 55.86 51.15 50.22 49.95 49.09 46.37 33.95 -4.82 -60.72 -90.96 -95.46 -96.41 -99.26 -102.48 -105.13 -106.41 -106.29 -106.47 -107.65 -117.24 -157.23 -221.33 -260.45 -269.30 -269.41 -268.48 -267.94 -267.73 -267.44 -267.83 -268.86 -270.25 -271.02 -269.45 -266.22 -263.80 -261.89 -259.99 -259.36 -259.84 -261.25 -262.95 -263.53 -262.64 -262.10 -268.73 -299.14 -347.99 -377.17 -384.56 -388.59 -400.04 -439.07 -529.95 -673.02 -848.46 -1029.76 -1191.80 -1340.39 -1580.46 -1909.82 -2096.98 -2132.59 -2133.63 -2133.43 -2137.52 -2152.26 -2171.69 -2193.96 -2231.60 -2287.14 -2300.71 -2119.76 -1778.57 -1596.63 -1603.30 -1649.10 -1672.93 -1677.58
1497.94 1450.80 1338.05 1210.88 1147.80 1142.76 1141.19 1111.56 1049.85 969.05 889.50 824.94 784.17 767.89 757.62 746.84 740.70 737.55 733.00 725.85 715.93 704.95 699.18 701.54 691.32 604.86 448.24 346.43 312.83 295.84 280.10 266.15 257.35 253.90 254.80 260.53 271.05 284.17 297.64 310.63 323.67 333.58 337.86 340.96 343.44 342.12 337.77 331.83 322.82 309.52 285.66 226.46 140.06 91.18 80.52 74.47 66.21 58.98 54.70 52.25 49.81 49.16 48.12 35.49 -7.01 -68.93 -103.89 -110.50 -110.88 -111.68 -113.37 -115.54 -116.17 -114.87 -113.41 -113.20 -121.99 -159.64 -218.94 -254.73 -263.53 -265.00 -264.74 -263.89 -263.69 -263.71 -263.57 -263.87 -265.49 -266.75 -265.95 -264.04 -262.59 -260.99 -258.66 -257.32 -257.86 -259.36 -261.06 -261.87 -261.25 -261.39 -276.00 -343.41 -454.31 -521.67 -537.48 -541.84 -553.86 -597.11 -699.24 -857.83 -1037.04 -1199.31 -1333.39 -1438.23 -1556.43 -1693.65 -1761.85 -1766.61 -1759.39 -1752.37 -1748.86 -1753.15 -1761.84 -1773.35 -1798.29 -1843.36 -1869.58 -1772.72 -1572.21 -1477.32 -1504.24 -1555.81 -1586.55 -1595.01
1251.05 1199.55 1079.21 947.16 878.76 859.00 834.95 786.99 718.67 638.06 556.46 488.61 445.84 425.30 411.53 398.55 388.19 379.66 371.32 363.85 356.39 348.07 342.91 344.63 348.03 335.93 305.79 281.54 266.38 252.10 239.26 230.92 229.50 232.54 238.25 247.73 260.23 275.48 291.23 304.05 313.30 319.22 320.99 321.80 321.97 318.11 311.08 304.11 296.05 284.33 263.02 211.17 136.36 94.43 84.88 78.77 71.64 66.67 63.44 59.52 54.76 53.18 52.83 40.71 -3.61 -69.57 -108.41 -118.02 -119.99 -120.86 -121.68 -122.00 -120.40 -117.40 -114.73 -113.79 -121.57 -156.93 -213.22 -247.63 -256.94 -259.54 -259.96 -259.30 -259.23 -259.59 -259.41 -259.24 -260.84 -262.64 -262.57 -261.25 -260.41 -259.47 -257.44 -255.83 -256.41 -257.94 -259.55 -260.43 -260.31 -261.66 -281.47 -371.28 -519.65 -610.02 -630.83 -635.64 -646.92 -687.65 -795.34 -971.47 -1151.82 -1290.21 -1399.68 -1480.39 -1529.75 -1553.88 -1553.07 -1540.91 -1527.74 -1512.51 -1499.19 -1492.66 -1492.23 -1498.67 -1514.55 -1545.45 -1572.81 -1524.00 -1409.80 -1372.33 -1412.72 -1465.02 -1499.99 -1512.21
1192.47 1146.62 1035.88 909.52 835.62 796.89 752.08 697.23 634.91 561.57 485.04 423.43 386.31 365.99 349.07 332.91 318.35 304.46 291.66 282.01 274.82 267.96 262.33 260.38 262.35 263.97 261.07 254.74 245.74 235.14 227.26 225.71 231.35 240.27 250.80 263.29 275.83 291.46 308.18 319.36 322.80 322.21 319.81 317.58 314.87 308.52 299.55 292.32 286.52 278.79 260.83 211.18 138.67 98.10 89.26 84.50 79.23 76.59 74.63 69.58 62.97 59.59 58.56 47.56 4.19 -62.41 -102.93 -114.94 -119.74 -123.38 -125.25 -123.66 -119.40 -114.75 -111.30 -109.56 -115.81 -149.78 -205.86 -240.94 -251.21 -254.60 -255.96 -256.51 -257.34 -258.30 -258.34 -257.98 -258.81 -260.39 -260.80 -259.68 -258.79 -258.21 -256.84 -255.59 -256.16 -257.71 -259.42 -259.96 -259.90 -261.96 -283.21 -378.35 -535.18 -630.54 -652.56 -657.80 -667.50 -700.86 -804.93 -992.18 -1176.43 -1301.34 -1397.30 -1472.43 -1507.01 -1505.71 -1488.91 -1469.20 -1449.35 -1427.57 -1407.34 -1393.51 -1385.71 -1387.00 -1397.78 -1421.32 -1441.95 -1393.54 -1293.80 -1275.33 -1327.88 -1385.21 -1421.73 -1434.32
1141.99 1106.15 1009.62 886.14 802.38 747.50 695.71 656.84 623.73 574.41 509.52 452.21 415.97 393.54 372.22 351.35 332.40 313.55 296.58 283.72 274.64 267.29 260.00 253.36 249.83 248.14 244.63 239.71 233.61 227.34 224.80 229.55 241.77 256.86 272.20 286.60 298.16 312.11 327.06 334.61 331.54 324.60 318.86 314.13 308.33 299.76 290.67 285.00 282.35 279.27 265.27 216.68 143.53 103.08 95.50 92.31 87.93 85.71 84.15 78.80 71.27 65.91 63.24 53.38 12.55 -52.93 -94.41 -108.37 -115.66 -121.99 -125.02 -122.52 -116.87 -111.29 -106.89 -104.21 -109.84 -143.54 -199.67 -235.17 -246.18 -250.53 -253.40 -255.32 -257.00 -258.74 -259.23 -258.78 -258.61 -259.42 -259.96 -259.39 -258.67 -257.87 -256.92 -256.87 -257.80 -259.15 -260.51 -260.40 -260.04 -261.80 -283.14 -379.17 -537.26 -633.44 -656.11 -662.06 -671.36 -700.61 -798.47 -984.62 -1172.55 -1298.93 -1390.11 -1458.85 -1487.83 -1482.83 -1463.09 -1436.89 -1409.16 -1382.45 -1358.48 -1339.69 -1326.69 -1323.32 -1330.94 -1351.36 -1364.74 -1303.33 -1191.88 -1173.60 -1239.09 -1309.03 -1350.27 -1363.62
1082.99 1047.00 950.66 824.56 731.05 670.77 631.27 622.85 627.45 607.78 556.01 498.91 458.14 429.53 403.21 379.86 360.15 339.56 319.11 301.59 289.14 280.77 271.40 259.75 250.41 243.64 236.76 231.38 227.43 224.85 226.49 235.26 250.86 269.58 289.25 307.27 320.16 330.94 339.77 340.83 332.28 322.17 315.08 308.66 300.93 292.40 285.83 282.96 283.03 283.24 272.02 223.71 148.69 107.75 101.60 99.77 95.71 92.67 90.14 84.49 76.63 69.60 64.70 54.56 15.46 -48.33 -89.39 -104.25 -112.98 -120.07 -122.57 -118.70 -112.15 -106.50 -101.81 -99.42 -106.19 -140.28 -195.90 -231.07 -242.41 -248.13 -252.81 -256.08 -258.40 -260.29 -260.76 -260.23 -259.62 -259.64 -259.73 -259.69 -259.55 -258.41 -257.59 -258.51 -259.67 -260.30 -261.01 -260.77 -260.41 -262.04 -283.50 -379.56 -537.99 -635.39 -659.24 -665.78 -675.85 -704.14 -789.87 -956.32 -1144.17 -1289.44 -1387.39 -1446.85 -1468.79 -1462.31 -1440.48 -1409.56 -1378.32 -1349.82 -1321.24 -1295.31 -1278.22 -1273.21 -1279.57 -1296.91 -1303.67 -1232.79 -1110.04 -1085.69 -1158.83 -1241.64 -1288.31 -1302.17
1012.78 977.91 882.66 754.13 654.99 598.09 577.36 593.52 621.07 619.43 581.52 533.84 495.04 461.87 430.83 406.56 389.78 371.11 347.93 325.82 310.25 299.39 286.28 270.53 257.75 248.02 238.43 231.98 229.32 228.73 232.23 242.40 258.23 277.56 300.62 323.11 338.41 345.58 346.54 340.45 328.39 317.61 310.15 302.85 295.50 290.05 287.81 288.23 290.41 291.59 280.21 230.45 153.02 110.76 105.07 104.06 99.79 95.32 90.97 84.58 76.68 68.69 61.74 50.23 11.51 -51.03 -90.93 -104.82 -112.49 -117.89 -118.42 -112.98 -105.71 -100.46 -96.67 -95.46 -103.69 -138.30 -193.98 -229.54 -241.23 -247.57 -253.11 -257.44 -260.10 -261.45 -261.60 -261.10 -260.70 -260.58 -259.98 -259.78 -260.20 -259.54 -258.86 -259.59 -260.46 -260.52 -260.82 -260.55 -260.01 -261.83 -284.11 -380.30 -538.18 -636.09 -661.27 -668.50 -679.74 -708.80 -781.92 -921.07 -1099.30 -1262.65 -1373.34 -1429.24 -1447.74 -1440.81 -1417.33 -1384.89 -1353.71 -1324.72 -1291.75 -1259.53 -1238.50 -1231.37 -1235.29 -1248.66 -1251.96 -1180.25 -1055.65 -1026.34 -1098.01 -1185.41 -1235.25 -1249.42
922.11 893.85 810.49 691.84 599.31 548.60 536.88 561.71 593.99 598.85 576.87 550.33 525.24 495.16 461.54 434.27 417.65 398.64 371.24 345.38 327.14 311.95 294.69 278.27 267.89 259.68 248.99 241.47 239.22 239.39 242.89 252.20 266.51 284.70 308.78 333.15 348.45 351.89 346.89 336.31 323.11 312.52 305.09 298.48 293.82 293.17 296.00 299.98 303.34 303.02 289.11 237.28 158.28 114.32 107.11 105.09 99.49 93.32 87.22 79.69 71.68 63.84 56.55 44.54 5.91 -56.23 -95.24 -106.43 -110.35 -112.69 -111.93 -107.24 -101.19 -96.45 -93.48 -93.57 -103.06 -138.40 -194.90 -231.55 -243.46 -249.03 -253.99 -258.16 -260.47 -261.16 -260.99 -260.38 -260.19 -260.63 -260.22 -259.78 -260.44 -260.63 -260.21 -260.20 -260.45 -260.43 -260.55 -260.11 -259.38 -261.47 -284.78 -381.10 -537.77 -634.56 -659.97 -668.17 -680.78 -712.45 -780.94 -899.32 -1057.86 -1221.69 -1342.98 -1404.12 -1424.85 -1419.32 -1394.94 -1361.63 -1329.66 -1299.13 -1263.53 -1229.18 -1206.87 -1197.42 -1198.31 -1209.16 -1211.73 -1141.06 -1016.45 -984.18 -1050.30 -1134.82 -1186.42 -1202.31
854.85 824.55 745.44 641.66 560.81 515.07 506.50 530.08 556.31 561.04 552.33 546.79 540.77 522.29 490.81 459.41 437.67 413.10 378.43 347.39 326.70 309.67 293.57 282.31 278.85 274.68 264.18 256.17 254.30 255.02 257.52 264.21 275.98 292.62 315.34 338.15 351.24 351.41 342.60 330.21 317.98 308.57 301.72 296.99 296.19 300.19 307.29 314.32 317.99 315.24 298.67 245.31 165.36 119.09 108.25 103.52 96.44 88.84 81.28 73.19 66.11 60.59 55.95 45.06 6.11 -56.79 -95.89 -104.84 -105.10 -105.31 -104.69 -102.41 -99.07 -95.36 -93.09 -94.60 -105.51 -141.97 -199.32 -236.12 -247.48 -252.07 -256.44 -259.68 -260.52 -259.71 -258.56 -257.39 -257.07 -258.44 -259.66 -260.16 -260.68 -260.51 -259.83 -259.05 -258.40 -258.57 -259.03 -259.24 -259.52 -262.29 -285.67 -381.52 -537.43 -632.92 -657.45 -665.81 -679.13 -713.54 -783.90 -892.59 -1032.08 -1182.80 -1305.90 -1373.34 -1398.49 -1394.90 -1369.44 -1334.79 -1301.48 -1268.43 -1230.56 -1196.84 -1176.09 -1166.82 -1167.80 -1179.81 -1182.64 -1109.15 -979.43 -942.15 -1004.60 -1089.00 -1141.95 -1158.39
837.00 801.70 718.07 616.39 537.00 490.72 480.84 497.88 515.81 519.66 519.46 527.94 539.01 535.96 511.01 477.01 448.02 415.40 372.97 336.60 315.83 302.90 293.74 289.99 291.82 289.47 278.69 270.53 270.69 274.05 276.48 279.74 287.65 302.34 322.72 342.25 352.22 349.59 338.78 326.20 315.43 307.56 302.38 300.58 303.24 309.81 319.14 328.23 331.82 326.87 308.31 254.18 173.03 123.59 108.65 101.23 93.21 84.72 76.68 69.60 65.00 63.34 62.37 52.82 12.79 -51.65 -91.10 -99.08 -98.11 -98.50 -99.58 -100.02 -98.97 -96.65 -95.33 -97.40 -109.05 -146.69 -204.63 -240.74 -251.22 -255.32 -259.12 -261.30 -260.75 -258.02 -254.77 -252.19 -251.86 -254.74 -258.22 -260.13 -260.37 -258.97 -257.22 -255.63 -254.81 -255.78 -257.04 -258.15 -259.75 -263.01 -285.55 -380.58 -536.32 -631.76 -655.89 -663.53 -676.02 -709.53 -780.68 -885.55 -1008.40 -1139.31 -1253.85 -1323.91 -1356.45 -1359.26 -1336.59 -1302.39 -1268.36 -1232.93 -1193.57 -1161.21 -1143.19 -1136.67 -1138.84 -1150.88 -1152.69 -1075.89 -939.64 -894.28 -953.38 -1039.55 -1094.68 -1112.16
844.00 808.02 722.49 618.81 536.66 483.07 460.82 463.80 473.48 480.90 491.82 512.06 534.75 542.02 522.03 486.31 451.15 412.99 369.21 333.94 316.67 310.14 308.28 309.00 310.49 305.07 292.22 284.05 287.05 294.90 299.91 301.15 304.70 316.93 335.25 350.85 356.06 350.39 339.06 327.13 317.55 311.27 308.73 310.18 315.05 322.44 332.73 342.88 345.91 339.22 318.71 262.75 179.14 126.83 109.62 101.09 93.16 84.26 76.21 70.93 69.04 70.15 71.20 62.14 21.47 -43.45 -82.74 -91.21 -91.71 -94.18 -98.24 -101.45 -102.12 -100.91 -99.81 -101.13 -112.25 -150.16 -208.48 -244.16 -253.80 -257.29 -259.98 -261.10 -260.12 -256.12 -250.32 -246.13 -246.47 -251.16 -256.00 -258.02 -257.68 -255.59 -252.96 -251.05 -251.08 -253.29 -255.40 -257.16 -259.28 -262.42 -284.16 -378.38 -533.55 -628.82 -652.41 -659.09 -670.05 -697.30 -756.76 -846.74 -951.77 -1065.38 -1166.51 -1237.78 -1284.43 -1302.69 -1291.58 -1263.23 -1229.08 -1191.36 -1151.93 -1121.13 -1105.74 -1102.59 -1106.55 -1118.12 -1118.15 -1039.01 -896.82 -843.23 -897.89 -982.07 -1038.33 -1057.80
874.51 841.25 761.57 665.04 587.31 527.88 489.52 475.38 476.83 490.29 515.33 547.73 577.28 589.01 571.40 532.59 489.77 448.72 412.06 385.70 373.33 370.53 372.96 375.44 372.44 354.19 324.73 307.15 309.05 319.89 329.13 332.22 334.90 345.84 361.93 372.37 371.31 362.33 351.56 341.82 334.42 329.92 329.67 333.72 339.84 347.14 357.41 367.89 370.46 361.82 337.70 275.68 185.02 128.76 111.03 103.54 97.50 89.25 80.29 75.00 74.40 76.71 78.18 69.02 28.62 -35.96 -75.57 -85.94 -89.03 -93.56 -100.32 -105.97 -108.07 -107.50 -106.08 -106.38 -115.77 -151.84 -209.11 -244.48 -253.22 -255.10 -256.06 -256.40 -255.54 -251.17 -244.25 -239.54 -240.32 -245.27 -249.95 -251.33 -250.58 -249.00 -247.26 -246.21 -246.97 -249.62 -252.20 -254.53 -256.99 -259.68 -279.50 -368.42 -515.52 -605.67 -627.55 -633.36 -641.97 -659.32 -695.56 -754.57 -833.16 -926.14 -1011.44 -1085.71 -1154.25 -1199.73 -1211.52 -1196.18 -1164.31 -1125.99 -1089.18 -1061.58 -1047.10 -1044.49 -1050.34 -1062.24 -1060.69 -983.68 -844.80 -790.11 -842.38 -924.47 -977.53 -994.76
1042.92 1013.68 942.49 854.33 783.65 727.57 683.23 658.13 653.99 671.14 705.15 746.39 780.98 796.48 782.63 743.18 694.90 652.82 623.07 603.60 593.55 591.53 595.61 598.96 585.90 525.95 429.50 369.90 360.69 371.19 384.35 392.70 399.22 411.02 423.90 427.84 420.93 410.07 402.50 399.02 395.14 391.24 392.45 399.48 407.18 413.75 422.51 431.48 432.10 419.36 387.89 310.94 199.57 131.06 111.44 105.79 101.88 94.58 84.57 77.59 76.67 79.79 81.74 72.69 32.20 -32.92 -73.17 -84.60 -89.15 -95.11 -103.43 -110.30 -113.21 -113.08 -111.92 -112.15 -120.20 -152.38 -204.22 -236.16 -242.92 -242.76 -241.94 -241.31 -240.22 -236.48 -230.79 -227.03 -227.44 -230.93 -234.60 -235.85 -235.62 -235.53 -235.56 -235.69 -236.95 -239.57 -242.20 -244.65 -247.10 -249.03 -263.49 -329.80 -439.43 -506.52 -523.06 -527.74 -533.28 -541.78 -557.61 -584.57 -627.72 -687.22 -751.07 -825.05 -914.77 -996.45 -1041.15 -1042.37 -1014.37 -976.99 -943.50 -919.69 -906.23 -902.44 -908.12 -918.71 -917.73 -861.84 -762.21 -729.89 -783.00 -861.09 -909.62 -923.83
1330.29 1306.94 1244.83 1160.13 1092.49 1045.39 1006.25 979.00 972.90 991.51 1028.68 1073.53 1111.65 1131.34 1123.40 1090.42 1046.13 1006.35 978.19 959.06 948.72 946.46 950.18 953.14 925.80 800.09 594.70 466.32 439.14 448.56 466.07 481.26 492.63 504.07 511.24 507.38 495.66 485.43 484.66 490.79 491.21 487.37 489.58 499.04 508.05 513.68 519.61 524.13 519.64 501.00 460.89 363.42 220.30 132.02 108.36 104.48 102.59 96.49 85.98 76.58 73.75 76.84 79.84 71.66 30.45 -36.03 -76.33 -86.56 -90.37 -96.73 -105.54 -112.59 -115.84 -116.59 -116.46 -117.30 -124.75 -152.02 -194.85 -219.80 -223.11 -221.35 -219.87 -218.50 -216.72 -213.88 -210.30 -208.00 -208.21 -210.72 -213.66 -215.05 -215.86 -217.36 -218.72 -219.67 -221.60 -224.32 -226.57 -228.61 -230.26 -231.15 -237.96 -267.29 -314.87 -343.95 -351.58 -354.62 -357.84 -361.40 -366.97 -375.98 -392.84 -421.42 -462.94 -526.14 -616.33 -718.17 -793.97 -814.74 -793.55 -758.59 -727.23 -705.65 -693.70 -689.94 -694.64 -703.65 -707.89 -689.42 -656.89 -665.05 -720.76 -789.98 -834.36 -848.33
1469.39 1454.34 1404.78 1326.06 1262.20 1223.54 1192.27 1168.60 1164.33 1184.56 1222.36 1265.47 1302.31 1324.43 1323.98 1303.54 1272.48 1241.35 1215.96 1196.99 1187.15 1184.01 1183.55 1181.21 1142.55 976.60 705.05 534.35 495.68 505.68 528.71 549.78 562.23 567.83 564.85 551.86 536.67 529.56 536.85 550.95 554.82 551.88 554.19 562.51 569.39 572.32 574.26 573.11 563.09 540.81 497.53 389.36 227.14 126.93 101.03 98.57 98.71 94.27 84.05 73.07 67.88 69.31 72.23 64.37 22.26 -45.29 -84.96 -92.81 -94.22 -99.10 -107.02 -113.46 -116.23 -117.33 -118.26 -119.66 -126.43 -150.40 -187.44 -207.25 -207.75 -204.77 -202.81 -201.05 -199.18 -197.47 -195.79 -194.75 -195.29 -198.11 -201.23 -203.10 -204.80 -207.25 -209.54 -211.26 -213.63 -215.91 -217.10 -218.44 -219.59 -219.83 -222.05 -229.19 -239.41 -245.50 -247.38 -249.02 -251.32 -253.11 -254.57 -257.05 -263.01 -276.37 -302.11 -346.91 -417.11 -511.42 -601.55 -643.03 -636.03 -608.22 -580.62 -561.39 -550.77 -546.98 -550.00 -558.00 -567.07 -570.63 -575.72 -604.74 -658.51 -718.92 -759.51 -773.52
1448.91 1436.97 1394.59 1326.44 1273.98 1244.87 1220.53 1201.42 1199.82 1220.74 1257.24 1296.40 1329.38 1351.87 1359.08 1352.37 1337.00 1319.72 1304.79 1292.74 1284.76 1277.73 1269.54 1257.35 1210.16 1035.08 751.33 573.41 533.93 546.50 572.39 592.17 597.84 591.38 574.64 552.65 536.76 534.94 549.31 568.43 574.63 572.76 573.42 577.41 580.14 579.22 575.91 569.20 556.86 536.70 496.70 388.07 221.72 119.04 93.11 91.00 91.35 87.65 78.78 68.73 62.97 62.61 63.61 54.13 11.14 -56.52 -95.78 -102.29 -101.40 -103.61 -109.09 -113.56 -114.60 -114.40 -115.07 -116.76 -123.48 -147.02 -183.13 -201.16 -200.00 -195.86 -192.94 -190.99 -190.00 -189.59 -189.31 -189.49 -190.81 -193.88 -197.15 -199.85 -202.73 -205.82 -208.79 -211.08 -212.95 -214.31 -215.13 -216.54 -217.81 -217.63 -218.35 -220.82 -223.19 -224.61 -225.23 -225.93 -227.37 -228.33 -228.37 -228.63 -230.67 -237.40 -253.27 -282.40 -331.52 -406.60 -492.30 -548.81 -559.55 -542.66 -520.86 -504.66 -495.96 -492.30 -493.65 -500.93 -511.78 -518.62 -526.65 -554.14 -601.78 -654.19 -690.15 -703.22
1410.47 1394.78 1350.02 1290.05 1249.19 1227.70 1209.49 1195.18 1194.86 1214.15 1248.07 1284.02 1313.55 1334.87 1346.28 1350.24 1350.64 1351.06 1352.58 1350.43 1340.29 1324.05 1307.79 1288.75 1238.20 1065.02 785.46 612.55 578.71 594.05 614.84 622.21 613.45 593.32 564.83 536.78 522.10 525.00 543.46 564.89 572.15 570.07 568.70 570.30 571.64 568.39 559.81 548.00 535.50 520.74 486.90 381.29 215.95 113.55 87.01 82.70 80.45 76.46 70.35 64.07 60.15 58.79 57.12 45.61 2.99 -63.51 -103.10 -110.16 -108.49 -108.45 -110.81 -112.35 -110.96 -108.44 -107.67 -109.40 -116.80 -140.88 -177.40 -195.71 -194.71 -190.31 -187.00 -185.13 -184.99 -185.72 -186.81 -188.46 -190.91 -194.01 -196.95 -199.99 -203.66 -207.17 -210.07 -211.95 -212.68 -213.22 -214.47 -216.64 -218.59 -218.74 -218.91 -220.33 -221.91 -223.32 -224.02 -224.49 -225.24 -225.53 -225.55 -225.39 -225.48 -227.86 -237.32 -258.04 -294.67 -353.81 -428.94 -490.02 -511.64 -502.23 -484.86 -471.86 -465.84 -464.67 -468.00 -476.37 -487.40 -493.23 -498.06 -520.88 -561.85 -605.23 -633.17 -642.58
1393.37 1373.57 1323.95 1265.12 1227.70 1208.47 1194.83 1186.01 1188.01 1205.53 1235.27 1267.29 1292.67 1310.48 1321.87 1333.78 1351.15 1369.56 1383.03 1384.58 1369.22 1344.94 1323.21 1301.97 1253.77 1086.69 814.67 649.48 621.89 637.39 647.79 637.78 612.39 581.49 547.28 517.68 504.04 507.90 526.61 548.55 556.31 553.67 551.50 553.87 556.32 552.47 541.08 526.64 514.60 504.25 475.98 374.50 211.91 110.52 82.85 75.71 71.05 66.62 62.85 60.87 59.62 57.74 54.09 41.82 1.14 -63.35 -103.48 -111.86 -110.16 -108.64 -108.72 -107.96 -104.59 -100.28 -98.43 -100.17 -107.75 -131.58 -168.67 -188.99 -190.07 -186.98 -184.70 -183.34 -183.49 -185.08 -187.43 -190.47 -194.13 -197.57 -200.29 -202.98 -205.95 -208.65 -210.36 -211.21 -211.55 -211.92 -213.30 -215.97 -218.69 -219.94 -220.13 -220.42 -221.11 -222.00 -222.70 -223.60 -224.43 -224.58 -224.79 -224.80 -224.46 -224.96 -230.58 -245.70 -272.98 -318.84 -382.14 -440.08 -468.45 -465.55 -451.68 -441.35 -438.01 -440.49 -448.24 -459.77 -471.32 -477.27 -481.64 -500.74 -534.06 -568.54 -589.73 -596.24
1389.36 1366.97 1312.68 1249.75 1210.61 1192.04 1181.78 1177.52 1182.48 1198.08 1220.66 1244.60 1264.25 1279.94 1293.15 1312.00 1341.43 1370.42 1386.42 1385.19 1367.44 1342.15 1317.97 1295.33 1250.00 1089.90 827.11 670.81 648.18 662.76 666.73 645.35 606.73 566.62 530.35 502.23 488.58 489.61 505.44 526.99 535.65 533.52 531.80 534.84 537.40 532.94 521.66 508.47 498.04 489.97 465.15 367.63 208.00 107.69 80.37 73.83 69.72 65.30 62.30 62.55 62.66 59.86 55.06 43.53 5.36 -57.31 -97.78 -107.05 -104.70 -101.60 -100.33 -98.78 -95.30 -91.58 -90.02 -91.43 -98.61 -122.27 -160.07 -182.75 -186.55 -185.39 -184.65 -184.37 -185.34 -187.76 -190.54 -193.84 -198.11 -202.31 -205.42 -207.54 -208.95 -209.82 -209.88 -210.05 -210.88 -211.66 -213.18 -215.86 -218.33 -219.89 -220.52 -220.47 -220.47 -220.68 -221.50 -222.77 -223.95 -224.38 -224.41 -224.35 -224.24 -224.37 -227.82 -238.30 -258.26 -292.90 -342.71 -393.49 -425.45 -428.47 -418.44 -411.27 -410.98 -416.94 -428.73 -444.11 -458.53 -467.08 -472.68 -489.42 -517.87 -546.72 -563.36 -568.00
1398.78 1373.55 1313.24 1243.92 1202.50 1186.28 1179.18 1175.69 1177.90 1186.95 1200.32 1214.96 1229.76 1246.90 1265.54 1289.18 1319.80 1347.04 1358.31 1353.20 1337.47 1316.35 1293.33 1271.67 1229.33 1075.21 820.75 671.57 652.15 667.91 673.55 651.52 607.09 559.93 522.45 495.99 481.36 478.54 490.78 510.92 519.52 517.57 516.23 518.44 519.40 514.18 504.57 494.89 487.26 480.66 457.53 362.10 203.65 104.33 79.69 77.35 76.50 73.16 69.79 69.53 69.66 66.54 61.91 51.51 13.60 -49.85 -90.85 -99.84 -96.36 -91.57 -88.83 -87.31 -85.71 -84.49 -84.00 -85.20 -92.31 -116.67 -155.11 -179.01 -184.69 -185.20 -185.93 -187.01 -188.87 -191.51 -193.98 -197.00 -201.61 -206.63 -210.17 -211.45 -211.42 -210.92 -210.18 -210.26 -211.32 -212.57 -214.74 -217.40 -218.99 -219.78 -220.37 -220.47 -220.60 -221.04 -222.08 -223.13 -224.24 -224.98 -224.99 -224.84 -224.69 -224.61 -226.49 -233.22 -248.31 -275.78 -314.84 -356.20 -384.84 -390.36 -384.03 -379.92 -382.43 -391.58 -407.21 -427.27 -447.24 -460.87 -469.98 -489.30 -519.66 -547.98 -561.89 -564.93
1413.53 1386.36 1322.68 1250.24 1209.55 1197.48 1192.97 1186.14 1178.65 1175.74 1179.15 1186.92 1199.24 1218.67 1241.81 1265.75 1289.04 1305.53 1309.84 1304.95 1295.00 1279.36 1259.13 1240.60 1202.30 1052.93 803.55 657.14 637.79 655.49 666.29 648.92 606.42 559.41 523.59 500.02 485.60 478.96 486.89 504.56 511.91 508.91 506.55 506.69 505.46 500.38 492.97 486.36 481.70 477.10 455.24 360.10 201.09 102.95 81.89 83.91 86.80 85.42 81.71 79.97 79.94 77.70 74.11 63.85 23.49 -42.84 -84.31 -92.39 -88.25 -82.39 -78.43 -77.50 -78.74 -80.38 -81.04 -82.72 -90.54 -115.69 -154.40 -178.45 -184.79 -186.38 -188.67 -191.57 -193.91 -195.54 -196.75 -198.94 -203.55 -209.37 -213.46 -214.36 -213.37 -212.37 -212.16 -212.71 -213.68 -215.03 -217.24 -219.42 -220.14 -219.83 -220.06 -220.70 -221.56 -222.42 -223.06 -223.50 -224.54 -225.41 -225.40 -225.15 -225.18 -225.48 -225.99 -229.22 -239.90 -262.09 -293.92 -326.98 -349.57 -354.64 -350.64 -348.09 -351.21 -361.73 -380.55 -406.45 -434.31 -455.10 -471.54 -499.18 -534.86 -566.02 -582.92 -587.79
1423.85 1401.39 1344.26 1272.74 1232.12 1222.65 1217.96 1204.69 1186.17 1172.16 1166.68 1168.58 1178.92 1199.36 1223.15 1242.95 1257.18 1264.65 1266.99 1268.23 1266.46 1254.68 1234.57 1216.22 1178.60 1029.84 781.02 633.06 611.68 631.51 647.98 638.31 604.86 564.42 533.26 515.94 505.29 495.79 498.63 513.40 519.17 513.52 507.29 503.44 499.48 494.85 489.85 485.24 482.23 479.72 459.76 364.88 205.11 107.35 87.73 91.20 96.19 97.44 95.08 92.26 91.23 90.29 88.04 76.43 32.92 -35.22 -76.40 -84.03 -80.14 -74.39 -70.48 -70.09 -73.47 -77.85 -80.36 -83.29 -92.15 -117.95 -156.88 -180.77 -187.25 -189.47 -192.96 -197.45 -200.06 -200.12 -199.22 -199.61 -203.48 -209.88 -214.96 -216.23 -215.01 -214.28 -215.12 -216.29 -217.30 -218.10 -218.83 -219.60 -219.69 -219.26 -219.65 -220.80 -222.11 -222.90 -223.09 -223.22 -224.26 -224.99 -224.98 -224.97 -225.42 -225.97 -225.77 -226.85 -233.64 -250.96 -278.01 -305.29 -321.42 -322.97 -319.22 -318.22 -322.01 -332.79 -353.18 -383.51 -418.87 -448.31 -476.00 -514.61 -555.23 -588.92 -610.59 -618.49
1446.54 1431.14 1381.85 1308.34 1261.92 1248.77 1238.84 1217.52 1190.50 1169.53 1157.79 1154.69 1162.97 1182.58 1203.52 1217.85 1226.99 1232.89 1239.21 1249.27 1256.30 1248.14 1226.07 1202.82 1159.41 1005.71 754.31 604.69 583.46 606.49 628.66 628.52 607.44 577.07 553.01 543.14 537.97 528.40 527.03 537.64 540.31 529.99 517.56 508.84 502.68 498.50 495.28 491.78 489.13 488.08 470.66 377.56 218.51 120.46 99.57 101.41 106.40 109.83 109.00 104.63 101.31 101.19 100.58 87.71 41.84 -26.40 -66.38 -74.24 -72.06 -67.93 -65.38 -65.85 -70.31 -76.48 -81.38 -86.15 -95.54 -121.65 -161.33 -185.30 -191.69 -194.65 -198.95 -203.74 -206.01 -204.97 -202.49 -201.23 -203.84 -209.82 -215.32 -216.90 -215.77 -215.56 -216.80 -217.73 -218.49 -218.96 -218.64 -218.01 -217.74 -217.99 -218.88 -220.11 -221.36 -222.08 -222.42 -222.59 -223.33 -224.01 -224.48 -224.97 -225.17 -225.14 -224.95 -225.54 -229.63 -241.91 -262.90 -282.89 -291.72 -290.67 -288.99 -290.56 -295.47 -306.03 -327.10 -360.03 -400.44 -438.72 -477.71 -524.61 -569.60 -604.28 -625.39 -632.63
1446.21 1429.86 1378.57 1303.94 1253.99 1232.38 1212.55 1183.06 1151.34 1127.10 1111.31 1104.69 1110.73 1127.34 1143.09 1152.21 1159.82 1169.69 1183.43 1201.20 1214.57 1210.83 1189.18 1161.14 1111.39 958.49 717.97 577.84 561.29 586.67 612.36 620.42 610.21 591.38 576.78 572.17 569.38 560.79 556.72 561.70 558.78 542.36 523.72 511.48 505.36 502.39 499.78 496.29 493.34 492.68 477.52 389.20 235.56 139.28 115.92 114.51 117.96 121.52 120.94 115.80 111.35 111.15 110.91 97.62 51.39 -16.15 -55.32 -64.15 -64.66 -63.55 -63.23 -65.01 -70.14 -76.99 -83.54 -89.56 -98.43 -124.12 -164.94 -190.02 -196.79 -200.46 -205.29 -209.52 -210.97 -209.72 -207.15 -205.36 -206.66 -211.22 -215.64 -216.74 -215.46 -215.12 -215.82 -216.08 -216.56 -217.27 -217.28 -216.40 -215.77 -216.22 -217.37 -218.79 -220.00 -220.63 -221.35 -222.18 -222.96 -223.72 -224.55 -224.87 -224.29 -223.81 -223.99 -224.46 -226.00 -232.23 -244.64 -256.25 -259.83 -259.32 -261.08 -264.63 -269.45 -279.36 -300.34 -333.58 -375.01 -418.36 -465.17 -516.85 -564.01 -598.67 -616.89 -621.90
1292.68 1270.46 1215.02 1148.39 1102.71 1070.30 1036.73 999.77 966.24 941.32 923.57 913.86 914.81 924.22 932.69 937.10 944.06 958.25 978.10 999.70 1015.08 1015.17 997.76 970.58 925.89 810.68 639.42 545.24 541.70 567.06 590.81 601.30 598.03 589.82 585.81 586.55 584.62 575.92 568.07 564.01 552.15 529.57 507.15 494.19 490.34 489.26 485.83 480.40 475.79 474.21 460.43 380.35 240.05 151.15 127.46 123.91 125.51 127.70 127.29 123.62 120.33 119.52 117.76 104.60 60.45 -5.94 -45.94 -56.75 -59.59 -61.14 -62.60 -65.21 -70.74 -77.74 -84.63 -90.63 -98.35 -123.26 -165.08 -191.89 -199.97 -204.30 -209.34 -213.37 -214.87 -214.08 -211.79 -210.12 -210.60 -213.38 -215.62 -215.30 -213.59 -213.12 -213.70 -213.89 -214.61 -215.92 -216.82 -216.68 -216.07 -216.13 -216.90 -218.24 -219.14 -219.47 -220.74 -222.56 -223.56 -224.09 -224.51 -224.23 -223.38 -222.80 -223.06 -223.25 -222.86 -224.27 -229.51 -235.24 -236.52 -236.45 -238.69 -241.82 -245.83 -255.19 -275.16 -305.68 -342.76 -385.04 -436.04 -491.30 -537.57 -570.13 -586.64 -591.22
1014.50 991.14 938.21 880.49 837.95 795.62 748.71 704.25 668.53 643.42 624.86 611.13 603.51 601.77 601.23 601.04 606.46 621.44 643.27 664.91 678.79 679.92 666.43 644.38 617.93 575.86 525.64 507.72 521.97 544.37 561.06 567.09 565.07 563.24 567.85 575.52 577.40 571.16 561.07 547.68 526.71 499.63 476.13 464.06 462.68 463.34 458.59 449.92 442.36 438.30 423.83 352.39 229.21 151.59 130.53 126.55 126.59 127.10 126.66 124.93 123.75 123.58 121.73 109.64 67.89 3.38 -37.22 -50.30 -55.30 -58.85 -61.51 -64.39 -69.68 -76.44 -83.38 -89.34 -96.53 -120.70 -162.23 -189.54 -198.60 -203.59 -208.98 -213.72 -216.37 -216.45 -214.77 -213.57 -213.32 -213.73 -213.60 -212.15 -210.98 -211.86 -213.53 -214.13 -215.01 -216.61 -218.05 -218.73 -218.36 -217.93 -218.11 -219.19 -219.91 -220.12 -221.21 -222.65 -223.64 -224.17 -224.35 -223.88 -222.93 -222.04 -222.16 -222.52 -221.93 -221.56 -223.00 -225.10 -225.32 -225.11 -226.13 -227.69 -230.37 -238.02 -254.74 -280.19 -311.34 -350.11 -400.76 -455.28 -497.64 -526.50 -541.86 -546.87
875.69 853.94 802.33 742.19 694.99 646.03 591.26 540.86 501.58 475.09 455.95 438.91 423.84 412.24 403.54 398.51 400.96 413.66 433.45 451.79 461.82 461.83 451.59 435.53 424.44 431.23 458.22 487.41 509.14 525.36 534.28 534.86 532.14 533.38 542.10 553.89 560.44 560.22 554.27 540.81 518.73 490.61 466.50 454.89 454.83 456.62 451.52 441.05 431.56 424.56 406.50 337.07 221.88 149.85 130.02 125.70 124.88 123.72 122.07 120.70 121.29 123.89 125.18 115.82 75.73 12.31 -29.05 -44.35 -51.47 -56.75 -60.41 -63.63 -68.34 -74.56 -82.01 -88.49 -95.99 -119.82 -160.18 -187.06 -196.52 -201.42 -206.31 -211.23 -215.06 -216.45 -215.82 -214.80 -213.43 -211.76 -210.26 -209.12 -209.87 -212.72 -215.08 -215.39 -215.89 -217.48 -219.08 -220.13 -220.00 -219.22 -218.82 -219.78 -221.32 -222.15 -222.40 -222.66 -223.48 -224.26 -224.53 -224.15 -223.28 -222.42 -222.43 -222.96 -222.62 -221.40 -220.90 -221.20 -221.33 -221.44 -221.82 -222.40 -223.54 -227.95 -239.27 -259.00 -286.06 -320.62 -364.49 -412.08 -448.95 -475.35 -490.49 -495.57
882.11 861.08 807.79 740.19 685.30 631.96 574.03 521.86 481.54 454.05 433.87 414.31 394.43 375.90 361.07 352.48 353.00 363.27 378.64 390.97 395.55 393.65 386.81 376.79 373.60 395.34 442.78 482.77 502.26 510.68 512.07 508.87 507.35 511.58 520.09 529.66 537.55 544.30 547.83 543.00 527.53 502.47 478.79 466.44 464.53 465.21 460.47 450.72 441.36 432.59 410.85 337.93 220.98 147.92 127.71 123.43 122.10 119.42 116.01 113.42 114.02 118.78 123.81 118.18 80.50 17.66 -25.07 -42.13 -50.38 -56.51 -61.15 -65.18 -69.56 -75.11 -82.52 -89.18 -97.52 -122.11 -162.02 -188.13 -197.49 -202.11 -205.40 -208.58 -211.86 -213.95 -214.02 -212.58 -210.83 -209.45 -208.55 -208.72 -210.80 -213.65 -214.99 -214.51 -214.94 -217.14 -218.86 -219.50 -219.47 -218.85 -218.34 -219.03 -221.05 -222.45 -222.55 -222.54 -223.08 -223.68 -223.84 -223.76 -223.89 -223.76 -223.25 -223.30 -223.27 -221.65 -219.69 -218.76 -219.01 -219.62 -219.78 -219.94 -220.39 -222.29 -228.51 -241.80 -262.72 -288.62 -321.10 -361.96 -396.76 -422.70 -437.82 -442.91
890.74 872.15 822.11 754.51 696.31 639.49 578.74 527.26 489.96 463.33 441.70 420.39 398.43 377.04 360.14 350.33 349.01 355.60 365.59 372.40 372.99 369.99 365.40 360.28 363.09 390.76 442.31 482.70 498.32 499.47 493.32 486.34 486.24 492.68 498.71 503.49 510.76 523.39 537.17 542.72 535.59 515.80 493.99 480.01 473.82 470.79 465.31 457.18 449.04 439.67 416.05 339.10 217.95 142.83 122.64 118.65 116.78 113.20 108.75 105.25 104.82 109.28 116.16 113.50 78.78 17.18 -26.47 -44.60 -52.97 -58.66 -63.75 -68.21 -71.84 -76.07 -82.07 -88.63 -98.93 -125.97 -166.70 -192.12 -200.96 -205.24 -206.94 -207.65 -208.96 -210.65 -210.69 -208.96 -208.11 -208.82 -209.78 -211.01 -212.58 -213.48 -213.16 -212.32 -213.20 -216.20 -218.20 -218.40 -218.08 -217.47 -217.04 -217.59 -219.41 -221.12 -222.04 -222.55 -222.76 -222.84 -223.02 -223.39 -224.29 -224.57 -223.75 -223.36 -223.37 -221.82 -219.07 -216.84 -216.48 -217.12 -217.08 -216.93 -217.66 -219.21 -222.31 -229.29 -240.75 -252.68 -271.02 -305.24 -340.12 -367.34 -383.31 -388.86
874.49 855.16 806.96 744.46 686.89 625.93 561.67 511.55 479.35 456.83 437.14 417.76 398.26 379.54 365.24 355.33 350.08 350.26 354.05 356.90 356.53 354.76 352.35 351.11 359.02 390.56 443.07 481.79 494.13 490.08 478.47 468.56 468.31 474.72 479.39 483.26 491.88 508.11 527.83 539.51 537.02 520.80 500.40 485.06 475.58 469.05 462.20 455.13 448.13 438.83 414.51 335.57 212.43 137.17 117.69 113.69 111.61 108.22 104.01 100.47 98.58 100.96 107.75 106.77 74.36 14.37 -28.97 -47.23 -55.69 -60.93 -65.56 -69.40 -71.99 -74.72 -79.26 -86.45 -99.01 -128.36 -170.31 -195.84 -204.48 -208.23 -209.33 -208.94 -208.58 -208.69 -207.75 -206.23 -206.47 -208.77 -211.42 -213.01 -213.33 -212.69 -211.54 -210.99 -212.44 -215.34 -217.31 -217.41 -216.69 -215.70 -214.97 -215.70 -217.68 -219.98 -221.76 -222.56 -222.62 -222.60 -223.11 -223.97 -224.74 -224.31 -223.24 -222.88 -222.54 -220.62 -217.42 -214.25 -212.97 -213.23 -213.12 -212.89 -214.26 -216.75 -219.17 -222.45 -225.95 -225.11 -228.31 -250.15 -280.00 -307.39 -325.53 -332.14
841.72 821.61 773.45 711.92 653.33 591.47 529.63 484.18 456.02 436.31 419.70 405.62 393.79 383.17 374.16 363.59 353.12 346.79 345.27 345.60 345.32 344.05 342.73 344.52 355.38 387.27 437.71 473.61 483.97 478.79 466.15 455.12 453.29 458.40 464.48 473.02 486.59 504.56 523.09 533.33 529.99 514.52 495.37 480.23 469.74 461.77 454.46 448.32 442.44 433.64 409.26 330.76 209.27 136.09 118.16 114.77 113.12 110.53 106.48 101.41 96.16 95.00 100.24 100.52 70.60 12.98 -28.20 -45.45 -54.18 -59.71 -63.42 -66.06 -68.32 -71.01 -75.74 -84.31 -98.34 -128.42 -171.08 -197.04 -205.22 -208.55 -210.31 -210.18 -208.93 -207.46 -205.84 -205.21 -206.20 -208.86 -211.54 -212.13 -211.48 -211.01 -210.64 -210.99 -212.41 -213.98 -215.11 -214.96 -214.05 -213.15 -212.68 -213.74 -216.07 -219.21 -221.67 -222.41 -222.62 -222.79 -223.34 -224.35 -224.72 -223.57 -222.28 -221.96 -221.21 -218.84 -215.43 -211.51 -208.88 -208.16 -208.03 -208.11 -209.96 -213.19 -216.37 -219.26 -219.45 -212.04 -204.02 -211.12 -230.31 -253.44 -270.86 -277.45
785.49 770.46 730.44 672.94 615.41 559.81 509.34 472.97 445.88 421.43 402.47 394.01 393.41 393.63 389.27 376.77 361.78 351.69 347.90 346.77 344.69 340.66 337.35 339.14 349.73 378.76 423.74 455.71 465.99 463.33 454.03 444.96 442.04 445.46 453.36 467.65 486.93 505.47 518.69 522.97 516.12 500.36 483.34 469.91 459.84 452.13 445.39 440.38 436.00 428.73 405.94 330.19 212.57 142.20 125.50 122.37 120.30 117.81 113.41 106.06 97.15 91.92 93.65 93.55 66.07 11.59 -26.10 -40.99 -48.86 -54.13 -57.56 -60.14 -62.91 -66.40 -72.39 -82.20 -96.82 -126.35 -168.54 -194.82 -202.91 -206.20 -208.34 -208.03 -206.23 -204.42 -203.44 -204.73 -207.32 -209.67 -210.17 -208.43 -207.10 -207.78 -209.16 -210.16 -210.25 -210.16 -210.68 -210.42 -209.63 -209.60 -210.61 -212.72 -215.53 -219.09 -221.66 -222.39 -223.17 -223.65 -223.60 -223.84 -224.16 -223.56 -222.33 -221.44 -220.46 -218.39 -215.02 -210.61 -206.56 -203.70 -202.45 -202.63 -205.11 -209.29 -213.39 -216.76 -216.58 -207.55 -194.23 -191.52 -201.12 -217.59 -231.10 -236.22
720.34 713.43 689.04 645.94 599.08 555.31 518.03 489.95 460.82 426.64 400.72 395.43 404.38 412.45 409.48 393.86 375.60 365.02 362.54 360.89 355.23 346.39 338.35 335.97 343.01 368.00 406.79 434.23 445.45 446.96 442.69 437.05 434.10 435.75 443.11 459.37 481.72 500.62 510.72 511.31 502.46 487.12 471.88 460.22 451.58 445.26 439.45 434.88 431.84 427.46 408.15 335.85 221.36 152.45 135.28 130.49 126.40 123.17 118.97 111.23 101.02 92.67 89.45 86.05 59.39 8.08 -25.91 -37.74 -43.74 -48.46 -52.60 -56.40 -60.12 -64.28 -70.76 -80.20 -93.80 -121.79 -162.41 -188.35 -197.10 -200.76 -202.55 -201.77 -199.95 -198.76 -199.46 -203.44 -207.73 -209.17 -207.35 -204.32 -202.99 -204.16 -206.05 -206.39 -204.86 -204.04 -204.75 -205.00 -205.07 -206.18 -208.54 -211.82 -215.48 -219.11 -221.14 -221.80 -222.91 -223.72 -223.55 -222.96 -223.15 -223.43 -222.25 -220.53 -219.63 -218.46 -215.76 -211.52 -206.32 -201.00 -197.58 -196.93 -199.86 -205.48 -210.91 -214.53 -214.43 -205.75 -190.60 -183.18 -186.97 -197.08 -205.66 -208.87
681.59 677.70 661.55 631.90 601.48 573.92 548.51 524.83 493.43 452.26 419.96 413.90 425.65 434.39 428.95 410.33 389.81 379.90 380.82 380.55 371.62 357.47 343.73 335.68 337.70 358.63 393.38 417.38 428.40 433.33 433.64 430.91 428.17 428.76 434.45 449.07 471.52 491.58 502.49 503.25 494.67 480.47 466.47 456.08 448.94 444.03 439.66 436.04 434.38 432.46 415.59 344.68 230.33 160.52 141.76 134.59 128.36 124.12 120.12 113.98 105.72 96.94 89.28 80.15 51.27 2.55 -27.51 -36.31 -40.97 -45.95 -51.29 -56.33 -60.57 -64.97 -71.41 -79.35 -90.00 -115.19 -153.96 -179.28 -188.34 -192.05 -193.84 -193.90 -193.22 -193.43 -196.30 -202.10 -206.50 -206.47 -203.37 -200.32 -199.15 -200.10 -201.70 -201.55 -199.76 -199.06 -199.97 -200.88 -202.20 -204.47 -207.53 -211.31 -215.52 -218.86 -220.03 -220.23 -220.87 -221.49 -221.74 -221.46 -221.85 -222.56 -221.43 -219.35 -218.61 -218.32 -216.48 -212.21 -205.79 -199.22 -194.65 -193.04 -195.85 -202.22 -208.73 -213.05 -213.43 -205.15 -189.33 -179.85 -179.80 -183.25 -185.81 -186.83
680.44 672.21 650.56 623.18 604.72 592.81 577.97 557.45 527.94 488.15 452.78 440.92 446.81 449.34 438.78 418.17 398.07 390.58 395.97 398.58 388.00 369.96 352.04 339.49 337.17 354.80 387.37 408.46 416.70 421.98 424.89 424.12 422.20 423.63 429.60 443.09 464.58 485.14 498.12 501.29 494.52 481.98 469.79 460.64 454.52 451.20 448.88 446.37 444.38 442.10 425.25 353.41 236.30 163.61 143.21 134.41 126.37 120.23 115.43 111.51 107.59 101.63 91.95 76.86 43.28 -4.78 -31.24 -36.41 -39.24 -44.28 -50.61 -57.08 -62.34 -66.90 -72.67 -78.50 -85.80 -108.51 -146.43 -171.61 -180.43 -183.94 -185.92 -187.40 -189.14 -191.80 -196.13 -201.47 -204.58 -203.32 -199.45 -195.97 -194.37 -195.20 -197.29 -197.94 -196.96 -196.33 -197.14 -198.76 -201.30 -204.54 -208.02 -211.88 -216.27 -219.28 -219.78 -219.38 -218.95 -218.53 -218.92 -219.87 -221.17 -222.22 -221.66 -219.83 -218.80 -218.07 -215.85 -211.14 -204.53 -198.69 -194.53 -192.24 -194.48 -200.83 -207.62 -212.74 -214.09 -205.60 -188.81 -178.42 -175.96 -174.91 -174.30 -174.65
673.13 661.70 634.27 604.17 590.63 589.85 585.35 570.83 546.91 512.75 477.58 460.17 457.58 450.54 432.64 409.81 392.86 391.33 402.33 407.26 395.50 374.80 353.74 338.05 333.78 352.73 389.57 411.29 415.21 416.62 418.63 418.75 419.25 423.95 432.86 448.00 469.20 488.48 501.90 507.77 504.35 494.56 484.27 476.27 471.88 471.11 469.86 465.33 459.63 454.64 436.04 361.23 239.01 161.79 139.13 129.81 121.27 113.28 106.84 103.90 103.68 101.37 92.15 73.94 36.78 -11.94 -35.95 -37.58 -37.75 -41.39 -47.53 -55.10 -61.87 -66.38 -70.32 -73.85 -79.61 -102.88 -143.20 -170.18 -179.12 -182.49 -184.73 -187.36 -191.19 -195.47 -199.80 -203.40 -204.88 -203.02 -198.76 -194.60 -192.43 -192.93 -195.13 -196.32 -195.89 -195.34 -196.34 -198.97 -202.48 -206.25 -210.46 -215.65 -221.90 -226.12 -227.00 -226.52 -225.51 -224.26 -223.81 -224.86 -226.79 -228.45 -228.80 -227.31 -225.36 -223.16 -219.81 -214.68 -208.72 -203.95 -200.46 -198.48 -200.74 -206.69 -213.42 -219.27 -221.12 -210.81 -190.42 -177.78 -173.96 -171.58 -170.46 -170.82
616.03 604.38 576.26 545.53 533.84 539.66 545.33 540.96 525.10 495.82 463.72 445.59 436.75 420.57 395.14 369.73 356.34 362.54 378.95 383.78 369.35 344.98 320.37 302.34 299.75 334.08 397.75 433.78 435.51 430.83 429.44 429.90 433.84 442.84 455.76 474.19 495.24 511.09 521.33 527.10 527.00 521.05 512.77 506.00 504.24 506.06 504.70 496.56 485.92 477.62 457.04 376.71 244.39 159.14 133.11 123.85 116.02 107.03 98.81 95.23 95.95 95.76 88.34 70.60 32.90 -16.57 -39.69 -39.25 -37.18 -38.62 -43.15 -49.95 -57.08 -61.28 -63.50 -65.90 -72.87 -100.91 -148.44 -180.05 -190.22 -193.87 -197.02 -201.20 -205.91 -209.72 -212.90 -214.79 -214.71 -212.53 -208.29 -203.48 -200.44 -199.72 -200.79 -201.74 -201.70 -201.74 -203.49 -207.13 -211.61 -216.13 -221.81 -232.16 -246.99 -257.07 -260.18 -260.47 -259.48 -257.81 -256.08 -255.88 -257.36 -259.11 -259.93 -258.79 -256.53 -253.44 -249.01 -243.63 -238.49 -234.19 -230.93 -230.10 -233.03 -238.58 -245.16 -251.01 -251.23 -233.18 -199.38 -178.06 -172.06 -169.76 -168.76 -168.98
523.84 513.20 487.20 457.81 446.51 454.25 466.16 471.33 464.61 442.08 416.30 400.58 387.23 364.88 335.48 309.29 299.67 313.16 333.63 337.12 319.03 289.62 260.79 240.60 240.85 299.81 407.10 467.93 470.85 461.01 455.83 456.01 462.55 475.22 491.85 512.45 532.33 544.87 550.64 552.31 552.59 550.20 544.78 540.35 540.75 543.91 542.51 532.58 519.13 509.14 487.52 400.92 256.01 161.31 131.68 121.14 112.55 103.08 94.17 89.17 88.40 88.35 82.58 66.82 30.40 -19.65 -43.70 -42.97 -39.01 -37.74 -39.60 -44.17 -50.22 -54.18 -56.16 -59.17 -69.32 -104.48 -161.60 -199.06 -211.15 -215.49 -219.13 -223.80 -228.40 -231.19 -232.52 -232.86 -232.63 -231.10 -226.71 -220.46 -215.66 -213.22 -212.96 -213.91 -214.68 -215.47 -218.15 -222.94 -228.19 -233.06 -240.35 -258.87 -288.04 -307.76 -314.09 -315.36 -314.23 -311.70 -309.31 -308.36 -309.22 -310.72 -311.47 -310.59 -308.57 -305.29 -300.54 -295.42 -290.75 -286.52 -283.22 -282.94 -285.84 -290.90 -297.16 -302.38 -299.64 -268.88 -213.46 -178.66 -170.08 -168.71 -168.73 -169.35
460.70 452.13 430.07 403.32 392.22 399.00 411.71 421.27 421.77 408.61 390.90 378.06 363.63 341.71 315.07 291.93 286.00 303.03 325.54 329.00 308.94 275.47 240.88 215.56 213.98 284.58 415.02 488.75 492.15 479.71 472.24 470.90 477.00 490.91 509.73 531.03 550.21 561.77 563.92 559.29 556.44 555.93 554.08 553.77 556.34 559.47 557.83 547.97 535.06 526.33 505.33 416.33 266.07 167.71 136.27 123.51 113.05 103.27 94.18 86.82 82.51 80.39 75.27 61.86 26.98 -24.23 -50.62 -50.03 -43.49 -38.71 -37.38 -39.63 -43.96 -47.74 -50.90 -55.55 -68.30 -107.84 -170.46 -211.32 -224.66 -229.47 -232.78 -236.17 -239.38 -241.20 -241.05 -240.60 -241.28 -240.82 -236.32 -229.33 -223.67 -220.41 -219.62 -220.78 -222.09 -223.48 -226.77 -231.93 -236.95 -241.14 -248.93 -272.86 -311.21 -336.58 -344.50 -346.23 -345.30 -342.79 -340.53 -339.17 -339.20 -340.25 -340.96 -340.34 -338.45 -335.52 -331.92 -327.50 -322.73 -318.61 -315.63 -315.37 -317.46 -321.28 -326.50 -330.77 -325.75 -287.01 -219.29 -177.92 -168.74 -167.87 -168.05 -168.56
433.95 426.75 408.61 386.82 377.49 382.40 392.29 400.73 403.98 398.60 388.30 379.52 370.19 357.01 339.64 322.49 318.33 332.85 352.78 356.25 337.28 302.85 262.43 227.73 218.34 287.33 419.94 494.43 498.15 486.39 478.25 474.10 476.50 488.26 506.64 527.82 546.66 557.44 556.15 546.13 539.84 540.15 541.72 545.31 549.60 552.13 550.53 542.49 532.28 525.87 506.07 418.20 269.84 173.77 143.31 130.15 119.09 109.53 100.52 90.96 82.24 75.76 70.05 58.76 23.91 -30.29 -59.64 -59.07 -49.69 -41.05 -36.20 -36.26 -39.18 -43.22 -48.29 -54.79 -68.66 -109.26 -172.92 -214.41 -227.70 -232.09 -234.76 -236.61 -237.83 -238.55 -238.35 -238.08 -238.78 -238.41 -234.45 -228.39 -223.19 -220.39 -220.28 -221.57 -222.86 -224.66 -227.74 -231.59 -235.62 -239.23 -246.91 -272.86 -314.02 -340.08 -347.29 -348.98 -349.00 -347.68 -346.03 -344.22 -343.22 -343.47 -344.09 -344.23 -343.08 -341.17 -339.34 -335.95 -331.07 -327.33 -325.07 -324.71 -325.62 -327.39 -330.94 -334.19 -327.86 -286.68 -216.59 -175.01 -166.51 -164.91 -163.19 -162.62
418.62 412.58 397.87 380.82 373.94 378.10 385.00 389.53 390.95 388.48 383.42 380.06 378.43 375.19 367.90 358.78 357.26 367.40 379.55 379.29 361.08 326.01 281.51 239.40 223.14 288.94 420.49 495.47 502.66 494.63 486.46 478.30 474.83 481.80 497.75 517.56 534.12 541.71 537.20 525.50 518.70 519.25 522.04 526.66 531.43 534.91 535.86 531.29 523.81 518.18 498.35 411.78 267.05 175.28 147.85 136.29 126.10 117.81 109.85 99.95 88.87 78.93 71.77 59.87 21.54 -37.15 -68.30 -67.54 -56.49 -44.88 -37.05 -35.02 -36.98 -41.73 -48.32 -56.02 -70.88 -111.92 -174.90 -215.30 -227.81 -231.60 -233.54 -234.21 -234.09 -234.05 -234.12 -233.76 -233.25 -232.12 -229.21 -224.78 -220.34 -218.30 -218.81 -219.95 -221.42 -223.78 -226.52 -228.97 -232.39 -235.99 -243.77 -270.64 -312.67 -338.22 -344.11 -345.16 -345.60 -345.23 -344.62 -343.18 -341.69 -341.22 -341.77 -342.58 -342.47 -341.96 -341.75 -339.62 -335.06 -331.60 -330.14 -329.79 -329.31 -328.66 -329.91 -331.79 -324.56 -282.51 -211.90 -170.44 -162.02 -159.42 -156.39 -155.46
404.95 400.48 389.08 375.41 370.41 374.87 380.69 382.85 381.99 379.31 376.68 377.52 381.46 384.47 384.10 381.70 382.56 388.19 391.58 384.55 363.50 327.65 283.65 241.46 224.18 288.75 420.78 499.06 511.64 507.35 497.94 485.08 475.95 478.04 490.68 506.74 518.40 521.32 514.99 504.83 499.57 500.17 502.10 505.50 511.28 518.11 523.03 522.35 517.13 510.09 487.58 400.00 257.62 170.48 147.38 138.44 130.12 123.59 116.62 107.60 97.53 87.44 78.38 62.77 18.99 -43.57 -74.47 -72.83 -61.23 -48.07 -38.68 -35.67 -37.72 -43.38 -50.84 -59.10 -74.67 -115.97 -177.77 -216.75 -229.15 -233.47 -235.08 -234.64 -233.46 -232.23 -231.45 -230.51 -228.83 -226.47 -223.72 -220.46 -217.57 -216.91 -217.61 -218.39 -220.19 -223.23 -226.27 -228.76 -232.28 -235.78 -243.45 -270.64 -312.90 -338.22 -343.36 -343.60 -344.02 -344.27 -344.31 -343.35 -341.72 -341.03 -341.67 -342.57 -343.24 -344.23 -345.41 -344.49 -340.35 -336.51 -335.26 -334.94 -333.29 -330.67 -329.33 -329.04 -320.40 -277.49 -206.35 -164.57 -155.49 -152.24 -149.19 -148.44
395.18 391.23 381.50 370.41 366.63 370.80 376.19 377.97 376.65 373.72 372.21 375.65 382.68 388.20 390.55 391.23 392.55 394.08 391.01 377.71 352.84 319.15 281.41 244.00 228.43 292.64 425.71 507.11 522.46 517.98 505.29 489.21 477.24 475.60 483.70 494.04 500.47 500.12 493.85 486.75 483.84 484.90 485.97 488.26 495.96 507.02 515.52 518.16 514.97 506.29 479.91 389.16 246.17 161.63 142.58 136.52 129.75 124.02 118.25 111.29 103.03 92.69 81.07 61.96 14.97 -48.58 -77.97 -74.92 -62.95 -49.52 -40.26 -38.12 -41.44 -47.71 -55.57 -64.24 -79.89 -121.17 -182.37 -220.55 -233.46 -239.01 -240.96 -240.00 -237.76 -234.62 -231.68 -229.26 -226.49 -223.09 -220.12 -217.73 -216.61 -217.24 -218.13 -218.84 -220.98 -224.77 -228.89 -232.07 -235.57 -239.32 -247.28 -274.24 -315.68 -340.46 -345.59 -345.70 -346.24 -346.72 -346.46 -345.35 -343.64 -342.99 -343.74 -345.03 -346.60 -348.37 -349.75 -348.69 -344.49 -340.85 -340.20 -340.18 -337.92 -333.92 -330.13 -327.34 -316.92 -272.99 -201.47 -159.62 -150.33 -147.16 -144.25 -143.21
392.72 388.64 378.87 368.26 364.58 367.82 371.80 372.66 371.36 369.33 369.65 375.16 383.09 388.12 390.11 390.98 391.98 391.60 384.99 368.25 343.41 316.17 287.34 255.38 240.50 302.41 433.68 513.90 527.17 519.08 503.33 486.73 474.69 470.55 473.22 477.46 479.77 478.84 475.08 471.74 471.10 471.81 471.68 473.84 483.73 498.18 509.84 515.91 515.49 506.95 478.25 384.72 239.01 153.15 135.09 130.86 124.81 119.06 114.94 110.14 102.35 90.70 76.90 56.29 9.80 -51.88 -79.50 -75.28 -63.38 -51.65 -45.16 -45.41 -49.54 -55.08 -62.38 -71.26 -87.24 -128.86 -190.15 -227.91 -240.67 -246.80 -249.29 -248.19 -245.17 -240.77 -235.68 -231.13 -227.13 -223.15 -220.24 -218.88 -219.54 -221.01 -221.35 -221.13 -222.99 -227.47 -232.80 -236.61 -240.36 -244.94 -253.69 -280.03 -320.08 -344.17 -349.54 -349.98 -350.46 -350.61 -349.90 -348.78 -347.35 -346.62 -347.19 -348.98 -351.11 -352.69 -353.17 -351.14 -347.21 -344.87 -345.41 -346.05 -343.72 -338.85 -333.27 -328.36 -316.10 -270.94 -199.08 -157.64 -149.05 -146.54 -144.46 -144.12
394.23 390.42 380.44 368.88 364.39 366.48 368.74 368.73 367.62 366.72 368.95 376.08 383.52 385.73 384.71 384.07 384.87 384.22 376.37 359.52 338.90 319.96 298.74 270.68 256.28 313.95 437.76 511.45 520.66 510.14 494.31 479.84 470.73 467.03 465.45 463.67 462.00 461.23 460.55 460.64 461.46 460.40 458.00 460.00 471.11 487.65 502.53 512.45 515.29 508.05 478.68 383.94 235.99 146.72 126.15 122.02 117.09 111.74 108.48 104.74 96.95 85.03 71.56 52.09 7.87 -51.90 -79.47 -75.92 -65.87 -58.57 -57.06 -58.76 -60.72 -64.00 -70.78 -80.27 -96.58 -138.35 -199.75 -236.92 -248.44 -254.31 -257.31 -256.18 -253.08 -248.78 -242.96 -237.03 -231.67 -226.89 -223.88 -223.11 -224.93 -226.97 -226.57 -225.08 -225.72 -229.57 -234.79 -239.05 -243.53 -248.63 -257.87 -283.88 -323.25 -347.12 -353.03 -354.36 -355.13 -355.16 -354.00 -352.61 -351.58 -351.24 -351.67 -353.22 -354.85 -355.62 -355.53 -353.62 -350.67 -349.35 -349.91 -350.22 -348.15 -343.70 -337.76 -331.48 -317.94 -272.16 -199.92 -158.56 -150.70 -149.28 -148.85 -149.79
395.24 391.70 382.08 370.40 364.94 365.55 367.11 367.81 367.38 366.62 369.30 377.07 383.78 383.11 378.24 375.29 375.58 374.11 364.98 348.76 331.87 318.95 303.63 279.15 265.24 318.45 433.83 501.50 510.00 501.87 489.65 479.13 473.91 471.67 467.25 460.64 455.32 452.77 452.09 453.98 456.06 453.42 448.17 447.77 457.27 475.29 494.34 507.38 511.66 505.18 476.71 383.18 235.33 143.67 119.39 113.48 109.06 104.21 101.06 98.41 91.55 80.69 69.82 53.76 11.91 -48.64 -79.80 -79.60 -72.81 -69.99 -71.55 -71.68 -70.08 -71.76 -78.90 -89.21 -105.69 -147.43 -208.73 -245.11 -255.00 -259.63 -262.39 -261.40 -258.79 -255.11 -249.66 -243.65 -237.88 -232.99 -230.14 -229.23 -230.68 -232.49 -231.50 -229.16 -228.46 -230.80 -234.85 -238.90 -243.16 -247.58 -256.75 -283.36 -323.36 -347.75 -354.71 -357.22 -358.82 -359.15 -357.62 -355.77 -355.04 -355.33 -355.61 -356.40 -356.79 -356.33 -356.30 -355.84 -354.52 -353.94 -353.80 -352.50 -349.72 -345.99 -340.94 -334.59 -321.07 -275.72 -203.20 -161.29 -153.87 -154.04 -155.36 -157.11
398.35 394.70 384.68 372.04 365.29 364.90 366.48 367.71 367.71 367.31 370.15 377.42 382.88 380.33 372.98 367.98 366.43 362.63 352.00 335.56 318.33 305.86 294.48 274.78 261.13 312.15 426.82 496.56 509.09 505.37 497.21 489.45 484.77 480.77 474.00 466.22 460.10 454.62 449.84 450.22 453.53 450.99 442.55 436.89 441.95 460.41 483.56 498.74 502.75 496.34 470.01 380.04 235.04 143.29 116.46 108.37 103.19 98.36 95.17 93.12 87.99 79.77 72.00 58.79 18.00 -45.92 -83.64 -88.40 -83.95 -82.48 -83.77 -81.48 -77.90 -79.26 -86.15 -96.04 -112.77 -154.93 -216.47 -252.57 -260.94 -263.07 -264.23 -263.57 -262.08 -259.08 -253.90 -248.20 -243.20 -239.63 -237.77 -236.61 -236.83 -237.35 -235.13 -231.60 -229.90 -231.48 -234.86 -238.61 -242.01 -245.16 -253.60 -280.89 -322.26 -347.62 -355.36 -358.52 -360.58 -361.05 -359.98 -358.93 -358.81 -359.09 -358.83 -358.72 -358.07 -356.74 -356.65 -357.34 -357.58 -357.74 -357.30 -355.12 -351.45 -347.13 -342.41 -337.27 -325.37 -281.01 -208.55 -165.88 -158.36 -159.65 -161.84 -163.66
