2488.14 2453.89 2367.40 2256.48 2169.79 2116.37 2096.20 2101.64 2111.36 2109.34 2094.95 2073.83 2044.27 2008.08 1981.76 1964.99 1950.73 1942.19 1944.77 1958.26 1974.67 1984.07 1982.33 1971.57 1900.26 1580.35 1046.56 716.81 634.13 618.29 609.84 602.96 597.22 593.00 590.89 588.47 580.78 536.04 351.05 47.49 -138.30 -183.45 -192.34 -196.01 -196.93 -196.15 -194.51 -192.07 -188.01 -186.06 -197.26 -249.17 -333.84 -386.61 -401.29 -404.88 -406.73 -407.54 -407.95 -408.69 -409.65 -410.66 -411.86 -423.90 -480.30 -573.93 -629.84 -640.74 -641.11 -641.90 -642.96 -644.02 -645.12 -647.26 -652.35 -660.18 -674.16 -707.44 -756.04 -790.25 -803.81 -808.35 -808.56 -805.19 -799.86 -794.64 -791.03 -790.66 -795.88 -828.15 -963.27 -1194.07 -1358.31 -1449.54 -1562.48 -1714.74 -1875.42 -2039.35 -2213.46 -2363.46 -2478.09 -2579.93 -2702.89 -2900.40 -3152.69 -3320.66 -3394.47 -3433.36 -3454.57 -3465.39 -3471.28 -3474.33 -3476.07 -3479.33 -3487.05 -3516.09 -3622.64 -3793.98 -3902.27 -3934.73 -3946.23 -3955.52 -3964.89 -3972.47 -3977.94 -3983.94 -3992.39 -3994.99 -3900.91 -3437.54 -2667.26 -2209.50 -2126.78 -2141.81 -2154.54 -2158.10
2667.00 2626.55 2523.06 2390.42 2286.66 2218.13 2186.15 2185.95 2192.97 2190.67 2176.29 2153.77 2122.07 2082.49 2052.50 2032.38 2015.45 2004.38 2005.25 2018.33 2035.71 2047.29 2047.32 2036.99 1963.86 1638.89 1097.53 762.00 677.78 664.01 659.17 654.83 649.60 644.95 642.90 641.46 634.26 587.13 394.16 79.03 -114.59 -163.45 -173.75 -177.60 -177.54 -175.52 -173.67 -171.34 -167.04 -164.43 -175.43 -228.50 -315.24 -369.45 -384.12 -387.01 -387.65 -387.74 -388.17 -388.59 -389.02 -390.14 -392.04 -403.78 -456.50 -543.41 -595.11 -605.77 -606.75 -607.59 -608.95 -610.33 -610.81 -610.90 -612.60 -616.70 -627.34 -657.99 -705.94 -740.58 -754.37 -759.35 -759.62 -755.31 -749.78 -745.84 -743.19 -742.71 -747.50 -781.05 -923.78 -1164.62 -1327.92 -1400.27 -1477.24 -1584.26 -1702.17 -1846.68 -2029.11 -2204.55 -2364.67 -2527.40 -2696.21 -2911.16 -3168.19 -3337.54 -3410.50 -3448.91 -3472.13 -3485.26 -3491.75 -3494.18 -3495.42 -3497.58 -3503.41 -3530.70 -3636.96 -3810.56 -3920.98 -3953.93 -3964.58 -3971.19 -3976.65 -3980.83 -3984.33 -3989.05 -3995.72 -3996.20 -3899.06 -3430.35 -2653.82 -2192.22 -2107.24 -2120.32 -2132.62 -2136.63
2790.71 2747.38 2629.09 2469.48 2345.33 2270.43 2239.72 2239.65 2241.49 2236.15 2221.76 2197.41 2157.84 2107.48 2070.90 2048.69 2030.52 2017.25 2015.44 2027.78 2047.22 2061.19 2062.89 2052.95 1978.28 1650.61 1105.71 767.29 683.34 672.09 670.36 667.17 660.89 654.89 652.05 651.19 644.97 596.41 400.19 82.21 -113.51 -162.85 -172.12 -174.63 -172.78 -169.46 -167.84 -166.39 -162.29 -159.04 -169.70 -223.49 -311.49 -366.40 -380.70 -382.68 -382.23 -381.92 -382.48 -383.02 -383.81 -385.69 -388.47 -400.80 -453.28 -539.07 -590.38 -601.77 -603.27 -604.14 -605.51 -607.05 -607.82 -607.64 -607.97 -610.20 -618.07 -644.84 -689.61 -722.07 -734.70 -739.79 -740.55 -737.21 -733.16 -730.27 -728.18 -728.14 -732.94 -766.76 -909.87 -1147.35 -1301.58 -1356.95 -1402.27 -1468.63 -1555.48 -1684.80 -1868.63 -2067.34 -2271.11 -2488.14 -2691.40 -2919.51 -3182.53 -3354.52 -3427.23 -3464.05 -3488.18 -3503.58 -3511.23 -3513.76 -3514.52 -3515.64 -3519.78 -3546.41 -3652.36 -3825.26 -3935.16 -3967.72 -3978.52 -3984.84 -3989.02 -3991.03 -3991.98 -3994.17 -3998.29 -3996.26 -3896.87 -3425.89 -2646.88 -2182.80 -2094.57 -2104.51 -2116.04 -2120.26
2848.91 2809.32 2691.61 2521.95 2389.86 2319.91 2300.83 2306.09 2302.01 2286.56 2265.41 2235.36 2184.75 2122.69 2081.43 2059.99 2043.20 2029.57 2024.40 2033.81 2054.02 2070.38 2074.50 2066.04 1990.74 1660.28 1111.71 771.25 687.52 676.60 674.97 671.05 662.65 654.35 650.24 649.63 644.08 594.34 396.18 77.31 -118.62 -166.52 -173.09 -173.05 -169.05 -164.19 -161.75 -160.53 -157.59 -155.38 -166.69 -220.74 -308.95 -364.01 -377.98 -378.76 -376.96 -376.38 -377.29 -378.67 -380.77 -383.65 -387.12 -399.90 -452.41 -537.52 -588.69 -600.47 -601.96 -602.67 -603.77 -605.33 -607.04 -608.04 -608.49 -609.94 -616.15 -640.18 -682.05 -712.42 -723.95 -727.69 -727.19 -724.29 -721.86 -720.32 -718.86 -718.88 -723.99 -758.84 -902.18 -1136.21 -1283.28 -1329.28 -1358.46 -1401.59 -1468.89 -1583.47 -1758.64 -1966.67 -2199.02 -2454.00 -2682.93 -2923.47 -3193.97 -3369.74 -3441.64 -3475.83 -3500.02 -3517.54 -3526.79 -3529.61 -3530.20 -3530.78 -3534.07 -3560.89 -3667.44 -3840.05 -3949.06 -3981.07 -3992.27 -3999.41 -4003.66 -4004.16 -4002.29 -4001.20 -4002.68 -3998.59 -3897.23 -3424.72 -2644.13 -2177.69 -2086.19 -2092.92 -2102.87 -2106.89
2834.59 2798.99 2697.40 2552.56 2437.60 2378.31 2367.12 2375.19 2367.87 2342.63 2308.82 2265.05 2203.28 2137.20 2097.20 2077.05 2059.25 2042.94 2034.84 2042.57 2062.86 2080.56 2087.19 2080.53 2004.52 1671.10 1119.95 779.00 694.55 681.44 677.06 670.61 659.49 648.40 642.66 641.46 635.04 585.03 387.95 70.29 -124.41 -170.15 -173.90 -171.44 -165.72 -158.94 -154.39 -152.95 -152.13 -152.22 -164.83 -219.14 -307.19 -362.32 -376.13 -375.70 -372.46 -371.29 -372.49 -374.89 -378.36 -381.81 -385.28 -398.22 -451.23 -536.43 -587.48 -599.24 -601.04 -602.35 -603.15 -604.23 -606.25 -608.07 -608.88 -609.91 -615.51 -638.66 -679.39 -708.76 -718.94 -719.99 -717.28 -714.63 -713.60 -713.07 -712.10 -711.78 -716.36 -751.57 -894.79 -1126.86 -1270.16 -1311.61 -1334.30 -1368.18 -1424.80 -1524.87 -1678.17 -1866.54 -2099.58 -2384.94 -2654.80 -2918.96 -3198.47 -3377.18 -3447.96 -3481.66 -3507.45 -3527.21 -3537.86 -3541.09 -3542.04 -3543.12 -3547.11 -3574.43 -3681.33 -3854.47 -3963.93 -3995.71 -4005.97 -4012.40 -4015.70 -4015.09 -4012.03 -4008.84 -4007.99 -4002.29 -3899.75 -3425.99 -2643.18 -2173.66 -2079.39 -2084.06 -2092.58 -2096.19
2781.58 2750.30 2670.69 2566.24 2484.21 2440.26 2430.26 2434.27 2426.44 2399.84 2355.48 2293.96 2221.78 2156.89 2119.53 2097.30 2074.06 2052.37 2043.92 2054.66 2076.02 2093.77 2101.66 2095.55 2017.38 1680.78 1128.88 788.80 703.21 686.62 678.09 667.81 653.32 639.54 631.96 629.20 621.68 573.37 379.74 64.33 -129.08 -173.14 -174.72 -170.32 -163.18 -154.19 -147.03 -144.92 -145.95 -149.07 -163.95 -218.52 -305.82 -360.41 -373.33 -371.69 -367.93 -366.48 -367.62 -370.49 -374.47 -378.17 -381.80 -395.27 -449.17 -535.16 -586.49 -598.35 -600.77 -602.86 -603.52 -603.95 -605.57 -607.22 -608.16 -608.86 -613.90 -637.21 -677.99 -706.48 -714.97 -713.87 -710.39 -708.83 -708.77 -708.19 -707.22 -706.59 -710.03 -744.12 -886.10 -1116.97 -1259.22 -1298.89 -1317.55 -1343.96 -1388.79 -1470.65 -1597.41 -1760.73 -1984.40 -2289.69 -2605.59 -2900.97 -3189.89 -3371.21 -3443.94 -3481.98 -3511.69 -3533.53 -3545.46 -3550.17 -3552.27 -3554.42 -3559.77 -3587.38 -3693.98 -3867.70 -3978.40 -4009.97 -4018.12 -4022.23 -4023.78 -4022.26 -4018.89 -4014.96 -4012.80 -4005.92 -3902.55 -3427.63 -2642.69 -2170.89 -2075.04 -2078.42 -2085.83 -2088.76
2732.17 2707.38 2645.81 2568.30 2512.53 2486.21 2478.50 2476.77 2468.13 2442.72 2394.65 2325.37 2247.82 2181.07 2139.74 2111.21 2082.93 2059.46 2055.02 2071.21 2093.17 2109.10 2115.40 2106.71 2024.65 1685.57 1134.53 795.90 709.96 691.18 679.39 665.48 647.47 631.44 622.11 616.91 609.00 563.27 372.76 59.66 -132.20 -175.21 -175.63 -169.81 -161.17 -150.16 -140.78 -137.17 -138.58 -144.46 -162.02 -216.90 -303.13 -356.29 -367.69 -365.34 -362.14 -361.31 -362.35 -364.84 -368.55 -372.60 -376.84 -391.10 -445.49 -532.23 -584.51 -597.10 -600.08 -602.51 -603.33 -603.60 -605.04 -606.35 -606.99 -607.50 -612.39 -636.14 -676.76 -703.47 -709.97 -708.12 -705.38 -705.06 -705.63 -705.01 -703.84 -702.75 -705.28 -737.97 -878.52 -1108.64 -1250.85 -1289.39 -1303.75 -1321.48 -1351.79 -1411.76 -1516.21 -1666.93 -1880.21 -2179.79 -2521.05 -2855.37 -3166.27 -3355.65 -3433.01 -3476.11 -3510.28 -3534.81 -3548.76 -3556.01 -3560.04 -3563.15 -3569.27 -3597.42 -3704.54 -3879.22 -3990.24 -4020.49 -4026.50 -4028.46 -4028.14 -4025.40 -4021.85 -4018.64 -4016.53 -4008.38 -3903.87 -3428.16 -2642.33 -2169.81 -2073.15 -2075.23 -2081.75 -2084.01
2700.55 2681.79 2629.88 2561.01 2517.12 2504.02 2502.11 2500.20 2491.83 2468.40 2424.66 2359.55 2279.17 2202.62 2149.25 2112.49 2083.87 2066.88 2070.60 2090.45 2109.45 2119.50 2120.67 2107.51 2022.23 1683.13 1134.91 798.89 714.31 695.14 681.49 665.92 646.72 630.15 619.15 610.84 602.01 557.97 369.42 58.44 -131.55 -174.22 -174.89 -168.85 -159.32 -147.18 -136.61 -131.63 -132.66 -139.69 -158.34 -213.47 -299.20 -351.37 -362.32 -360.76 -358.30 -357.45 -358.10 -360.31 -363.79 -367.92 -372.45 -386.83 -440.79 -527.97 -581.56 -595.13 -598.64 -601.23 -602.25 -602.60 -604.04 -605.51 -605.84 -606.29 -611.75 -635.70 -675.31 -700.12 -705.36 -703.92 -702.33 -702.32 -702.83 -702.69 -701.80 -700.63 -702.92 -734.94 -874.67 -1103.95 -1245.29 -1281.87 -1292.40 -1304.36 -1325.15 -1368.11 -1452.55 -1587.78 -1784.15 -2056.62 -2388.32 -2762.68 -3121.95 -3333.80 -3417.62 -3463.74 -3501.07 -3529.16 -3546.81 -3557.02 -3562.88 -3566.83 -3573.66 -3603.32 -3712.06 -3887.49 -3997.38 -4025.72 -4030.84 -4032.15 -4030.69 -4027.21 -4023.99 -4022.01 -4020.19 -4010.44 -3904.51 -3428.11 -2641.86 -2169.42 -2072.81 -2074.39 -2080.49 -2082.52
2670.05 2653.42 2604.23 2537.08 2497.46 2491.25 2495.48 2498.37 2495.41 2480.70 2447.67 2388.31 2302.32 2211.94 2145.96 2103.64 2078.62 2072.18 2083.62 2101.71 2112.88 2113.92 2107.75 2089.90 2003.64 1668.41 1127.05 796.84 715.65 696.59 681.31 666.24 649.94 635.58 623.40 611.86 601.27 558.60 373.02 65.40 -122.19 -165.17 -168.07 -163.80 -154.73 -142.73 -132.59 -128.02 -128.91 -135.12 -152.87 -208.52 -295.68 -349.06 -361.42 -361.43 -359.04 -356.63 -356.10 -358.27 -361.79 -365.49 -369.35 -382.76 -435.74 -522.67 -576.93 -591.14 -595.06 -597.74 -599.10 -600.07 -601.92 -603.71 -603.74 -603.94 -610.09 -634.39 -673.06 -696.65 -701.75 -701.44 -700.74 -700.54 -700.81 -701.23 -700.95 -700.22 -702.66 -734.46 -873.57 -1101.95 -1241.86 -1276.12 -1283.56 -1292.14 -1308.08 -1339.22 -1403.57 -1519.01 -1694.53 -1930.87 -2231.99 -2628.18 -3045.16 -3297.94 -3396.27 -3446.94 -3487.08 -3518.80 -3541.03 -3554.71 -3562.70 -3568.02 -3575.55 -3606.07 -3715.16 -3889.26 -3997.42 -4025.48 -4031.47 -4033.25 -4031.83 -4028.75 -4026.04 -4024.28 -4022.17 -4011.39 -3904.49 -3427.73 -2641.67 -2169.76 -2073.18 -2074.58 -2080.62 -2082.52
2553.65 2534.98 2485.09 2420.09 2379.11 2372.19 2381.97 2393.33 2400.67 2399.28 2378.29 2323.19 2233.19 2135.41 2065.11 2023.64 2003.76 2003.98 2015.67 2024.79 2025.32 2017.91 2004.50 1982.23 1899.75 1586.75 1081.58 775.16 701.39 683.08 667.80 655.80 644.37 632.48 619.77 606.39 594.42 555.10 383.49 97.08 -77.46 -118.67 -124.56 -123.36 -116.91 -107.74 -100.50 -98.01 -99.03 -103.22 -119.56 -180.64 -279.20 -340.80 -357.03 -358.78 -355.86 -351.27 -349.02 -350.52 -353.83 -357.16 -360.19 -371.91 -421.89 -504.98 -557.21 -570.97 -574.70 -577.41 -579.09 -580.76 -583.07 -584.72 -584.57 -584.93 -592.52 -621.36 -666.60 -693.86 -700.02 -700.46 -700.17 -700.23 -701.01 -702.00 -702.03 -701.54 -703.89 -734.86 -872.79 -1099.98 -1238.39 -1270.93 -1276.37 -1282.03 -1293.43 -1315.36 -1362.36 -1454.82 -1600.40 -1800.84 -2080.44 -2487.11 -2950.80 -3251.80 -3374.81 -3434.92 -3480.62 -3517.15 -3544.55 -3562.90 -3573.82 -3581.00 -3589.09 -3617.68 -3719.59 -3881.66 -3982.30 -4009.73 -4016.82 -4019.16 -4018.48 -4016.69 -4014.56 -4012.54 -4010.29 -3999.66 -3893.22 -3419.30 -2638.63 -2170.12 -2073.51 -2074.41 -2080.68 -2082.65
2099.54 2081.09 2031.09 1963.31 1915.63 1906.31 1924.00 1947.50 1966.10 1975.12 1963.39 1916.30 1835.86 1746.94 1682.36 1646.78 1629.74 1625.46 1624.71 1618.91 1609.49 1596.75 1579.20 1555.72 1493.14 1270.08 912.26 696.65 644.20 628.07 614.61 606.04 597.99 587.45 575.38 562.95 552.10 525.00 406.71 206.36 83.95 53.93 47.22 45.67 48.00 51.36 53.43 53.50 52.23 49.45 29.53 -58.96 -205.76 -298.22 -323.06 -326.05 -322.59 -317.14 -313.76 -314.03 -316.52 -319.53 -322.26 -331.18 -370.34 -436.69 -478.65 -489.56 -492.56 -495.39 -497.27 -498.71 -500.45 -501.59 -501.72 -503.07 -515.39 -564.82 -644.13 -691.89 -702.66 -703.37 -702.98 -703.57 -704.99 -705.86 -705.63 -705.34 -707.75 -737.50 -872.80 -1096.49 -1232.31 -1263.59 -1267.97 -1271.50 -1279.17 -1294.76 -1326.96 -1391.91 -1502.42 -1673.50 -1944.77 -2376.58 -2896.76 -3245.38 -3392.51 -3465.12 -3518.72 -3560.66 -3593.54 -3618.20 -3633.86 -3643.30 -3651.29 -3671.95 -3742.50 -3854.11 -3923.91 -3944.55 -3951.20 -3953.94 -3954.68 -3954.83 -3953.87 -3952.28 -3950.61 -3941.13 -3838.35 -3378.78 -2621.75 -2167.45 -2074.05 -2075.56 -2081.90 -2083.59
1355.80 1338.70 1288.37 1216.80 1169.25 1166.76 1194.89 1228.23 1252.96 1266.42 1262.50 1231.17 1175.41 1109.82 1055.27 1022.05 1000.01 980.13 958.50 937.57 921.55 905.81 886.91 866.70 838.19 760.86 642.50 573.12 553.74 540.76 528.38 520.67 513.16 503.43 493.84 485.65 480.08 473.45 439.41 377.46 339.40 328.85 323.75 320.66 319.07 316.46 313.11 310.35 308.25 305.57 276.55 141.19 -84.74 -226.24 -262.69 -266.47 -263.15 -258.29 -254.68 -253.88 -255.27 -258.06 -260.94 -266.19 -288.20 -326.65 -351.28 -357.57 -359.67 -362.51 -364.46 -364.83 -365.29 -366.28 -366.96 -369.13 -388.70 -471.66 -606.95 -689.04 -707.82 -709.43 -709.47 -710.27 -711.29 -711.46 -710.96 -710.87 -713.45 -742.50 -874.40 -1092.13 -1224.08 -1254.28 -1258.22 -1260.66 -1265.90 -1277.18 -1299.75 -1344.97 -1427.73 -1573.87 -1838.01 -2304.84 -2889.96 -3278.96 -3441.28 -3527.76 -3593.48 -3641.58 -3678.11 -3708.15 -3729.86 -3742.92 -3751.29 -3760.41 -3780.34 -3809.36 -3828.95 -3838.06 -3843.62 -3847.00 -3849.67 -3851.83 -3852.50 -3852.10 -3851.34 -3843.43 -3746.64 -3310.60 -2592.47 -2162.15 -2075.52 -2078.73 -2084.55 -2085.47
889.74 869.54 815.86 746.22 707.41 716.47 752.24 788.45 813.02 827.17 831.12 820.03 793.62 752.93 705.40 666.00 631.41 593.19 553.56 524.24 506.03 488.54 469.67 453.03 444.11 451.58 474.59 490.93 491.07 481.01 469.14 460.59 452.42 444.11 438.98 437.32 438.64 445.70 461.73 482.94 496.13 497.37 493.05 488.87 484.17 477.00 469.29 463.62 460.86 458.36 423.39 259.04 -14.37 -183.89 -226.11 -230.81 -228.68 -224.82 -221.41 -220.15 -221.05 -223.89 -227.19 -230.69 -242.30 -263.06 -276.58 -279.85 -280.89 -282.96 -284.86 -284.67 -284.37 -285.38 -286.01 -287.92 -311.55 -414.68 -583.78 -687.05 -710.82 -713.24 -714.06 -714.83 -715.14 -714.98 -714.38 -713.93 -716.43 -745.70 -875.79 -1089.39 -1218.68 -1248.26 -1251.88 -1253.75 -1257.38 -1265.58 -1284.66 -1323.87 -1392.01 -1517.37 -1768.14 -2242.76 -2846.72 -3248.33 -3421.74 -3525.75 -3611.79 -3672.75 -3715.01 -3749.40 -3775.67 -3792.64 -3803.45 -3807.37 -3797.67 -3777.69 -3767.84 -3770.54 -3775.88 -3780.26 -3784.57 -3787.95 -3789.94 -3791.00 -3791.36 -3784.72 -3691.67 -3270.24 -2576.64 -2161.50 -2078.50 -2082.16 -2087.77 -2088.64
758.39 737.83 683.69 615.34 582.00 597.79 635.82 670.51 693.51 708.64 719.32 724.12 720.46 699.19 658.77 614.90 569.20 518.65 472.06 441.56 421.32 401.35 382.68 366.94 359.42 380.01 428.40 460.02 464.25 456.65 446.27 437.48 429.70 424.44 424.40 428.75 435.21 446.66 473.69 513.20 537.47 540.95 535.89 529.32 521.20 510.77 500.13 492.74 490.12 487.96 451.07 279.50 -3.93 -177.28 -218.65 -223.58 -222.99 -220.94 -218.64 -217.20 -217.60 -219.98 -223.44 -227.50 -237.04 -252.64 -262.40 -264.42 -264.69 -266.02 -268.20 -268.72 -268.50 -268.98 -268.99 -270.24 -294.43 -402.20 -579.07 -687.25 -711.84 -713.71 -714.29 -715.30 -715.79 -715.55 -714.97 -714.42 -716.73 -746.11 -876.02 -1088.72 -1217.29 -1246.54 -1249.64 -1251.09 -1253.64 -1259.26 -1276.33 -1313.69 -1375.61 -1485.15 -1707.43 -2150.51 -2739.46 -3148.04 -3335.35 -3454.15 -3560.32 -3639.36 -3692.37 -3733.82 -3764.85 -3785.44 -3799.69 -3805.32 -3791.80 -3763.57 -3748.92 -3751.12 -3757.22 -3762.86 -3768.47 -3772.89 -3776.25 -3778.49 -3779.35 -3773.36 -3682.25 -3265.46 -2578.24 -2166.43 -2082.83 -2085.62 -2091.88 -2093.73
710.81 693.88 643.14 574.20 539.54 553.04 587.78 621.10 646.59 665.63 681.01 692.96 698.50 686.91 655.97 620.22 579.61 531.63 487.14 453.66 424.81 398.19 377.64 361.91 353.38 371.22 416.57 446.87 452.35 447.83 439.98 431.27 423.62 421.56 426.79 435.82 444.97 457.02 483.98 523.64 547.39 550.25 543.62 533.71 522.54 510.28 498.16 490.80 489.37 487.71 449.65 276.37 -7.86 -179.57 -218.18 -221.92 -222.35 -222.68 -222.54 -221.57 -221.24 -222.29 -224.69 -228.97 -239.04 -254.06 -262.68 -264.36 -264.99 -266.24 -268.14 -269.07 -269.35 -269.71 -269.34 -270.15 -293.97 -402.19 -579.96 -688.24 -712.39 -713.34 -713.02 -714.05 -714.87 -714.66 -714.28 -714.16 -716.64 -745.93 -876.08 -1089.28 -1218.15 -1247.30 -1249.84 -1250.52 -1251.96 -1255.20 -1268.69 -1300.87 -1354.87 -1445.89 -1631.12 -2037.53 -2620.85 -3049.74 -3252.23 -3377.98 -3490.68 -3578.91 -3642.48 -3693.66 -3732.49 -3759.81 -3778.97 -3788.54 -3779.46 -3754.42 -3741.28 -3744.87 -3752.58 -3759.78 -3766.59 -3772.33 -3777.36 -3780.76 -3781.92 -3776.51 -3687.05 -3272.17 -2585.61 -2173.22 -2088.78 -2091.49 -2098.80 -2101.95
684.82 667.85 618.03 551.64 513.39 513.96 537.09 567.41 596.37 618.39 632.85 641.97 645.32 635.58 615.58 601.15 584.74 553.54 514.26 473.29 432.27 397.50 373.14 356.74 349.48 368.27 413.14 443.21 450.16 448.85 443.32 433.77 425.31 425.74 435.31 447.10 456.66 467.82 492.27 528.32 549.72 551.71 543.35 530.47 517.41 504.91 493.85 488.61 489.35 488.80 450.18 275.68 -9.21 -180.03 -216.42 -218.38 -219.38 -221.96 -224.22 -224.37 -223.61 -223.19 -223.95 -227.42 -238.11 -254.14 -263.44 -265.96 -267.48 -268.59 -269.13 -269.28 -269.96 -270.91 -270.97 -272.11 -295.52 -403.05 -580.59 -688.43 -712.29 -713.33 -712.79 -713.43 -714.09 -713.99 -713.59 -713.53 -716.14 -745.54 -875.95 -1089.87 -1219.25 -1248.47 -1250.86 -1250.96 -1251.79 -1253.53 -1262.21 -1285.99 -1329.41 -1403.91 -1571.52 -1971.06 -2553.24 -2987.10 -3198.28 -3327.49 -3432.11 -3514.48 -3582.68 -3641.61 -3689.44 -3727.49 -3754.48 -3769.90 -3766.95 -3746.04 -3735.44 -3741.33 -3751.10 -3759.76 -3767.21 -3773.74 -3779.88 -3784.51 -3786.91 -3782.52 -3694.04 -3280.18 -2593.70 -2180.42 -2095.82 -2099.54 -2108.32 -2112.63
691.55 671.82 619.85 554.59 510.01 491.83 496.75 518.06 543.19 561.00 568.37 569.33 566.96 559.19 553.66 564.87 576.38 564.21 530.16 484.61 437.31 398.32 370.48 352.06 345.73 368.28 417.04 449.36 457.52 456.55 450.02 439.15 431.50 434.48 445.83 457.63 465.80 474.63 494.92 525.68 543.74 544.64 535.90 523.15 510.79 499.45 490.90 488.53 491.60 492.68 454.85 280.36 -4.89 -175.69 -211.25 -212.43 -214.19 -218.79 -222.91 -224.25 -223.86 -222.95 -222.74 -225.55 -236.64 -253.83 -264.31 -267.55 -269.30 -270.07 -269.28 -267.99 -268.46 -270.15 -270.88 -272.61 -296.29 -403.44 -580.49 -688.02 -711.93 -713.61 -713.56 -714.12 -714.60 -714.31 -713.56 -713.26 -715.50 -744.83 -875.20 -1089.37 -1219.26 -1248.91 -1251.42 -1251.50 -1252.75 -1254.94 -1261.92 -1280.67 -1316.88 -1381.60 -1541.44 -1937.17 -2510.74 -2940.47 -3157.24 -3285.72 -3378.35 -3451.91 -3519.26 -3582.52 -3640.94 -3691.94 -3730.06 -3755.23 -3758.52 -3740.06 -3731.85 -3740.76 -3753.26 -3763.01 -3770.19 -3776.57 -3782.63 -3787.97 -3792.11 -3789.10 -3701.41 -3288.15 -2602.21 -2189.12 -2104.47 -2108.60 -2118.04 -2122.25
718.86 697.21 643.20 575.74 522.82 487.82 475.18 484.35 500.46 510.88 511.02 504.78 497.82 492.97 500.08 528.69 558.14 559.70 532.02 489.20 443.11 402.46 372.57 353.88 348.62 374.23 426.64 460.56 467.71 463.26 453.74 444.22 440.70 445.84 456.06 465.18 470.22 474.83 489.73 515.27 530.39 530.80 523.85 514.74 505.21 495.87 490.31 490.81 495.44 497.49 461.37 289.04 4.53 -167.07 -203.48 -205.22 -207.75 -213.66 -218.98 -221.54 -222.34 -222.33 -222.59 -225.65 -237.04 -254.80 -265.76 -268.70 -269.66 -269.81 -268.33 -266.12 -266.23 -268.63 -270.00 -271.92 -296.06 -403.69 -580.86 -688.10 -711.65 -713.43 -713.69 -714.55 -715.31 -714.81 -714.08 -714.24 -716.36 -745.15 -874.69 -1088.29 -1218.24 -1248.26 -1251.15 -1251.49 -1253.53 -1257.79 -1267.66 -1288.24 -1323.33 -1379.99 -1520.77 -1892.72 -2450.58 -2876.19 -3095.00 -3221.41 -3310.62 -3383.60 -3452.63 -3522.37 -3592.83 -3655.99 -3706.76 -3745.07 -3755.27 -3738.64 -3732.14 -3743.10 -3757.38 -3767.53 -3774.45 -3780.76 -3786.67 -3792.67 -3798.60 -3796.94 -3709.94 -3296.67 -2610.47 -2197.73 -2113.55 -2118.03 -2127.53 -2131.04
736.59 716.94 664.86 594.17 534.11 489.90 465.78 464.01 472.95 481.09 479.78 469.34 457.55 452.34 465.14 500.11 536.53 547.08 527.55 491.73 449.64 407.47 376.43 359.55 356.87 384.34 436.94 468.68 472.15 464.31 454.73 450.16 452.23 459.03 466.77 471.18 471.10 470.28 480.07 501.73 515.23 516.27 511.86 506.05 499.21 493.03 491.77 495.41 500.58 502.31 467.48 297.57 14.16 -158.32 -196.04 -198.30 -200.53 -206.69 -213.11 -217.37 -220.27 -222.26 -223.53 -226.59 -237.73 -255.49 -266.57 -269.06 -268.98 -268.47 -267.00 -265.00 -265.27 -267.96 -269.63 -271.44 -295.52 -403.46 -580.75 -687.61 -710.98 -712.87 -712.97 -713.78 -715.01 -714.93 -714.75 -715.47 -717.93 -746.26 -874.97 -1088.18 -1218.02 -1247.74 -1250.56 -1250.82 -1253.38 -1259.83 -1273.19 -1296.42 -1329.80 -1377.69 -1502.32 -1855.13 -2395.91 -2807.61 -3019.55 -3141.21 -3230.38 -3307.84 -3382.81 -3460.19 -3540.96 -3617.20 -3681.60 -3732.50 -3750.80 -3738.92 -3735.43 -3747.00 -3760.60 -3769.87 -3776.65 -3783.67 -3790.52 -3797.48 -3804.44 -3803.55 -3717.22 -3303.80 -2616.61 -2204.01 -2121.38 -2127.34 -2137.37 -2140.81
739.64 722.42 671.45 597.17 534.35 488.65 458.54 448.05 452.67 462.62 465.01 454.55 438.50 429.57 442.10 476.75 513.58 529.96 518.73 488.86 449.34 407.76 378.00 362.78 362.28 391.12 442.08 469.19 468.87 462.03 457.96 459.75 465.32 471.87 476.64 475.99 470.10 464.58 471.17 490.87 503.06 504.11 501.29 497.47 493.42 491.94 495.93 502.41 507.23 507.91 473.69 305.09 22.19 -150.95 -190.28 -193.77 -195.97 -201.49 -208.05 -213.91 -219.22 -223.12 -224.60 -226.60 -236.84 -254.33 -265.32 -267.80 -267.59 -267.02 -266.12 -264.91 -265.25 -267.52 -269.04 -270.95 -294.90 -402.66 -579.40 -686.08 -710.46 -713.29 -713.28 -713.50 -714.49 -714.62 -714.64 -715.45 -718.56 -747.01 -875.33 -1088.52 -1218.37 -1247.60 -1250.02 -1250.20 -1253.23 -1260.14 -1272.68 -1293.48 -1321.22 -1361.40 -1482.59 -1836.12 -2371.32 -2768.10 -2965.44 -3074.38 -3154.48 -3231.09 -3309.53 -3392.04 -3483.20 -3574.88 -3651.85 -3710.65 -3737.67 -3736.09 -3738.81 -3750.69 -3762.33 -3770.31 -3776.52 -3783.68 -3791.19 -3798.61 -3805.89 -3805.98 -3720.58 -3307.58 -2620.66 -2209.09 -2128.32 -2135.48 -2145.47 -2148.74
745.91 726.03 670.97 594.41 530.57 484.88 453.21 438.92 441.39 452.03 457.59 449.04 431.50 420.72 432.64 464.79 498.34 517.16 511.96 484.99 447.48 410.92 385.11 370.18 368.33 394.77 441.93 465.38 464.93 463.12 466.23 472.61 478.43 482.44 483.95 478.99 467.93 458.82 464.51 484.55 496.33 497.18 495.01 492.52 491.60 494.58 502.18 510.41 515.25 514.97 479.82 310.52 27.63 -145.54 -186.04 -191.48 -195.20 -200.55 -206.37 -212.58 -218.69 -222.73 -223.66 -224.67 -233.77 -250.40 -261.10 -264.26 -265.27 -265.48 -265.03 -264.17 -264.12 -265.35 -266.31 -268.57 -292.88 -400.38 -576.65 -683.81 -709.02 -712.09 -712.24 -712.34 -712.72 -712.53 -712.35 -712.74 -715.82 -744.46 -872.55 -1085.04 -1214.26 -1243.14 -1245.51 -1245.68 -1248.42 -1253.61 -1261.93 -1277.20 -1299.87 -1336.89 -1456.92 -1808.92 -2339.07 -2726.50 -2913.01 -3014.77 -3087.80 -3157.87 -3234.77 -3322.50 -3424.37 -3529.47 -3615.24 -3676.25 -3711.94 -3726.23 -3738.00 -3750.59 -3760.25 -3766.95 -3772.64 -3779.29 -3786.43 -3793.79 -3801.64 -3803.26 -3719.00 -3307.11 -2622.16 -2212.00 -2131.67 -2138.63 -2148.31 -2151.45
830.93 806.95 747.36 668.95 601.86 553.95 524.24 512.69 515.91 524.75 528.66 520.36 502.90 491.95 504.50 536.13 567.59 586.20 583.65 560.03 526.99 496.36 473.64 457.62 447.90 450.56 463.25 468.09 466.58 468.92 476.17 484.37 489.25 490.41 488.10 479.62 465.98 455.65 461.50 481.69 493.08 493.32 490.58 488.01 488.54 493.84 503.08 512.57 518.56 517.94 481.04 312.70 35.32 -133.68 -173.19 -179.11 -184.09 -189.88 -195.35 -200.60 -204.97 -207.18 -206.92 -207.61 -217.19 -235.23 -247.76 -252.99 -255.83 -256.70 -255.75 -254.16 -253.31 -253.35 -253.51 -256.10 -280.91 -386.02 -557.50 -662.15 -686.58 -688.91 -688.97 -689.11 -689.36 -689.43 -689.21 -688.87 -691.35 -718.81 -840.59 -1041.49 -1163.21 -1190.42 -1193.06 -1193.20 -1194.46 -1196.79 -1201.18 -1211.65 -1231.54 -1269.21 -1380.56 -1701.06 -2197.00 -2574.51 -2763.75 -2868.62 -2942.67 -3007.26 -3082.48 -3178.76 -3290.70 -3405.19 -3495.44 -3558.90 -3616.23 -3670.34 -3706.16 -3723.33 -3732.36 -3739.36 -3746.03 -3752.85 -3759.58 -3767.49 -3777.22 -3780.76 -3698.10 -3291.15 -2615.19 -2210.40 -2130.49 -2136.73 -2146.51 -2150.08
1211.39 1185.75 1124.83 1046.87 980.11 932.63 905.57 897.23 901.36 906.89 906.77 897.10 876.37 859.00 868.72 901.12 932.48 950.38 949.38 931.58 906.19 880.53 859.18 840.24 806.49 713.61 573.91 488.85 468.81 470.67 479.31 488.13 492.07 491.07 485.28 474.32 461.37 452.58 455.15 467.72 473.73 471.58 467.53 463.94 463.85 469.25 478.99 489.70 497.76 498.11 463.86 314.10 70.18 -78.22 -112.85 -117.74 -122.42 -128.13 -133.16 -136.15 -137.02 -136.93 -136.21 -138.90 -155.47 -184.10 -203.56 -211.24 -214.83 -215.49 -213.55 -210.45 -208.01 -206.77 -206.65 -210.17 -233.30 -324.50 -471.67 -561.39 -582.46 -584.70 -584.89 -584.62 -584.45 -584.62 -584.44 -583.97 -585.98 -606.84 -697.67 -846.57 -936.17 -956.02 -958.16 -958.50 -958.70 -958.99 -961.35 -969.02 -986.75 -1023.68 -1113.89 -1353.60 -1740.46 -2066.89 -2257.04 -2371.82 -2455.36 -2522.70 -2599.49 -2705.87 -2831.26 -2952.16 -3043.65 -3124.04 -3262.02 -3451.91 -3572.33 -3609.88 -3622.21 -3632.19 -3641.99 -3650.72 -3658.23 -3667.18 -3679.15 -3685.51 -3608.94 -3224.28 -2585.10 -2202.58 -2126.94 -2132.71 -2142.42 -2146.40
1836.17 1810.07 1748.43 1672.89 1614.50 1575.70 1551.32 1540.82 1540.90 1542.37 1540.14 1530.17 1503.68 1472.99 1473.22 1502.17 1532.60 1551.31 1554.08 1543.90 1528.20 1509.73 1490.80 1467.75 1396.77 1149.33 758.83 522.74 468.79 466.69 474.22 482.09 484.50 481.70 473.64 461.30 449.92 442.31 438.01 436.84 433.28 427.80 423.15 419.69 419.24 423.64 432.29 443.47 453.53 455.84 429.91 316.82 132.97 20.22 -7.10 -11.61 -15.78 -20.88 -24.91 -24.98 -22.48 -20.93 -21.33 -28.65 -57.82 -104.40 -133.86 -142.38 -144.24 -143.52 -141.36 -138.21 -135.00 -132.99 -133.27 -137.90 -156.71 -223.30 -329.43 -394.34 -410.23 -412.70 -413.34 -413.00 -412.42 -412.10 -411.69 -411.40 -412.43 -421.21 -460.10 -523.84 -561.88 -570.28 -571.00 -570.95 -570.89 -570.75 -572.30 -577.54 -590.93 -622.45 -686.04 -822.41 -1047.99 -1273.84 -1438.21 -1558.24 -1658.89 -1744.28 -1832.80 -1948.70 -2086.34 -2211.72 -2306.18 -2418.88 -2689.96 -3097.48 -3352.44 -3423.09 -3440.76 -3452.89 -3465.49 -3477.53 -3488.46 -3500.33 -3515.21 -3525.67 -3460.07 -3113.41 -2534.76 -2188.46 -2120.58 -2126.52 -2135.77 -2139.48
2210.89 2182.86 2117.42 2041.68 1991.96 1964.66 1945.16 1931.54 1924.59 1921.09 1917.40 1908.47 1880.30 1841.14 1830.75 1850.57 1877.17 1898.30 1908.19 1908.03 1903.17 1894.22 1880.16 1855.64 1761.88 1419.34 875.43 547.72 474.19 469.72 473.67 476.88 475.87 470.90 460.74 447.09 436.09 428.73 420.90 412.11 403.14 396.60 393.52 393.09 394.70 398.04 403.80 413.47 424.04 428.17 409.11 320.77 175.78 85.95 63.16 58.23 54.03 49.18 46.18 48.42 52.36 53.44 50.60 38.97 1.54 -56.20 -90.90 -98.04 -97.32 -95.41 -93.78 -92.24 -89.97 -88.18 -89.34 -94.79 -110.46 -161.67 -242.78 -292.43 -305.23 -307.96 -308.59 -308.34 -307.88 -307.68 -307.64 -307.69 -307.72 -308.48 -315.31 -327.25 -334.37 -336.28 -336.34 -335.81 -335.85 -335.84 -336.55 -339.48 -347.10 -367.62 -407.91 -477.03 -592.41 -738.29 -870.72 -985.89 -1101.23 -1214.97 -1327.57 -1454.25 -1598.00 -1728.94 -1831.58 -1967.75 -2320.48 -2857.74 -3192.21 -3282.71 -3302.68 -3313.66 -3326.74 -3342.20 -3358.89 -3377.82 -3399.26 -3415.71 -3359.84 -3038.41 -2497.64 -2173.80 -2110.99 -2117.25 -2125.62 -2128.56
2305.38 2273.69 2200.33 2117.73 2068.75 2047.84 2034.15 2021.02 2009.99 2002.22 1995.96 1986.09 1957.99 1916.15 1897.39 1905.60 1924.91 1946.95 1963.62 1973.97 1979.68 1979.55 1971.99 1951.62 1855.70 1491.70 911.72 562.63 485.07 479.64 479.05 475.56 469.38 461.06 448.40 433.39 422.14 415.67 408.88 399.99 391.20 385.99 385.65 389.33 394.53 398.56 402.59 410.02 419.22 423.88 407.30 325.50 190.63 107.45 86.38 81.28 77.25 72.93 70.78 73.72 77.24 76.70 71.42 57.38 17.39 -43.04 -77.96 -83.01 -80.84 -79.44 -78.61 -77.90 -76.95 -76.53 -79.08 -84.74 -98.67 -145.78 -221.28 -267.51 -279.89 -283.14 -283.74 -283.37 -283.11 -283.64 -284.83 -285.71 -285.42 -284.33 -283.81 -283.49 -283.08 -283.31 -283.58 -283.46 -283.85 -283.89 -283.85 -285.12 -288.42 -297.75 -318.42 -353.92 -415.73 -513.06 -622.52 -732.42 -857.99 -992.80 -1125.16 -1266.47 -1420.83 -1559.65 -1670.11 -1816.38 -2190.03 -2754.35 -3104.68 -3199.23 -3219.36 -3231.24 -3246.35 -3265.30 -3286.82 -3312.85 -3341.56 -3364.81 -3317.73 -3006.64 -2476.28 -2158.90 -2098.17 -2104.27 -2111.69 -2114.37
2335.48 2301.91 2222.24 2130.69 2078.04 2059.99 2050.75 2038.92 2026.23 2015.85 2007.35 1995.36 1966.65 1923.41 1897.23 1893.20 1901.98 1920.28 1939.02 1954.78 1967.99 1976.24 1977.44 1965.81 1877.02 1514.70 930.78 576.95 495.98 486.46 480.19 471.23 461.20 450.17 436.12 420.95 409.82 404.04 399.19 393.82 388.60 385.12 385.39 390.26 398.05 405.50 412.08 419.14 425.80 429.12 412.83 331.40 197.59 116.18 96.68 92.19 88.42 84.81 82.97 84.97 87.47 86.04 79.59 64.39 23.41 -37.51 -71.87 -75.64 -72.82 -72.28 -72.19 -71.49 -71.51 -73.07 -76.85 -81.84 -94.42 -140.71 -215.85 -262.22 -274.80 -278.36 -279.63 -279.66 -279.50 -280.24 -281.91 -283.29 -283.41 -282.86 -282.02 -280.36 -279.13 -279.13 -279.34 -279.37 -279.72 -279.74 -279.51 -279.72 -280.81 -284.63 -293.56 -309.76 -338.46 -394.42 -478.10 -580.54 -706.25 -846.40 -994.22 -1156.63 -1323.68 -1467.78 -1582.31 -1731.47 -2106.05 -2670.80 -3025.39 -3125.55 -3149.51 -3165.62 -3184.40 -3207.74 -3233.31 -3262.03 -3292.94 -3322.25 -3285.88 -2982.96 -2456.02 -2140.88 -2081.53 -2087.32 -2093.68 -2095.87
2354.27 2323.71 2244.74 2147.77 2093.56 2080.69 2076.24 2064.02 2047.72 2034.18 2023.57 2009.39 1979.66 1935.26 1902.44 1886.87 1885.50 1897.91 1912.81 1925.38 1940.46 1956.47 1968.01 1966.34 1886.32 1530.43 947.54 589.86 503.11 486.86 474.10 461.13 449.67 438.06 424.29 410.17 399.56 394.42 392.29 392.26 392.22 389.97 387.88 390.37 398.79 410.82 422.92 431.77 436.60 438.00 421.08 339.14 204.98 123.95 105.38 101.48 97.80 94.11 91.69 92.12 93.71 92.48 86.43 71.23 30.14 -30.67 -65.39 -70.02 -67.39 -66.65 -66.74 -66.30 -66.57 -68.90 -73.05 -77.52 -89.84 -136.41 -211.73 -258.58 -271.60 -275.33 -277.16 -277.75 -277.80 -278.83 -280.46 -281.61 -281.97 -282.02 -281.48 -279.92 -279.34 -279.90 -280.42 -280.27 -279.86 -279.65 -279.53 -279.08 -279.21 -281.90 -287.23 -295.10 -306.31 -330.02 -379.08 -461.36 -579.77 -726.20 -898.32 -1083.37 -1250.69 -1389.74 -1505.69 -1652.45 -2016.64 -2573.62 -2931.38 -3041.09 -3071.79 -3090.59 -3111.93 -3140.44 -3172.08 -3205.09 -3238.15 -3272.51 -3246.07 -2951.89 -2429.33 -2115.90 -2056.89 -2062.86 -2069.04 -2070.60
2366.91 2339.11 2262.67 2166.25 2116.60 2113.57 2117.34 2105.13 2081.36 2060.58 2045.66 2029.17 1997.83 1950.82 1912.44 1888.56 1879.21 1884.78 1893.42 1900.21 1913.13 1932.88 1951.25 1957.15 1885.59 1539.16 961.56 601.90 509.45 487.20 468.75 451.23 437.95 426.44 413.33 400.28 391.06 388.61 391.32 396.79 400.54 398.46 393.41 392.53 399.81 414.84 432.41 443.96 447.90 447.38 428.91 346.31 211.54 130.03 111.02 106.68 102.97 99.17 96.33 95.81 96.95 96.25 91.43 77.98 38.42 -21.87 -57.61 -64.54 -63.80 -63.46 -63.56 -63.33 -63.42 -65.46 -69.26 -73.51 -86.11 -132.48 -207.36 -255.02 -269.43 -273.41 -274.79 -275.21 -275.50 -276.80 -278.19 -279.18 -280.12 -280.85 -280.47 -279.12 -279.12 -279.88 -280.63 -280.73 -280.12 -280.01 -280.05 -279.30 -279.15 -281.27 -285.15 -290.07 -295.24 -303.23 -324.89 -379.08 -483.01 -639.92 -841.03 -1045.28 -1204.94 -1326.17 -1435.43 -1579.61 -1933.34 -2476.71 -2823.56 -2931.64 -2968.87 -2994.54 -3022.42 -3056.76 -3094.71 -3135.72 -3175.47 -3213.40 -3190.87 -2903.73 -2387.99 -2078.11 -2021.32 -2029.40 -2036.17 -2037.24
2365.17 2335.75 2261.30 2177.04 2143.28 2154.14 2167.57 2157.16 2125.63 2093.75 2070.67 2050.73 2015.72 1963.44 1921.79 1895.17 1879.79 1876.45 1877.83 1880.61 1891.37 1911.07 1931.17 1941.20 1877.03 1540.54 970.79 613.19 518.82 493.44 471.05 448.78 432.09 419.32 406.16 393.82 386.89 388.56 396.48 406.20 411.46 408.68 401.47 397.98 403.70 419.59 440.04 453.39 456.51 453.93 433.32 349.14 212.92 130.31 110.35 104.86 100.60 97.14 95.07 95.27 96.82 96.85 93.79 82.88 45.45 -14.12 -50.53 -59.39 -61.00 -62.21 -63.02 -63.21 -63.58 -65.48 -69.28 -74.06 -86.74 -131.85 -205.60 -253.46 -268.52 -272.04 -272.47 -272.66 -273.15 -274.19 -275.16 -276.40 -278.24 -279.65 -279.31 -278.27 -278.85 -279.68 -280.03 -280.31 -280.40 -280.58 -280.49 -279.77 -279.38 -280.36 -283.01 -286.48 -289.78 -293.19 -302.19 -334.19 -415.41 -566.61 -780.10 -994.52 -1150.55 -1260.40 -1363.49 -1507.15 -1856.02 -2387.09 -2717.47 -2816.11 -2856.63 -2890.99 -2926.26 -2964.04 -3006.31 -3055.50 -3103.92 -3144.05 -3118.07 -2832.27 -2324.19 -2022.73 -1972.97 -1985.95 -1994.53 -1995.61
2381.10 2346.82 2269.41 2195.11 2178.50 2200.87 2218.02 2208.06 2171.78 2129.85 2097.94 2073.22 2032.59 1973.89 1930.95 1906.59 1888.99 1877.29 1870.13 1867.56 1873.73 1889.69 1909.22 1922.46 1863.92 1534.32 971.53 619.26 527.34 502.29 478.96 453.65 433.18 417.94 403.79 391.53 385.88 390.13 402.07 415.86 422.89 419.60 411.04 406.24 411.49 427.25 446.55 458.57 460.07 455.28 432.59 346.80 209.00 124.63 103.45 97.29 92.22 88.92 88.72 91.14 93.50 94.00 92.43 83.41 47.27 -11.49 -47.51 -56.73 -59.48 -62.76 -65.39 -66.52 -67.44 -69.56 -73.86 -79.79 -92.60 -136.59 -209.13 -255.54 -269.04 -271.31 -271.17 -271.43 -271.92 -272.54 -273.27 -274.38 -276.08 -277.75 -277.97 -277.63 -278.66 -279.47 -279.33 -279.63 -280.31 -280.67 -280.55 -280.09 -279.43 -279.46 -281.36 -284.10 -286.44 -288.39 -292.24 -309.58 -365.71 -489.96 -683.87 -891.26 -1048.98 -1166.94 -1278.34 -1429.15 -1783.41 -2312.62 -2636.70 -2730.23 -2767.86 -2801.37 -2835.44 -2869.92 -2910.17 -2960.46 -3012.77 -3054.19 -3027.40 -2746.17 -2249.19 -1958.90 -1915.14 -1931.63 -1943.90 -1946.92
2422.62 2385.90 2305.63 2232.05 2220.63 2246.62 2262.65 2251.55 2212.24 2162.32 2123.42 2094.24 2047.08 1980.88 1936.00 1916.41 1902.51 1888.30 1875.04 1865.53 1863.53 1872.06 1888.25 1902.61 1846.41 1519.52 961.22 614.69 526.62 504.53 484.58 459.70 435.80 417.87 403.07 390.72 385.05 389.78 403.98 421.43 431.76 430.21 422.51 418.37 423.70 437.55 452.63 461.14 460.36 452.92 427.79 340.47 201.85 115.96 93.84 88.27 83.16 79.59 80.70 84.72 87.53 87.88 86.15 77.04 40.99 -16.70 -51.18 -59.30 -62.45 -67.82 -72.63 -74.82 -75.66 -77.32 -81.46 -87.28 -99.69 -143.20 -214.93 -259.88 -271.34 -272.37 -271.81 -271.57 -271.28 -271.67 -272.81 -273.98 -275.36 -277.18 -278.17 -278.25 -278.90 -279.11 -278.64 -279.03 -279.74 -280.00 -279.92 -280.01 -279.43 -278.94 -280.46 -282.89 -284.69 -285.84 -287.86 -297.33 -332.81 -422.61 -577.74 -758.32 -911.58 -1046.55 -1180.88 -1352.18 -1721.31 -2253.51 -2574.89 -2664.46 -2694.87 -2719.30 -2745.52 -2774.96 -2809.55 -2852.92 -2902.40 -2946.99 -2929.10 -2659.27 -2174.23 -1893.93 -1854.38 -1871.99 -1886.14 -1890.65
2457.87 2426.82 2352.25 2274.00 2254.77 2279.15 2296.85 2285.86 2242.55 2183.62 2136.00 2100.72 2046.94 1974.07 1926.76 1910.65 1902.78 1892.75 1879.83 1866.36 1856.87 1856.12 1864.94 1876.33 1819.91 1494.50 940.93 600.15 515.47 495.98 479.61 456.97 431.18 411.56 398.00 387.78 383.93 389.54 404.34 423.06 436.44 438.84 434.58 432.79 437.96 448.12 458.17 462.93 459.52 449.02 420.93 331.98 193.27 107.82 87.03 83.33 78.56 73.59 73.44 77.16 79.75 79.24 75.82 64.76 27.97 -28.53 -60.84 -67.37 -70.61 -76.63 -82.01 -84.53 -84.88 -85.56 -88.66 -92.95 -104.49 -148.34 -220.36 -264.85 -274.90 -274.84 -273.63 -272.81 -272.01 -272.22 -273.87 -275.61 -277.01 -278.55 -279.39 -279.17 -279.07 -278.62 -277.90 -278.12 -278.55 -278.86 -279.19 -279.71 -279.23 -278.66 -279.99 -282.50 -284.67 -285.85 -287.55 -293.73 -314.38 -372.68 -488.90 -640.54 -791.60 -949.28 -1112.22 -1302.74 -1675.19 -2199.48 -2511.70 -2592.89 -2613.64 -2627.67 -2646.04 -2671.53 -2700.92 -2739.32 -2788.55 -2839.82 -2831.39 -2567.04 -2087.79 -1816.49 -1786.00 -1808.64 -1823.00 -1826.89
2447.98 2419.24 2342.17 2249.34 2214.34 2232.73 2251.81 2240.50 2191.87 2122.20 2061.84 2015.82 1955.91 1882.34 1835.42 1820.06 1816.51 1813.19 1805.26 1792.64 1779.14 1770.06 1770.45 1776.57 1722.29 1415.13 892.80 571.23 490.43 471.56 456.25 435.80 411.76 393.56 383.76 378.99 380.06 387.85 402.03 419.16 433.74 440.63 441.06 442.22 446.84 452.88 457.78 458.28 451.88 438.84 409.12 321.31 186.44 105.34 87.68 84.94 79.47 72.44 69.25 70.79 72.36 71.16 67.03 54.54 16.12 -40.79 -72.15 -77.44 -79.83 -84.62 -89.00 -91.57 -92.39 -92.59 -94.13 -96.85 -107.90 -152.29 -224.53 -268.90 -278.49 -278.00 -276.60 -275.89 -275.33 -275.26 -276.65 -278.30 -279.56 -280.65 -280.73 -279.72 -278.84 -277.67 -276.43 -276.32 -276.74 -277.70 -278.79 -279.24 -278.54 -278.00 -280.14 -288.03 -299.25 -305.53 -307.97 -312.52 -325.39 -365.39 -457.42 -596.37 -759.29 -938.23 -1113.84 -1299.70 -1643.14 -2127.44 -2412.44 -2478.76 -2489.43 -2494.94 -2505.96 -2527.33 -2552.81 -2585.92 -2633.45 -2690.19 -2688.60 -2435.03 -1973.45 -1717.06 -1700.28 -1734.09 -1752.01 -1755.75
2174.12 2135.66 2039.57 1927.48 1876.16 1883.79 1897.16 1880.86 1826.47 1748.86 1676.47 1617.69 1555.92 1493.92 1455.18 1440.07 1436.74 1436.36 1432.47 1423.06 1409.79 1397.26 1392.52 1395.02 1356.27 1130.88 743.45 502.06 437.60 418.95 402.95 384.86 367.51 355.86 351.51 352.74 359.29 369.67 382.56 396.72 410.98 420.88 424.81 428.20 432.15 434.13 433.72 430.10 421.58 407.88 379.52 299.74 179.06 108.54 93.81 89.48 82.19 74.29 69.58 68.65 68.37 67.51 64.73 51.63 9.77 -51.21 -84.54 -89.73 -90.73 -93.59 -96.81 -99.46 -100.74 -100.62 -100.80 -102.05 -112.49 -156.28 -226.64 -269.56 -279.26 -279.44 -278.51 -277.96 -277.76 -277.47 -277.85 -278.89 -280.30 -281.30 -280.78 -279.28 -277.92 -276.24 -274.36 -273.73 -274.21 -275.61 -277.32 -277.90 -277.01 -276.51 -283.55 -315.85 -367.81 -398.87 -406.69 -410.75 -422.20 -461.23 -552.11 -695.18 -870.62 -1051.93 -1214.25 -1366.16 -1621.15 -1975.11 -2177.18 -2216.12 -2217.43 -2217.24 -2221.33 -2236.07 -2255.50 -2277.77 -2315.40 -2370.57 -2379.61 -2178.38 -1803.75 -1601.53 -1603.68 -1649.12 -1672.93 -1677.58
1634.87 1587.74 1474.99 1347.81 1284.73 1279.69 1278.13 1248.49 1186.78 1105.97 1026.16 958.40 903.30 863.41 838.81 824.83 818.43 815.27 810.73 803.57 793.65 782.67 776.90 779.15 767.65 675.45 509.37 401.82 366.95 349.84 334.11 320.15 311.35 307.90 308.81 314.53 325.04 337.98 350.64 362.29 374.52 384.25 388.51 391.60 394.08 392.77 388.42 382.48 373.47 360.03 334.53 267.95 169.38 113.12 100.81 94.63 86.37 79.14 74.86 72.41 69.97 69.31 68.21 54.80 8.79 -58.91 -97.38 -104.78 -105.22 -106.02 -107.71 -109.88 -110.51 -109.21 -107.75 -107.62 -117.36 -159.27 -225.59 -265.64 -275.38 -276.93 -276.68 -275.83 -275.63 -275.64 -275.51 -275.81 -277.43 -278.76 -278.26 -276.84 -275.69 -274.15 -271.82 -270.49 -271.02 -272.53 -274.23 -275.03 -274.42 -274.65 -290.36 -362.72 -481.77 -554.08 -570.99 -575.45 -587.46 -630.72 -732.85 -891.44 -1070.64 -1232.92 -1367.18 -1474.13 -1601.80 -1754.63 -1832.30 -1839.17 -1832.13 -1825.11 -1821.60 -1825.89 -1834.58 -1846.09 -1871.02 -1915.77 -1938.06 -1823.60 -1594.07 -1481.58 -1504.57 -1555.82 -1586.55 -1595.01
1319.68 1268.18 1147.84 1015.79 947.39 927.63 903.58 855.61 787.30 706.69 625.04 556.64 511.41 486.81 470.58 457.05 446.64 438.11 429.77 422.31 414.84 406.52 401.36 403.06 406.22 393.05 361.13 335.80 320.40 306.10 293.26 284.92 283.50 286.53 292.25 301.73 314.20 329.08 343.20 353.34 360.96 366.52 368.25 369.07 369.24 365.38 358.35 351.38 343.31 331.48 308.76 250.61 165.40 117.17 106.21 99.98 92.85 87.88 84.65 80.73 75.96 74.38 73.97 61.00 12.92 -59.25 -101.85 -112.29 -114.33 -115.21 -116.03 -116.35 -114.75 -111.74 -109.08 -108.22 -117.01 -156.91 -220.68 -259.62 -269.94 -272.63 -273.05 -272.39 -272.32 -272.68 -272.50 -272.33 -273.93 -275.69 -275.47 -273.89 -272.88 -271.91 -269.88 -268.27 -268.85 -270.38 -271.98 -272.87 -272.75 -274.23 -295.56 -392.17 -551.75 -648.92 -671.25 -676.18 -687.48 -728.20 -835.89 -1012.02 -1192.37 -1330.77 -1440.35 -1522.43 -1577.96 -1612.25 -1617.61 -1606.82 -1593.77 -1578.54 -1565.22 -1558.69 -1558.26 -1564.69 -1580.56 -1611.18 -1634.97 -1570.18 -1429.65 -1376.19 -1413.02 -1465.03 -1499.99 -1512.21
1245.86 1200.01 1089.27 962.91 889.01 850.28 805.47 750.62 688.29 614.96 538.43 476.86 439.93 419.91 403.17 387.06 372.50 358.61 345.81 336.16 328.97 322.11 316.48 314.53 316.49 318.08 315.11 308.74 299.73 289.14 281.26 279.70 285.35 294.27 304.80 317.29 329.80 345.02 359.92 368.12 369.76 368.75 366.33 364.09 361.39 355.03 346.07 338.83 333.03 325.19 305.87 250.15 167.65 121.00 110.82 105.94 100.67 98.04 96.07 91.02 84.41 81.02 79.93 68.08 20.89 -52.01 -96.36 -109.21 -114.09 -117.73 -119.60 -118.01 -113.74 -109.10 -105.65 -104.00 -111.27 -149.84 -213.50 -253.18 -264.47 -267.95 -269.31 -269.86 -270.69 -271.65 -271.70 -271.34 -272.16 -273.68 -273.82 -272.28 -271.13 -270.49 -269.11 -267.87 -268.44 -269.98 -271.69 -272.23 -272.18 -274.37 -297.23 -399.59 -568.32 -670.89 -694.53 -699.90 -709.60 -742.96 -847.03 -1034.28 -1218.54 -1343.44 -1439.50 -1515.84 -1555.85 -1563.49 -1552.12 -1533.63 -1513.87 -1492.10 -1471.87 -1458.04 -1450.24 -1451.53 -1462.30 -1485.56 -1502.70 -1438.68 -1313.19 -1279.11 -1328.17 -1385.22 -1421.73 -1434.32
1194.13 1158.29 1061.75 938.28 854.52 799.63 747.85 708.97 675.87 626.55 561.66 504.44 468.61 446.84 425.92 405.14 386.20 367.35 350.38 337.52 328.44 321.09 313.80 307.15 303.64 301.99 298.57 293.69 287.60 281.34 278.80 283.55 295.77 310.85 326.20 340.59 352.12 365.67 378.79 383.33 378.43 371.08 365.31 360.58 354.78 346.21 337.13 331.45 328.80 325.61 310.26 255.62 172.50 126.00 117.07 113.78 109.39 107.17 105.61 100.26 92.73 87.36 84.63 73.92 29.26 -42.53 -87.83 -102.64 -110.01 -116.34 -119.37 -116.86 -111.21 -105.63 -101.24 -98.65 -105.30 -143.61 -207.33 -247.42 -259.46 -263.90 -266.78 -268.69 -270.37 -272.11 -272.61 -272.15 -271.98 -272.72 -273.00 -271.99 -271.00 -270.14 -269.18 -269.13 -270.07 -271.41 -272.77 -272.66 -272.31 -274.20 -297.16 -400.44 -570.48 -673.91 -698.20 -704.28 -713.59 -742.84 -840.70 -1026.85 -1214.78 -1341.16 -1432.43 -1502.38 -1536.73 -1540.57 -1526.19 -1501.19 -1473.56 -1446.86 -1422.89 -1404.09 -1391.10 -1387.73 -1395.34 -1415.47 -1425.38 -1348.38 -1211.24 -1177.37 -1239.38 -1309.04 -1350.27 -1363.62
1135.09 1099.10 1002.76 876.65 783.15 722.87 683.37 674.95 679.55 659.88 608.11 551.11 510.75 482.81 456.89 433.64 413.94 393.35 372.90 355.38 342.93 334.55 325.18 313.54 304.21 297.49 290.70 285.36 281.43 278.84 280.49 289.26 304.86 323.58 343.25 361.26 374.12 384.50 391.50 389.55 379.17 368.66 361.53 355.11 347.38 338.85 332.28 329.41 329.47 329.58 317.01 262.65 177.66 130.67 123.17 121.24 117.17 114.13 111.60 105.95 98.09 91.06 86.09 75.09 32.17 -37.92 -82.81 -98.53 -107.32 -114.42 -116.91 -113.04 -106.49 -100.85 -96.16 -93.85 -101.66 -140.34 -203.56 -243.33 -255.69 -261.50 -266.18 -269.45 -271.78 -273.67 -274.14 -273.60 -272.98 -272.94 -272.77 -272.29 -271.88 -270.67 -269.85 -270.77 -271.93 -272.56 -273.27 -273.03 -272.68 -274.43 -297.52 -400.82 -571.22 -675.86 -701.34 -708.00 -718.08 -746.38 -832.10 -998.55 -1186.40 -1331.68 -1429.72 -1490.38 -1517.68 -1520.05 -1503.58 -1473.86 -1442.72 -1414.22 -1385.64 -1359.71 -1342.62 -1337.61 -1343.97 -1361.02 -1364.30 -1277.84 -1129.40 -1089.46 -1159.13 -1241.65 -1288.31 -1302.17
1064.88 1030.01 934.76 806.23 707.09 650.19 629.45 645.62 673.17 671.53 633.63 586.04 547.65 515.15 484.52 460.34 443.57 424.90 401.72 379.61 364.04 353.18 340.07 324.32 311.55 301.87 292.36 285.96 283.32 282.73 286.23 296.39 312.23 331.56 354.62 377.10 392.37 399.13 398.27 389.16 375.28 364.10 356.60 349.30 341.95 336.50 334.26 334.68 336.85 337.92 325.19 269.39 181.99 133.68 126.65 125.52 121.25 116.78 112.43 106.04 98.14 90.14 83.13 70.76 28.22 -40.63 -84.35 -99.09 -106.84 -112.24 -112.77 -107.32 -100.05 -94.81 -91.02 -89.90 -99.15 -138.36 -201.64 -241.80 -254.51 -260.94 -266.48 -270.81 -273.47 -274.82 -274.97 -274.47 -274.07 -273.89 -273.02 -272.37 -272.53 -271.81 -271.12 -271.85 -272.73 -272.78 -273.08 -272.81 -272.28 -274.23 -298.13 -401.57 -571.40 -676.57 -703.36 -710.73 -721.97 -751.04 -824.15 -963.30 -1141.53 -1304.88 -1415.68 -1472.77 -1496.63 -1498.55 -1480.44 -1449.19 -1418.11 -1389.12 -1356.16 -1323.93 -1302.91 -1295.78 -1299.68 -1312.77 -1312.59 -1225.30 -1075.00 -1030.11 -1098.31 -1185.41 -1235.25 -1249.42
974.21 945.95 862.59 743.94 651.41 600.70 588.98 613.81 646.09 650.94 628.98 602.52 577.85 548.44 515.23 488.05 471.44 452.43 425.03 399.16 380.93 365.74 348.48 332.06 321.69 313.53 302.92 295.45 293.21 293.39 296.88 306.20 320.51 338.69 362.78 387.15 402.42 405.45 398.61 385.03 370.00 359.00 351.54 344.93 340.27 339.62 342.45 346.43 349.79 349.36 334.10 276.22 187.25 137.24 128.68 126.55 120.95 114.78 108.68 101.15 93.14 85.30 77.94 65.07 22.62 -45.83 -88.66 -100.71 -104.69 -107.04 -106.28 -101.59 -95.53 -90.80 -87.83 -88.00 -98.53 -138.47 -202.56 -243.81 -256.75 -262.40 -267.36 -271.53 -273.84 -274.54 -274.36 -273.76 -273.55 -273.93 -273.26 -272.37 -272.77 -272.89 -272.47 -272.46 -272.71 -272.70 -272.81 -272.37 -271.64 -273.87 -298.80 -402.37 -570.99 -675.04 -702.07 -710.40 -723.02 -754.68 -823.17 -941.55 -1100.09 -1263.93 -1385.31 -1447.65 -1473.75 -1477.06 -1458.04 -1425.93 -1394.06 -1363.53 -1327.93 -1293.58 -1271.27 -1261.83 -1262.70 -1273.27 -1272.36 -1186.10 -1035.80 -987.95 -1050.60 -1134.83 -1186.42 -1202.31
906.95 876.65 797.54 693.76 612.91 567.17 558.60 582.18 608.41 613.14 604.44 598.98 593.37 575.57 544.49 513.20 491.46 466.88 432.22 401.18 380.49 363.46 347.35 336.10 332.65 328.53 318.12 310.16 308.30 309.01 311.52 318.20 329.97 346.61 369.34 392.15 405.20 404.97 394.33 378.92 364.87 355.06 348.17 343.43 342.64 346.64 353.74 360.77 364.43 361.58 343.66 284.25 194.33 142.02 129.82 124.98 117.90 110.30 102.74 94.65 87.57 82.05 77.34 65.60 22.82 -46.39 -89.32 -99.11 -99.44 -99.66 -99.03 -96.76 -93.42 -89.71 -87.44 -89.03 -100.97 -142.04 -206.97 -248.38 -260.77 -265.44 -269.81 -273.06 -273.89 -273.08 -271.93 -270.76 -270.44 -271.75 -272.70 -272.76 -273.01 -272.77 -272.09 -271.31 -270.66 -270.83 -271.30 -271.50 -271.79 -274.69 -299.68 -402.79 -570.65 -673.39 -699.54 -708.04 -721.37 -755.77 -826.14 -934.82 -1074.31 -1225.04 -1348.23 -1416.87 -1447.38 -1452.64 -1432.55 -1399.09 -1365.88 -1332.83 -1294.96 -1261.24 -1240.50 -1231.23 -1232.19 -1243.92 -1243.28 -1154.20 -998.78 -945.92 -1004.89 -1089.01 -1141.95 -1158.39
889.11 853.81 770.18 668.50 589.11 542.83 532.95 549.99 567.92 571.77 571.58 580.15 591.62 589.25 564.70 530.79 501.81 469.19 426.77 390.39 369.63 356.70 347.53 343.79 345.63 343.33 332.62 324.52 324.68 328.05 330.47 333.74 341.65 356.33 376.71 396.25 406.18 403.14 390.50 374.92 362.32 354.04 348.84 347.03 349.69 356.26 365.60 374.68 378.27 373.21 353.30 293.12 202.01 146.52 130.22 122.69 114.67 106.18 98.14 91.06 86.47 84.80 83.76 73.35 29.50 -41.25 -84.53 -93.35 -92.46 -92.84 -93.92 -94.37 -93.32 -91.00 -89.68 -91.84 -104.51 -146.75 -212.29 -253.00 -264.51 -268.69 -272.49 -274.67 -274.12 -271.39 -268.14 -265.56 -265.22 -268.04 -271.26 -272.72 -272.69 -271.24 -269.48 -267.89 -267.07 -268.04 -269.30 -270.41 -272.02 -275.40 -299.56 -401.85 -569.54 -672.24 -697.98 -705.75 -718.24 -751.76 -822.91 -927.78 -1050.62 -1181.54 -1296.18 -1367.43 -1405.34 -1416.99 -1399.68 -1366.69 -1332.76 -1297.32 -1257.96 -1225.61 -1207.58 -1201.07 -1203.22 -1214.98 -1213.31 -1120.93 -958.99 -898.05 -953.67 -1039.56 -1094.68 -1112.16
896.49 860.52 774.99 671.31 589.16 535.56 513.32 516.30 525.97 533.40 544.33 564.65 587.70 595.57 575.93 540.29 505.14 466.98 423.20 387.93 370.66 364.13 362.27 362.98 364.47 359.04 346.17 337.99 340.99 348.84 353.84 355.08 358.64 370.86 389.19 404.79 409.96 403.89 390.76 375.87 364.50 357.82 355.24 356.69 361.56 368.96 379.25 389.39 392.42 385.62 363.76 301.73 208.13 149.76 131.19 122.56 114.62 105.72 97.67 92.39 90.50 91.61 92.59 82.68 38.18 -33.04 -76.16 -85.48 -86.05 -88.53 -92.58 -95.79 -96.46 -95.25 -94.15 -95.56 -107.71 -150.22 -216.11 -256.39 -267.05 -270.63 -273.32 -274.44 -273.46 -269.46 -263.66 -259.47 -259.80 -264.43 -269.01 -270.59 -269.99 -267.84 -265.20 -263.29 -263.33 -265.53 -267.64 -269.40 -271.53 -274.79 -298.15 -399.58 -566.65 -669.13 -694.34 -701.15 -712.11 -739.37 -798.82 -888.80 -993.84 -1107.45 -1208.67 -1281.14 -1333.13 -1360.20 -1354.43 -1327.27 -1293.22 -1255.51 -1216.08 -1185.28 -1169.89 -1166.74 -1170.68 -1181.98 -1178.54 -1083.88 -916.10 -846.99 -898.18 -982.08 -1038.33 -1057.80
931.74 898.48 818.80 722.27 644.54 585.11 546.75 532.61 534.06 547.52 572.55 604.90 634.25 645.63 627.81 588.96 546.13 505.09 468.42 442.07 429.70 426.89 429.32 431.79 428.62 409.60 378.87 360.53 362.25 373.08 382.32 385.41 388.09 399.03 415.12 425.56 424.47 415.18 402.97 390.87 382.04 377.22 376.94 380.99 387.11 394.41 404.68 415.16 417.72 408.97 383.46 315.20 214.24 151.74 132.62 125.02 118.98 110.72 101.76 96.47 95.88 98.19 99.59 89.57 45.36 -25.50 -68.93 -80.15 -83.31 -87.84 -94.59 -100.25 -102.35 -101.78 -100.36 -100.74 -111.14 -151.73 -216.45 -256.34 -266.09 -268.05 -269.02 -269.35 -268.49 -264.12 -257.20 -252.50 -253.27 -258.17 -262.63 -263.64 -262.66 -261.03 -259.29 -258.24 -259.00 -261.65 -264.23 -266.56 -269.02 -271.84 -293.18 -388.87 -547.16 -644.10 -667.49 -673.43 -682.04 -699.38 -735.62 -794.63 -873.22 -966.20 -1051.60 -1127.00 -1200.65 -1254.54 -1271.42 -1257.22 -1225.44 -1187.13 -1150.32 -1122.72 -1108.24 -1105.62 -1111.47 -1123.10 -1118.25 -1026.45 -863.17 -793.69 -842.65 -924.48 -977.53 -994.76
1121.35 1092.10 1020.92 932.75 862.08 805.99 761.65 736.56 732.42 749.56 783.52 824.14 855.97 866.91 850.31 810.23 761.91 719.82 690.07 670.61 660.56 658.53 662.62 665.88 651.90 587.79 484.50 420.75 410.61 421.03 434.19 442.54 449.06 460.86 473.74 477.68 470.78 459.95 452.59 449.43 445.74 441.89 443.10 450.13 457.83 464.41 473.16 482.14 482.76 469.88 436.84 352.85 229.86 154.31 133.12 127.34 123.43 116.13 106.11 99.13 98.22 101.33 103.21 93.33 49.08 -22.23 -66.25 -78.52 -83.13 -89.09 -97.41 -104.29 -107.19 -107.06 -105.91 -106.22 -115.19 -151.55 -210.26 -246.38 -254.06 -253.98 -253.17 -252.53 -251.44 -247.70 -242.02 -238.25 -238.67 -242.14 -245.78 -246.97 -246.70 -246.60 -246.63 -246.77 -248.02 -250.65 -253.27 -255.72 -258.17 -260.19 -275.73 -346.90 -464.52 -536.45 -554.08 -558.84 -564.39 -572.89 -588.72 -615.68 -658.83 -718.33 -782.26 -857.12 -950.85 -1039.12 -1087.82 -1089.93 -1062.00 -1024.62 -991.13 -967.32 -953.87 -950.08 -955.75 -966.13 -962.58 -895.16 -776.52 -732.68 -783.22 -861.10 -909.62 -923.83
1443.66 1420.31 1358.21 1273.50 1205.86 1158.76 1119.62 1092.37 1086.27 1104.87 1141.92 1185.22 1216.36 1224.55 1209.63 1175.10 1130.68 1090.89 1062.73 1043.61 1033.26 1031.01 1034.72 1037.50 1007.99 872.54 651.11 513.00 483.65 492.89 510.39 525.59 536.95 548.40 555.56 551.71 540.03 530.46 532.56 543.44 546.75 543.55 545.81 555.27 564.29 569.92 575.84 580.36 575.87 557.08 515.10 409.26 252.34 155.70 130.18 126.14 124.24 118.15 107.64 98.24 95.41 98.49 101.43 92.43 47.55 -24.97 -68.95 -80.00 -83.87 -90.23 -99.04 -106.09 -109.35 -110.09 -109.96 -110.87 -119.13 -150.00 -198.75 -227.31 -231.42 -229.72 -228.25 -226.88 -225.10 -222.26 -218.67 -216.38 -216.59 -219.17 -222.37 -224.21 -225.29 -226.86 -228.22 -229.16 -231.10 -233.82 -236.07 -238.11 -239.76 -240.68 -247.86 -278.84 -329.16 -359.89 -367.89 -370.96 -374.18 -377.75 -383.31 -392.33 -409.18 -437.77 -479.32 -543.01 -635.39 -740.83 -818.81 -840.07 -818.93 -783.97 -752.61 -731.03 -719.08 -715.31 -720.02 -728.91 -731.78 -707.17 -664.51 -666.54 -720.87 -789.98 -834.36 -848.33
1603.96 1588.90 1539.34 1460.63 1396.76 1358.11 1326.83 1303.17 1298.90 1319.12 1356.74 1397.74 1425.04 1431.45 1421.47 1398.91 1367.68 1336.53 1311.14 1292.18 1282.33 1279.19 1278.73 1276.15 1234.56 1055.50 762.32 578.51 536.91 546.66 569.69 590.76 603.21 608.80 605.83 592.84 577.74 571.63 583.44 604.97 613.35 611.42 613.81 622.13 629.01 631.94 633.88 632.73 622.71 600.26 554.93 437.59 260.25 150.87 122.93 120.30 120.44 116.00 105.78 94.79 89.60 91.03 93.89 85.22 39.50 -34.02 -77.29 -85.95 -87.43 -92.31 -100.23 -106.67 -109.44 -110.55 -111.47 -112.93 -120.43 -147.65 -190.05 -213.11 -214.34 -211.41 -209.45 -207.70 -205.83 -204.12 -202.44 -201.40 -201.95 -204.87 -208.44 -211.07 -213.23 -215.79 -218.08 -219.80 -222.17 -224.46 -225.64 -226.98 -228.13 -228.37 -230.53 -237.39 -247.15 -252.95 -254.77 -256.41 -258.71 -260.50 -261.96 -264.44 -270.40 -283.76 -309.52 -354.57 -425.85 -521.95 -613.17 -654.89 -647.90 -620.09 -592.50 -573.26 -562.64 -558.86 -561.88 -569.83 -578.25 -578.93 -579.29 -605.43 -658.56 -718.92 -759.51 -773.52
1588.20 1576.27 1533.88 1465.74 1413.27 1384.17 1359.82 1340.72 1339.12 1360.03 1396.35 1433.25 1456.14 1461.97 1459.08 1450.12 1434.57 1417.29 1402.35 1390.30 1382.32 1375.30 1367.10 1354.65 1304.37 1115.42 808.80 617.00 574.42 586.74 612.62 632.40 638.07 631.61 614.87 592.89 577.09 576.35 595.60 622.76 633.83 633.04 633.79 637.79 640.51 639.59 636.29 629.58 617.24 596.90 554.82 436.83 255.07 143.04 115.02 112.75 113.09 109.39 100.52 90.47 84.71 84.35 85.28 75.00 28.40 -45.19 -88.05 -95.37 -94.54 -96.76 -102.23 -106.71 -107.74 -107.54 -108.22 -109.96 -117.39 -144.11 -185.45 -206.65 -206.20 -202.12 -199.20 -197.25 -196.26 -195.85 -195.57 -195.75 -197.08 -200.26 -204.03 -207.56 -210.94 -214.14 -217.12 -219.41 -221.28 -222.64 -223.46 -224.87 -226.14 -225.94 -226.51 -228.27 -229.47 -230.17 -230.63 -231.32 -232.76 -233.72 -233.76 -234.02 -236.06 -242.80 -258.67 -287.99 -337.95 -414.42 -500.96 -557.65 -568.41 -551.53 -529.72 -513.53 -504.82 -501.16 -502.51 -509.75 -520.13 -524.82 -529.31 -554.66 -601.82 -654.20 -690.15 -703.22
1550.16 1534.47 1489.70 1429.74 1388.88 1367.39 1349.17 1334.87 1334.54 1353.83 1387.56 1421.25 1440.64 1445.23 1446.49 1448.19 1448.40 1448.81 1450.33 1448.19 1438.05 1421.80 1405.54 1386.24 1332.58 1145.47 842.93 656.09 619.14 634.23 655.01 662.38 653.62 633.49 605.00 576.96 562.36 566.36 589.72 619.24 631.40 630.41 629.14 630.74 632.07 628.83 620.24 608.44 595.93 581.00 545.08 430.10 249.32 137.55 108.92 104.45 102.19 98.20 92.09 85.81 81.89 80.53 78.79 66.48 20.26 -52.18 -95.37 -103.24 -101.63 -101.59 -103.95 -105.49 -104.10 -101.58 -100.81 -102.60 -110.71 -137.96 -179.70 -201.18 -200.88 -196.54 -193.23 -191.36 -191.22 -191.95 -193.04 -194.69 -197.15 -200.36 -203.80 -207.68 -211.85 -215.47 -218.38 -220.26 -220.99 -221.53 -222.78 -224.95 -226.90 -227.04 -227.04 -227.72 -228.07 -228.73 -229.26 -229.72 -230.46 -230.76 -230.78 -230.62 -230.70 -233.09 -242.56 -263.47 -300.92 -361.41 -437.36 -498.62 -520.26 -510.84 -493.48 -480.48 -474.46 -473.28 -476.62 -484.95 -495.51 -499.26 -500.65 -521.39 -561.89 -605.23 -633.17 -642.58
1533.07 1513.26 1463.65 1404.82 1367.39 1348.17 1334.52 1325.70 1327.70 1345.22 1374.78 1404.53 1419.76 1420.85 1422.09 1431.74 1448.92 1467.32 1480.79 1482.34 1466.98 1442.70 1420.96 1399.47 1348.16 1167.15 872.15 693.02 662.32 677.57 687.96 677.95 652.56 621.66 587.45 557.85 544.30 549.25 572.88 602.89 615.56 614.02 611.94 614.31 616.76 612.91 601.52 587.08 575.03 564.51 534.15 423.31 245.28 134.52 104.77 97.46 92.79 88.36 84.59 82.61 81.36 79.48 75.76 62.69 18.41 -52.01 -95.75 -104.93 -103.29 -101.78 -101.86 -101.10 -97.73 -93.42 -91.58 -93.37 -101.65 -128.66 -170.96 -194.45 -196.24 -193.21 -190.93 -189.57 -189.72 -191.31 -193.66 -196.70 -200.36 -203.92 -207.14 -210.66 -214.14 -216.96 -218.67 -219.52 -219.86 -220.23 -221.61 -224.28 -227.00 -228.23 -228.26 -227.81 -227.27 -227.41 -227.94 -228.82 -229.65 -229.80 -230.01 -230.02 -229.69 -230.18 -235.82 -251.12 -279.22 -326.43 -390.55 -448.67 -477.06 -474.16 -460.29 -449.96 -446.62 -449.10 -456.85 -468.33 -479.42 -483.29 -484.23 -501.24 -534.10 -568.54 -589.73 -596.24
1529.06 1506.66 1452.38 1389.45 1350.31 1331.74 1321.48 1317.22 1322.17 1337.77 1360.16 1381.84 1391.34 1390.30 1393.37 1409.95 1439.20 1468.18 1484.18 1482.95 1465.20 1439.91 1415.72 1392.83 1344.39 1170.35 884.58 714.35 688.61 702.94 706.90 685.52 646.90 606.79 570.52 542.40 528.84 530.97 551.70 581.34 594.90 593.86 592.23 595.28 597.84 593.38 582.10 568.91 558.47 550.24 523.33 416.44 241.37 131.70 102.28 95.58 91.46 87.04 84.04 84.29 84.40 81.60 76.73 64.40 22.63 -45.98 -90.05 -100.13 -97.84 -94.74 -93.47 -91.92 -88.44 -84.72 -83.16 -84.63 -92.51 -119.34 -162.37 -188.21 -192.72 -191.62 -190.88 -190.60 -191.57 -193.99 -196.77 -200.07 -204.35 -208.66 -212.27 -215.22 -217.13 -218.12 -218.19 -218.36 -219.19 -219.97 -221.49 -224.17 -226.64 -228.19 -228.65 -227.86 -226.62 -226.09 -226.74 -228.00 -229.17 -229.60 -229.64 -229.57 -229.46 -229.60 -233.06 -243.73 -264.50 -300.50 -351.12 -402.09 -434.06 -437.08 -427.05 -419.88 -419.59 -425.54 -437.34 -452.68 -466.64 -473.10 -475.26 -489.93 -517.91 -546.73 -563.36 -568.00
1538.48 1513.24 1452.93 1383.61 1342.20 1325.98 1318.88 1315.39 1317.60 1326.64 1339.83 1352.20 1356.85 1357.26 1365.76 1387.13 1417.57 1444.80 1456.08 1450.97 1435.24 1414.12 1391.09 1369.17 1323.72 1155.67 878.23 715.11 692.58 708.09 713.72 691.68 647.25 600.10 562.62 536.16 521.62 519.89 537.04 565.27 578.77 577.92 576.67 578.88 579.84 574.62 565.01 555.33 547.69 540.92 515.71 410.91 237.03 128.34 101.61 99.10 98.24 94.90 91.53 91.27 91.40 88.28 83.58 72.38 30.86 -38.52 -83.12 -92.91 -89.49 -84.71 -81.97 -80.45 -78.85 -77.63 -77.14 -78.40 -86.22 -113.74 -157.41 -184.47 -190.86 -191.43 -192.16 -193.24 -195.09 -197.74 -200.21 -203.23 -207.85 -212.98 -217.03 -219.14 -219.60 -219.22 -218.49 -218.57 -219.63 -220.88 -223.05 -225.71 -227.30 -228.08 -228.50 -227.86 -226.75 -226.44 -227.31 -228.36 -229.46 -230.21 -230.22 -230.06 -229.91 -229.83 -231.73 -238.64 -254.55 -283.37 -323.25 -364.79 -393.45 -398.97 -392.64 -388.53 -391.04 -400.19 -415.82 -435.84 -455.35 -466.89 -472.56 -489.81 -519.70 -547.98 -561.89 -564.93
1553.23 1526.05 1462.37 1389.93 1349.24 1337.17 1332.67 1325.83 1318.35 1315.43 1318.65 1324.16 1326.33 1329.03 1342.02 1363.71 1386.81 1403.29 1407.60 1402.71 1392.76 1377.12 1356.89 1338.10 1296.69 1133.38 861.03 700.68 678.22 695.66 706.46 689.09 646.59 599.58 563.76 540.19 525.86 520.31 533.15 558.91 571.16 569.26 566.99 567.13 565.90 560.82 553.41 546.80 542.14 537.36 513.42 408.91 234.46 126.96 103.80 105.66 108.54 107.16 103.45 101.71 101.68 99.44 95.78 84.72 40.76 -31.51 -76.58 -85.46 -81.39 -75.53 -71.57 -70.64 -71.88 -73.52 -74.18 -75.92 -84.45 -112.76 -156.70 -183.91 -190.96 -192.61 -194.90 -197.80 -200.14 -201.77 -202.98 -205.17 -209.79 -215.72 -220.32 -222.04 -221.56 -220.67 -220.47 -221.02 -221.99 -223.34 -225.55 -227.73 -228.45 -228.13 -228.19 -228.09 -227.71 -227.82 -228.30 -228.72 -229.76 -230.63 -230.62 -230.37 -230.41 -230.70 -231.23 -234.64 -246.14 -269.68 -302.33 -335.57 -358.18 -363.25 -359.25 -356.70 -359.82 -370.34 -389.16 -415.02 -442.41 -461.12 -474.12 -499.69 -534.90 -566.02 -582.92 -587.79
1563.53 1541.08 1483.94 1412.42 1371.80 1362.33 1357.64 1344.37 1325.85 1311.83 1306.17 1305.81 1306.00 1309.72 1323.36 1340.89 1354.95 1362.41 1364.75 1365.99 1364.21 1352.43 1332.32 1313.72 1272.99 1110.29 838.49 676.60 652.11 671.69 688.16 678.48 645.03 604.59 573.43 556.11 545.55 537.15 544.90 567.75 578.42 573.87 567.73 563.89 559.92 555.29 550.29 545.68 542.67 539.98 517.94 413.69 238.49 131.36 109.65 112.94 117.94 119.18 116.82 114.01 112.97 112.03 109.71 97.30 50.19 -23.89 -68.67 -77.10 -73.28 -67.53 -63.62 -63.23 -66.61 -70.99 -73.50 -76.49 -86.05 -115.02 -159.18 -186.23 -193.42 -195.70 -199.19 -203.68 -206.29 -206.35 -205.45 -205.84 -209.72 -216.23 -221.82 -223.91 -223.20 -222.58 -223.43 -224.60 -225.61 -226.41 -227.14 -227.91 -228.00 -227.55 -227.78 -228.19 -228.26 -228.30 -228.32 -228.44 -229.48 -230.22 -230.20 -230.20 -230.64 -231.19 -231.01 -232.28 -239.88 -258.55 -286.42 -313.89 -330.03 -331.58 -327.83 -326.83 -330.62 -341.40 -361.79 -392.08 -426.98 -454.33 -478.59 -515.11 -555.27 -588.92 -610.59 -618.49
1585.74 1570.34 1521.06 1447.54 1401.12 1387.97 1378.04 1356.73 1329.70 1308.73 1296.81 1291.45 1289.64 1292.61 1303.46 1315.54 1324.49 1330.38 1336.71 1346.76 1353.79 1345.64 1323.56 1300.05 1253.56 1086.00 811.76 648.28 623.96 646.74 668.90 668.76 647.68 617.31 593.25 583.39 578.30 569.83 573.36 592.06 599.63 590.39 578.06 569.34 563.18 559.01 555.79 552.28 549.63 548.40 528.89 426.43 251.93 144.51 121.54 123.20 128.19 131.62 130.79 126.42 123.09 122.97 122.30 108.63 59.14 -15.06 -58.65 -67.32 -65.20 -61.08 -58.52 -58.99 -63.46 -69.62 -74.53 -79.35 -89.45 -118.73 -163.63 -190.77 -197.87 -200.88 -205.19 -209.98 -212.24 -211.20 -208.72 -207.47 -210.09 -216.18 -222.18 -224.59 -223.96 -223.86 -225.11 -226.04 -226.80 -227.27 -226.95 -226.32 -226.05 -226.29 -227.01 -227.49 -227.51 -227.48 -227.65 -227.82 -228.55 -229.23 -229.70 -230.19 -230.39 -230.36 -230.19 -230.96 -235.87 -249.50 -271.30 -291.48 -300.33 -299.27 -297.59 -299.17 -304.07 -314.64 -335.71 -368.60 -408.54 -444.74 -480.30 -525.12 -569.64 -604.29 -625.39 -632.63
1579.61 1563.26 1511.97 1437.34 1387.39 1365.78 1345.95 1316.46 1284.73 1260.50 1244.53 1235.81 1232.39 1233.42 1239.72 1246.73 1254.18 1264.04 1277.78 1295.55 1308.92 1305.18 1283.53 1255.24 1202.62 1036.84 775.07 622.07 602.64 627.78 653.46 661.52 651.31 632.48 617.88 613.28 610.58 603.07 603.87 616.88 618.82 603.49 584.94 572.70 566.58 563.62 561.01 557.51 554.56 553.73 536.47 438.74 269.59 163.90 138.45 136.86 140.31 143.87 143.29 138.15 133.70 133.50 133.18 119.06 69.07 -4.66 -47.59 -57.26 -57.83 -56.73 -56.41 -58.19 -63.32 -70.17 -76.72 -82.80 -92.38 -121.26 -167.32 -195.58 -203.06 -206.78 -211.62 -215.84 -217.29 -216.04 -213.48 -211.69 -212.99 -217.67 -222.56 -224.45 -223.65 -223.41 -224.13 -224.38 -224.86 -225.57 -225.58 -224.70 -224.07 -224.51 -225.49 -226.16 -226.14 -226.02 -226.57 -227.39 -228.16 -228.93 -229.76 -230.07 -229.49 -229.01 -229.22 -229.86 -232.21 -239.78 -253.00 -264.79 -268.39 -267.88 -269.64 -273.19 -278.01 -287.92 -308.90 -342.10 -383.07 -424.35 -467.75 -517.35 -564.05 -598.67 -616.89 -621.90
1400.06 1377.84 1322.40 1255.77 1210.09 1177.68 1144.11 1107.15 1073.62 1048.69 1030.82 1019.65 1014.03 1012.62 1014.53 1017.47 1024.31 1038.49 1058.35 1079.95 1095.33 1095.42 1078.01 1050.67 1004.07 880.32 694.99 592.27 586.82 612.02 635.77 646.26 643.00 634.79 630.78 631.51 629.68 622.02 618.89 622.62 615.48 593.94 571.61 558.66 554.80 553.73 550.30 544.87 540.25 538.49 522.57 432.92 276.81 178.33 152.50 148.77 150.36 152.55 152.14 148.48 145.18 144.37 142.54 128.39 79.84 6.19 -38.22 -50.01 -52.93 -54.49 -55.94 -58.55 -64.08 -71.09 -77.98 -84.03 -92.48 -120.62 -167.78 -197.84 -206.63 -211.02 -216.07 -220.10 -221.60 -220.81 -218.52 -216.85 -217.34 -220.20 -222.82 -223.10 -221.77 -221.38 -221.97 -222.16 -222.88 -224.19 -225.08 -224.95 -224.33 -224.38 -224.98 -225.57 -225.22 -224.79 -225.90 -227.70 -228.70 -229.23 -229.65 -229.37 -228.52 -227.94 -228.21 -228.57 -228.97 -231.66 -237.68 -243.59 -244.88 -244.81 -247.05 -250.18 -254.20 -263.55 -283.52 -314.00 -350.63 -390.89 -438.55 -491.79 -537.61 -570.13 -586.64 -591.22
1078.98 1055.62 1002.69 944.98 902.43 860.10 813.20 768.73 733.01 707.91 689.31 675.17 665.74 661.02 658.67 658.08 663.46 678.44 700.27 721.91 735.79 736.92 723.43 701.35 674.60 631.16 578.67 559.38 573.32 595.70 612.39 618.42 616.39 614.57 619.18 626.85 628.81 623.57 617.96 611.93 595.43 569.35 545.94 533.86 532.49 533.14 528.40 519.73 512.17 507.92 491.25 409.93 270.47 182.97 159.71 155.54 155.58 156.09 155.66 153.92 152.75 152.57 150.62 137.31 90.09 16.55 -29.51 -43.82 -48.92 -52.47 -55.13 -58.01 -63.30 -70.06 -77.00 -83.02 -90.95 -118.46 -165.48 -196.13 -205.93 -210.98 -216.38 -221.12 -223.76 -223.85 -222.16 -220.97 -220.71 -221.17 -221.24 -220.12 -219.15 -220.07 -221.74 -222.35 -223.22 -224.82 -226.27 -226.95 -226.57 -226.13 -226.13 -226.45 -225.90 -225.33 -226.26 -227.68 -228.66 -229.19 -229.37 -228.90 -227.96 -227.07 -227.20 -227.72 -227.86 -228.69 -230.86 -233.12 -233.36 -233.15 -234.16 -235.73 -238.40 -246.05 -262.77 -288.19 -318.90 -355.73 -403.18 -455.75 -497.67 -526.50 -541.86 -546.87
914.15 892.40 840.79 780.65 733.46 684.49 629.72 579.32 540.05 513.55 494.43 477.63 463.64 453.81 446.18 441.39 443.86 456.56 476.35 494.69 504.72 504.73 494.49 478.49 468.06 477.82 509.71 541.88 564.27 580.55 589.47 590.05 587.33 588.57 597.29 609.08 615.71 616.46 614.83 608.49 590.73 563.58 539.54 527.94 527.88 529.67 524.57 514.09 504.60 497.42 477.11 397.63 265.87 183.78 161.71 157.21 156.38 155.22 153.57 152.20 152.79 155.39 156.57 145.84 99.64 26.13 -21.35 -38.02 -45.25 -50.53 -54.19 -57.41 -62.12 -68.34 -75.79 -82.34 -90.59 -117.81 -163.77 -194.03 -204.25 -209.21 -214.10 -219.02 -222.85 -224.25 -223.61 -222.59 -221.22 -219.58 -218.17 -217.19 -218.03 -220.91 -223.27 -223.58 -224.07 -225.66 -227.26 -228.31 -228.19 -227.38 -226.81 -226.99 -227.25 -227.30 -227.37 -227.62 -228.44 -229.22 -229.49 -229.11 -228.23 -227.38 -227.41 -228.09 -228.44 -228.38 -228.57 -229.03 -229.17 -229.27 -229.66 -230.24 -231.38 -235.79 -247.11 -266.80 -293.44 -326.11 -366.85 -412.53 -448.99 -475.35 -490.49 -495.57
914.77 893.74 840.45 772.84 717.96 664.62 606.69 554.52 514.20 486.71 466.56 447.38 429.22 413.52 400.41 392.20 392.75 403.02 418.39 430.72 435.30 433.40 426.57 416.62 414.31 440.00 493.94 537.87 558.23 566.73 568.12 564.92 563.40 567.63 576.14 585.72 593.68 601.39 609.21 611.44 600.26 576.16 552.55 540.21 538.30 538.98 534.24 524.49 515.12 506.16 482.18 399.16 265.58 182.42 159.96 155.50 154.16 151.48 148.07 145.48 146.08 150.83 155.75 148.72 104.79 31.62 -17.37 -35.83 -44.20 -50.32 -54.97 -59.00 -63.37 -68.93 -76.34 -83.06 -92.17 -120.15 -165.68 -195.19 -205.31 -210.00 -213.28 -216.47 -219.74 -221.83 -221.90 -220.46 -218.72 -217.35 -216.52 -216.81 -218.96 -221.83 -223.17 -222.68 -223.11 -225.31 -227.04 -227.68 -227.65 -227.01 -226.33 -226.23 -226.97 -227.59 -227.50 -227.49 -228.03 -228.63 -228.78 -228.70 -228.84 -228.71 -228.21 -228.41 -229.07 -228.59 -227.32 -226.54 -226.80 -227.42 -227.57 -227.73 -228.18 -230.08 -236.30 -249.56 -270.05 -294.07 -323.44 -362.41 -396.80 -422.70 -437.82 -442.91
922.92 904.33 854.30 786.69 728.49 671.67 610.93 559.44 522.14 495.51 473.91 453.00 432.81 414.34 399.21 389.80 388.51 395.10 405.08 411.90 412.49 409.49 404.90 399.85 403.56 435.25 493.43 537.84 554.36 555.59 549.44 542.46 542.36 548.80 554.83 559.61 566.96 580.55 598.61 611.23 608.38 589.55 567.82 553.84 547.65 544.62 539.14 531.01 522.86 513.31 487.43 400.39 262.59 177.38 154.93 150.76 148.89 145.31 140.85 137.35 136.92 141.38 148.15 144.09 103.10 31.15 -18.78 -38.30 -46.79 -52.48 -57.58 -62.03 -65.66 -69.89 -75.90 -82.51 -93.58 -124.02 -170.37 -199.18 -208.79 -213.13 -214.83 -215.55 -216.86 -218.54 -218.58 -216.85 -216.00 -216.73 -217.76 -219.10 -220.73 -221.65 -221.34 -220.49 -221.38 -224.37 -226.37 -226.57 -226.25 -225.63 -225.03 -224.80 -225.32 -226.25 -227.00 -227.50 -227.70 -227.78 -227.96 -228.33 -229.23 -229.51 -228.71 -228.47 -229.17 -228.75 -226.70 -224.62 -224.27 -224.91 -224.87 -224.71 -225.45 -227.00 -230.10 -237.05 -248.08 -258.13 -273.36 -305.69 -340.16 -367.34 -383.31 -388.86
906.66 887.33 839.12 776.62 719.06 658.10 593.84 543.72 511.52 489.00 469.34 450.36 432.63 416.83 404.30 394.79 389.56 389.74 393.54 396.38 396.02 394.25 391.84 390.67 399.48 435.04 494.20 536.94 550.18 546.20 534.59 524.68 524.43 530.85 535.51 539.39 548.08 565.27 589.28 608.02 609.82 594.55 574.23 558.89 549.41 542.88 536.03 528.96 521.95 512.47 485.90 396.86 257.08 171.72 149.99 145.81 143.72 140.33 136.12 132.58 130.69 133.06 139.74 137.35 98.68 28.34 -21.28 -40.94 -49.51 -54.75 -59.38 -63.23 -65.81 -68.55 -73.09 -80.34 -93.66 -126.41 -173.98 -202.90 -212.31 -216.12 -217.22 -216.83 -216.48 -216.59 -215.64 -214.12 -214.36 -216.68 -219.40 -221.10 -221.49 -220.87 -219.71 -219.16 -220.61 -223.51 -225.49 -225.59 -224.86 -223.86 -222.96 -222.90 -223.60 -225.11 -226.71 -227.50 -227.57 -227.55 -228.06 -228.92 -229.68 -229.25 -228.20 -227.99 -228.34 -227.55 -225.05 -222.03 -220.76 -221.02 -220.91 -220.68 -222.05 -224.54 -226.96 -230.20 -233.28 -230.56 -230.65 -250.61 -280.03 -307.39 -325.53 -332.14
873.88 853.77 805.62 744.09 685.50 623.64 561.80 516.34 488.19 468.48 451.90 438.22 428.15 420.46 413.22 403.05 392.61 386.28 384.76 385.09 384.80 383.54 382.22 384.09 395.84 431.76 488.83 528.76 540.02 534.91 522.27 511.24 509.41 514.53 520.60 529.14 542.80 561.72 584.54 601.84 602.78 588.27 569.20 554.06 543.57 535.60 528.29 522.15 516.26 507.28 480.65 392.05 253.92 170.64 150.46 146.89 145.23 142.64 138.59 133.51 128.27 127.10 132.23 131.11 94.91 26.95 -20.50 -39.15 -48.00 -53.53 -57.25 -59.88 -62.14 -64.84 -69.56 -78.19 -92.98 -126.47 -174.75 -204.11 -213.05 -216.44 -218.21 -218.08 -216.82 -215.35 -213.73 -213.10 -214.10 -216.77 -219.51 -220.22 -219.63 -219.18 -218.81 -219.16 -220.59 -222.16 -223.28 -223.14 -222.22 -221.31 -220.66 -220.94 -221.98 -224.35 -226.63 -227.36 -227.56 -227.73 -228.29 -229.29 -229.66 -228.51 -227.23 -227.07 -227.01 -225.77 -223.06 -219.29 -216.67 -215.95 -215.82 -215.90 -217.75 -220.98 -224.16 -227.01 -226.79 -217.49 -206.36 -211.58 -230.34 -253.44 -270.86 -277.45
817.66 802.63 762.61 705.11 647.58 591.98 541.51 505.14 478.05 453.60 434.67 426.61 427.77 430.92 428.33 416.22 401.26 391.18 387.39 386.25 384.17 380.15 376.84 378.70 390.19 423.25 474.86 510.85 522.04 519.45 510.16 501.09 498.17 501.58 509.48 523.78 543.14 562.63 580.13 591.48 588.92 574.11 557.16 543.74 533.67 525.96 519.22 514.21 509.82 502.36 477.32 391.48 257.21 176.75 157.80 154.48 152.41 149.91 145.51 138.17 129.26 124.02 125.64 124.13 90.38 25.56 -18.40 -34.69 -42.68 -47.95 -51.38 -53.96 -56.73 -60.23 -66.21 -76.08 -91.47 -124.40 -172.20 -201.88 -210.74 -214.09 -216.23 -215.93 -214.12 -212.31 -211.33 -212.63 -215.21 -217.58 -218.15 -216.52 -215.26 -215.95 -217.34 -218.34 -218.42 -218.34 -218.86 -218.60 -217.81 -217.76 -218.59 -219.92 -221.45 -224.22 -226.62 -227.33 -228.11 -228.59 -228.54 -228.79 -229.11 -228.51 -227.28 -226.55 -226.26 -225.33 -222.65 -218.39 -214.35 -211.49 -210.23 -210.42 -212.90 -217.08 -221.18 -224.52 -223.91 -213.00 -196.57 -191.98 -201.15 -217.59 -231.10 -236.22
752.51 745.59 721.21 678.11 631.25 587.48 550.20 522.12 492.99 458.81 432.92 428.02 438.75 449.74 448.54 433.32 415.09 404.51 402.03 400.38 394.71 385.88 377.84 375.53 383.47 412.48 457.91 489.38 501.50 503.08 498.81 493.17 490.22 491.88 499.23 515.50 537.92 557.78 572.16 579.82 575.25 560.87 545.71 534.05 525.41 519.09 513.28 508.71 505.67 501.10 479.53 397.14 266.01 187.00 167.58 162.60 158.50 155.28 151.07 143.34 133.13 124.78 121.44 116.64 83.71 22.05 -18.21 -31.44 -37.56 -42.28 -46.42 -50.22 -53.95 -58.10 -64.58 -74.08 -88.44 -119.84 -166.07 -195.41 -204.92 -208.65 -210.44 -209.66 -207.85 -206.66 -207.36 -211.33 -215.62 -217.08 -215.33 -212.41 -211.15 -212.33 -214.23 -214.57 -213.03 -212.21 -212.92 -213.18 -213.25 -214.34 -216.53 -219.02 -221.40 -224.24 -226.10 -226.74 -227.85 -228.66 -228.49 -227.91 -228.09 -228.37 -227.21 -225.64 -225.43 -225.40 -223.38 -219.29 -214.11 -208.79 -205.37 -204.72 -207.64 -213.27 -218.70 -222.28 -221.76 -211.20 -192.94 -183.63 -187.01 -197.08 -205.66 -208.87
713.75 709.86 693.72 664.06 633.64 606.08 580.67 557.00 525.60 484.43 452.16 446.50 460.01 471.68 468.00 449.78 429.29 419.39 420.31 420.03 411.11 396.95 383.22 375.24 378.16 403.12 444.50 472.53 484.45 489.45 489.77 487.04 484.30 484.88 490.58 505.20 527.73 548.75 563.94 571.76 567.46 554.22 540.30 529.91 522.77 517.86 513.49 509.87 508.20 506.10 486.98 405.97 274.97 195.07 174.06 166.70 160.46 156.22 152.23 146.09 137.83 129.05 121.27 110.73 75.58 16.52 -19.81 -30.01 -34.79 -39.77 -45.11 -50.15 -54.39 -58.79 -65.24 -73.23 -84.64 -113.24 -157.62 -186.35 -196.17 -199.94 -201.73 -201.79 -201.11 -201.32 -204.19 -209.99 -214.39 -214.38 -211.35 -208.41 -207.31 -208.27 -209.88 -209.73 -207.94 -207.23 -208.15 -209.06 -210.38 -212.63 -215.51 -218.51 -221.44 -224.00 -224.99 -225.17 -225.82 -226.44 -226.68 -226.41 -226.80 -227.50 -226.39 -224.46 -224.41 -225.25 -224.11 -219.99 -213.58 -207.01 -202.44 -200.83 -203.64 -210.01 -216.52 -220.80 -220.76 -210.60 -191.67 -180.31 -179.83 -183.25 -185.81 -186.83
712.55 704.32 682.67 655.29 636.83 624.92 610.08 589.56 560.05 520.27 484.93 473.46 481.11 486.55 477.76 457.54 437.47 429.98 435.37 437.98 427.40 409.36 391.44 378.97 377.56 399.28 438.58 463.76 472.91 478.26 481.18 480.40 478.49 479.91 485.89 499.38 520.94 542.45 559.69 569.87 567.36 555.77 543.66 534.51 528.39 525.07 522.75 520.24 518.24 515.78 496.67 414.71 280.91 198.11 175.44 166.46 158.42 152.28 147.48 143.55 139.63 133.67 123.87 107.39 67.56 9.18 -23.53 -30.10 -33.05 -38.09 -44.42 -50.89 -56.15 -60.71 -66.48 -72.37 -80.43 -106.56 -150.10 -178.69 -188.27 -191.84 -193.82 -195.31 -197.04 -199.71 -204.03 -209.37 -212.49 -211.24 -207.45 -204.09 -202.55 -203.40 -205.49 -206.14 -205.16 -204.53 -205.34 -206.96 -209.50 -212.73 -216.03 -219.13 -222.24 -224.49 -224.82 -224.40 -223.97 -223.55 -223.94 -224.89 -226.19 -227.25 -226.69 -225.01 -224.67 -225.07 -223.54 -218.97 -212.38 -206.54 -202.38 -200.09 -202.33 -208.68 -215.46 -220.55 -221.48 -211.09 -191.17 -178.88 -175.99 -174.91 -174.30 -174.65
704.59 693.16 665.73 635.63 622.09 621.31 616.81 602.29 578.37 544.21 509.06 492.03 491.12 486.84 470.61 448.16 431.24 429.70 440.71 445.63 433.87 413.17 392.11 376.51 373.32 397.08 441.83 468.37 473.36 474.85 476.87 476.98 477.48 482.19 491.09 506.24 527.51 547.66 564.97 577.26 577.74 568.82 558.60 550.60 546.21 545.44 544.19 539.66 533.95 528.77 507.85 422.63 283.26 195.62 170.65 161.13 152.59 144.60 138.15 135.22 135.00 132.69 123.35 103.79 60.60 1.92 -28.14 -31.11 -31.39 -35.04 -41.17 -48.75 -55.52 -60.02 -63.96 -67.56 -74.10 -100.85 -146.92 -177.39 -187.10 -190.54 -192.78 -195.41 -199.25 -203.52 -207.86 -211.45 -212.94 -211.10 -206.95 -202.96 -200.90 -201.42 -203.63 -204.82 -204.39 -203.84 -204.83 -207.46 -210.97 -214.73 -218.80 -223.38 -228.60 -232.20 -232.94 -232.45 -231.44 -230.19 -229.75 -230.80 -232.73 -234.38 -234.75 -233.40 -232.08 -230.93 -228.21 -223.23 -217.28 -212.50 -209.01 -207.03 -209.30 -215.25 -221.97 -227.79 -229.18 -216.79 -192.99 -178.29 -174.00 -171.58 -170.46 -170.82
644.54 632.89 604.78 574.05 562.36 568.18 573.85 569.47 553.61 524.34 492.26 474.42 466.85 452.77 428.62 403.49 390.12 396.33 412.73 417.56 403.13 378.77 354.16 336.28 335.48 377.83 454.74 498.80 502.32 497.79 496.40 496.87 500.80 509.81 522.73 541.16 562.25 578.60 591.13 600.67 602.85 597.41 589.17 582.41 580.64 582.47 581.11 572.97 562.32 553.80 530.61 438.59 286.97 190.02 161.39 151.91 144.07 135.08 126.86 123.28 124.01 123.81 116.30 97.43 54.65 -3.19 -31.38 -32.07 -30.10 -31.54 -36.06 -42.87 -50.00 -54.20 -56.42 -58.89 -66.71 -98.57 -152.41 -187.84 -198.87 -202.58 -205.74 -209.92 -214.63 -218.44 -221.62 -223.51 -223.43 -221.32 -217.35 -212.97 -210.20 -209.54 -210.62 -211.57 -211.53 -211.57 -213.31 -216.96 -221.43 -225.95 -231.65 -242.04 -256.95 -267.09 -270.20 -270.50 -269.50 -267.84 -266.11 -265.90 -267.39 -269.14 -269.97 -268.91 -267.06 -264.66 -260.64 -255.35 -250.21 -245.92 -242.66 -241.82 -244.75 -250.31 -256.88 -262.68 -262.27 -241.38 -202.90 -178.74 -172.12 -169.76 -168.76 -168.98
547.51 536.87 510.87 481.48 470.18 477.92 489.83 495.00 488.28 465.75 439.98 424.40 411.66 390.32 361.54 335.49 325.87 339.37 359.83 363.33 345.24 315.83 287.00 267.05 270.28 342.59 471.88 546.06 551.95 542.36 537.18 537.37 543.90 556.57 573.20 593.80 613.68 626.13 631.54 632.60 632.50 630.03 624.60 620.17 620.57 623.74 622.33 612.40 598.95 588.70 564.00 463.57 295.86 187.33 154.62 143.83 135.23 125.75 116.84 111.85 111.08 111.03 105.18 88.65 48.75 -7.04 -34.57 -34.62 -30.72 -29.45 -31.31 -35.89 -41.93 -45.90 -47.88 -50.97 -62.10 -101.64 -165.98 -207.82 -220.88 -225.31 -228.94 -233.62 -238.21 -241.01 -242.34 -242.67 -242.46 -241.05 -237.19 -231.82 -227.55 -225.23 -224.98 -225.93 -226.70 -227.49 -230.17 -234.96 -240.21 -245.10 -252.65 -272.32 -303.39 -324.26 -330.85 -332.13 -331.01 -328.48 -326.09 -325.14 -326.00 -327.49 -328.25 -327.37 -325.39 -322.18 -317.48 -312.37 -307.70 -303.47 -300.17 -299.89 -302.79 -307.85 -314.10 -319.25 -315.59 -280.73 -218.55 -179.65 -170.16 -168.71 -168.73 -169.35
481.43 472.86 450.80 424.04 412.95 419.73 432.44 442.00 442.50 429.34 411.63 398.84 384.62 363.05 336.63 313.53 307.61 324.64 347.15 350.61 330.55 297.08 262.50 237.49 239.61 326.77 484.53 574.82 581.92 569.78 562.32 560.98 567.08 581.00 599.81 621.11 640.26 651.38 651.54 643.64 638.81 637.86 635.97 635.66 638.24 641.37 639.72 629.86 616.94 607.93 583.56 479.45 304.26 190.78 155.97 142.93 132.46 122.69 113.59 106.23 101.93 99.80 94.64 80.67 43.26 -12.09 -41.00 -40.97 -34.48 -29.70 -28.37 -30.62 -34.95 -38.73 -41.90 -46.63 -60.43 -104.69 -175.08 -220.67 -235.06 -239.95 -243.26 -246.65 -249.86 -251.68 -251.54 -251.08 -251.78 -251.47 -247.66 -241.82 -236.85 -233.75 -232.97 -234.12 -235.44 -236.83 -240.12 -245.28 -250.30 -254.52 -262.72 -288.47 -329.82 -357.01 -365.34 -367.09 -366.17 -363.66 -361.40 -360.04 -360.07 -361.12 -361.82 -361.17 -359.09 -355.87 -352.08 -347.63 -342.84 -338.73 -335.75 -335.49 -337.58 -341.39 -346.62 -350.79 -344.69 -301.08 -225.34 -179.10 -168.83 -167.87 -168.05 -168.56
454.02 446.82 428.68 406.89 397.57 402.47 412.37 420.80 424.06 418.67 408.37 399.62 390.42 377.44 360.20 343.08 338.92 353.44 373.37 376.84 357.87 323.44 283.02 248.64 243.11 329.39 490.49 582.28 589.86 578.41 570.28 566.13 568.53 580.29 598.67 619.85 638.65 648.90 645.27 631.40 622.77 622.55 624.08 627.66 631.96 634.48 632.88 624.85 614.62 607.94 584.70 481.42 307.66 196.18 162.28 148.84 137.77 128.21 119.21 109.64 100.93 94.45 88.69 76.89 39.74 -18.25 -49.91 -49.85 -40.51 -31.88 -27.02 -27.08 -30.01 -34.04 -39.12 -45.71 -60.65 -106.03 -177.60 -223.88 -238.25 -242.72 -245.39 -247.24 -248.46 -249.18 -248.99 -248.71 -249.42 -249.22 -245.99 -241.13 -236.66 -234.02 -233.92 -235.21 -236.50 -238.30 -241.38 -245.23 -249.26 -252.91 -261.03 -288.95 -333.36 -361.38 -369.03 -370.76 -370.78 -369.46 -367.81 -366.00 -365.00 -365.25 -365.87 -365.96 -364.58 -362.29 -360.23 -356.78 -351.90 -348.15 -345.90 -345.54 -346.45 -348.21 -351.76 -354.92 -347.47 -301.24 -222.84 -176.23 -166.60 -164.91 -163.19 -162.62
438.64 432.60 417.89 400.83 393.96 398.12 405.02 409.55 410.96 408.50 403.44 400.10 398.60 395.54 388.37 379.28 377.77 387.90 400.05 399.79 381.58 346.51 302.02 260.23 247.84 330.99 491.13 583.46 594.52 586.81 578.65 570.48 567.01 573.98 589.94 609.75 626.27 633.32 626.44 610.84 601.66 601.69 604.43 609.05 613.82 617.30 618.25 613.68 606.20 600.28 577.01 475.01 304.84 197.64 166.77 154.92 144.73 136.44 128.48 118.57 107.49 97.55 90.35 77.94 37.33 -25.13 -58.56 -58.31 -47.30 -35.70 -27.86 -25.83 -27.79 -32.54 -39.13 -46.92 -62.85 -108.69 -179.58 -224.79 -238.36 -242.24 -244.18 -244.85 -244.74 -244.70 -244.76 -244.41 -243.91 -242.94 -240.76 -237.54 -233.83 -231.96 -232.48 -233.62 -235.09 -237.45 -240.19 -242.64 -246.06 -249.70 -257.91 -286.77 -332.07 -359.60 -365.93 -367.02 -367.46 -367.08 -366.47 -365.04 -363.55 -363.07 -363.62 -364.38 -364.03 -363.14 -362.69 -360.50 -355.95 -352.48 -351.03 -350.67 -350.19 -349.54 -350.79 -352.58 -344.22 -297.12 -218.18 -171.66 -162.11 -159.42 -156.39 -155.46
424.96 420.49 409.10 395.43 390.42 394.89 400.71 402.87 402.01 399.33 396.70 397.56 401.62 404.83 404.57 402.20 403.06 408.69 412.08 405.05 384.00 348.15 304.16 262.29 248.88 330.80 491.43 587.06 603.51 599.54 590.14 577.27 568.15 570.23 582.88 598.94 610.55 612.94 604.24 590.17 582.54 582.61 584.50 587.90 593.68 600.51 605.42 604.75 599.51 592.20 566.25 463.23 295.41 192.84 166.30 157.07 148.74 142.21 135.24 126.22 116.15 106.06 96.96 80.84 34.77 -31.55 -64.73 -63.60 -52.05 -38.89 -29.49 -26.48 -28.53 -34.19 -41.65 -50.00 -66.64 -112.74 -182.45 -226.23 -239.70 -244.12 -245.73 -245.29 -244.10 -242.88 -242.09 -241.16 -239.48 -237.29 -235.28 -233.23 -231.06 -230.57 -231.28 -232.06 -233.86 -236.90 -239.95 -242.43 -245.95 -249.49 -257.60 -286.77 -332.30 -359.60 -365.19 -365.45 -365.88 -366.13 -366.17 -365.21 -363.58 -362.88 -363.52 -364.37 -364.81 -365.41 -366.35 -365.38 -361.24 -357.40 -356.15 -355.82 -354.17 -351.55 -350.21 -349.83 -340.06 -292.10 -212.63 -165.79 -155.58 -152.24 -149.19 -148.44
415.20 411.25 401.52 390.43 386.65 390.82 396.21 397.99 396.67 393.73 392.23 395.70 402.84 408.55 411.03 411.73 413.05 414.58 411.51 398.21 373.34 339.65 301.92 264.83 253.13 334.68 496.36 595.11 614.33 610.17 597.48 581.40 569.44 567.80 575.89 586.23 592.62 591.74 583.10 572.09 566.81 567.34 568.37 570.65 578.35 589.42 597.91 600.56 597.35 588.39 558.57 452.39 283.95 183.99 161.50 155.15 148.37 142.65 136.87 129.92 121.65 111.31 99.65 80.03 30.76 -36.56 -68.23 -65.69 -53.76 -40.33 -31.08 -28.93 -32.25 -38.52 -46.39 -55.14 -71.86 -117.94 -187.06 -230.04 -244.01 -249.65 -251.60 -250.64 -248.40 -245.26 -242.32 -239.91 -237.15 -233.91 -231.67 -230.49 -230.10 -230.89 -231.80 -232.51 -234.65 -238.45 -242.57 -245.74 -249.25 -253.03 -261.43 -290.37 -335.08 -361.84 -367.42 -367.55 -368.10 -368.58 -368.32 -367.21 -365.50 -364.84 -365.60 -366.83 -368.17 -369.54 -370.70 -369.58 -365.38 -361.73 -361.09 -361.07 -358.80 -354.80 -351.01 -348.13 -336.58 -287.60 -207.75 -160.84 -150.42 -147.16 -144.25 -143.21
412.74 408.66 398.89 388.27 384.59 387.84 391.82 392.67 391.37 389.35 389.67 395.20 403.25 408.48 410.58 411.48 412.48 412.10 405.49 388.75 363.91 336.67 307.85 276.21 265.19 344.46 504.33 601.90 619.04 611.26 595.53 578.92 566.88 562.74 565.42 569.65 571.92 570.46 564.33 557.08 554.06 554.25 554.08 556.24 566.12 580.58 592.23 598.31 597.87 589.05 556.91 447.95 276.79 175.50 154.00 149.49 143.44 137.68 133.56 128.76 120.97 109.32 95.47 74.36 25.59 -39.85 -69.76 -66.05 -54.19 -42.46 -35.97 -36.23 -40.35 -45.89 -53.20 -62.17 -79.22 -125.63 -194.84 -237.40 -251.22 -257.45 -259.94 -258.84 -255.81 -251.41 -246.32 -241.77 -237.79 -233.97 -231.79 -231.64 -233.04 -234.66 -235.02 -234.80 -236.66 -241.14 -246.47 -250.28 -254.03 -258.65 -267.84 -296.16 -339.48 -365.55 -371.36 -371.84 -372.32 -372.47 -371.75 -370.64 -369.21 -368.48 -369.04 -370.79 -372.68 -373.86 -374.11 -372.03 -368.09 -365.76 -366.29 -366.93 -364.61 -359.74 -354.16 -349.15 -335.76 -285.55 -205.36 -158.86 -149.15 -146.55 -144.46 -144.12
414.25 410.44 400.45 388.89 384.41 386.50 388.76 388.74 387.64 386.74 388.96 396.13 403.68 406.08 405.18 404.56 405.37 404.72 396.87 380.02 359.40 340.46 319.25 291.51 280.98 356.00 508.41 599.45 612.53 602.32 586.51 572.03 562.92 559.23 557.65 555.87 554.15 552.85 549.80 545.98 544.43 542.84 540.39 542.40 553.51 570.05 584.93 594.85 597.68 590.16 557.34 447.17 273.78 169.08 145.06 140.65 135.72 130.36 127.10 123.36 115.57 103.66 90.14 70.16 23.66 -39.88 -69.73 -66.69 -56.68 -49.38 -47.88 -49.57 -51.53 -54.81 -61.60 -71.18 -88.55 -135.12 -204.44 -246.40 -258.99 -264.95 -267.95 -266.83 -263.72 -259.42 -253.60 -247.68 -242.33 -237.71 -235.44 -235.88 -238.42 -240.63 -240.24 -238.76 -239.39 -243.24 -248.46 -252.72 -257.21 -262.34 -272.02 -300.01 -342.65 -368.50 -374.85 -376.21 -376.99 -377.02 -375.86 -374.47 -373.44 -373.10 -373.52 -375.03 -376.42 -376.80 -376.47 -374.51 -371.55 -370.24 -370.80 -371.11 -369.04 -364.59 -358.64 -352.27 -337.60 -286.77 -206.20 -159.78 -150.79 -149.28 -148.85 -149.79
415.26 411.72 402.10 390.42 384.96 385.57 387.14 387.83 387.40 386.64 389.33 397.12 403.95 403.47 398.71 395.79 396.08 394.61 385.49 369.26 352.38 339.46 324.14 299.98 289.95 360.50 504.48 589.49 601.86 594.05 581.84 571.32 566.10 563.86 559.44 552.83 547.47 544.39 541.33 539.31 539.03 535.86 530.57 530.16 539.66 557.69 576.73 589.77 594.05 587.28 555.37 446.41 273.12 166.02 138.30 132.11 127.69 122.83 119.68 117.03 110.17 99.31 88.40 71.83 27.69 -36.62 -70.06 -70.37 -63.63 -60.81 -62.37 -62.50 -60.90 -62.57 -69.72 -80.11 -97.67 -144.21 -213.42 -254.60 -265.55 -270.27 -273.03 -272.04 -269.43 -265.75 -260.30 -254.30 -248.54 -243.81 -241.69 -241.99 -244.18 -246.15 -245.17 -242.83 -242.13 -244.47 -248.52 -252.57 -256.83 -261.29 -270.90 -299.50 -342.76 -369.14 -376.53 -379.08 -380.68 -381.01 -379.49 -377.63 -376.90 -377.19 -377.47 -378.21 -378.36 -377.51 -377.24 -376.73 -375.41 -374.82 -374.69 -373.39 -370.61 -366.88 -361.82 -355.38 -340.74 -290.33 -209.48 -162.51 -153.96 -154.05 -155.36 -157.11
418.50 414.85 404.83 392.19 385.44 385.05 386.63 387.86 387.86 387.46 390.30 397.60 403.18 400.84 393.61 388.63 387.09 383.29 372.66 356.22 338.99 326.52 315.14 295.76 285.97 354.25 497.38 584.39 600.76 597.36 589.21 581.46 576.78 572.77 566.00 558.22 552.05 546.05 538.92 535.41 536.36 533.31 524.82 519.16 524.22 542.67 565.83 581.01 585.01 578.32 548.55 443.18 272.78 165.64 135.37 127.00 121.81 116.98 113.79 111.74 106.61 98.39 90.57 76.86 33.76 -33.95 -73.96 -79.24 -74.83 -73.36 -74.65 -72.36 -68.78 -70.14 -77.04 -87.02 -104.80 -151.76 -221.18 -262.07 -271.52 -273.73 -274.89 -274.24 -272.74 -269.75 -264.57 -258.86 -253.88 -250.47 -249.33 -249.38 -250.32 -251.00 -248.79 -245.27 -243.56 -245.15 -248.52 -252.27 -255.67 -258.86 -267.75 -297.04 -341.72 -369.07 -377.27 -380.45 -382.52 -382.99 -381.92 -380.87 -380.75 -381.03 -380.76 -380.59 -379.69 -377.94 -377.60 -378.23 -378.46 -378.62 -378.18 -376.01 -372.34 -368.02 -363.29 -358.06 -345.03 -295.62 -214.83 -167.10 -158.45 -159.66 -161.84 -163.66
433.34 429.34 417.78 403.08 394.89 393.68 394.95 395.69 395.65 396.49 400.26 406.82 411.49 408.93 401.16 394.60 389.59 381.63 369.01 351.60 331.83 315.94 304.96 289.50 281.08 349.30 494.72 586.67 606.10 603.04 595.10 587.00 579.95 572.48 564.74 559.66 555.84 547.21 534.01 526.05 526.88 525.81 516.96 507.21 507.28 523.39 546.77 562.51 565.72 559.02 532.48 433.27 268.92 164.23 133.41 124.03 118.28 114.01 110.73 107.76 104.10 99.58 94.87 82.74 38.12 -35.93 -83.70 -94.21 -91.92 -90.52 -90.95 -87.88 -83.37 -83.73 -89.41 -98.07 -115.29 -160.72 -227.89 -267.42 -275.06 -273.74 -272.52 -272.81 -273.67 -272.51 -268.22 -263.05 -259.09 -257.10 -256.88 -256.85 -256.61 -255.62 -251.76 -246.75 -244.52 -246.73 -251.01 -255.11 -257.62 -259.53 -267.67 -298.08 -345.68 -374.69 -382.98 -386.24 -388.50 -389.09 -388.74 -388.68 -388.96 -389.03 -388.61 -388.11 -387.05 -385.34 -384.48 -384.92 -385.85 -386.32 -385.44 -383.24 -379.95 -375.21 -370.17 -366.32 -354.95 -305.40 -222.82 -173.18 -163.71 -164.69 -166.35 -167.65
482.79 477.64 464.94 450.22 441.77 438.97 438.55 438.52 439.10 441.49 446.34 452.71 458.04 458.02 451.84 444.15 435.65 424.13 409.95 391.16 367.82 346.07 331.24 317.96 313.85 375.06 499.61 577.57 590.67 582.46 570.87 560.43 551.61 543.70 538.17 537.30 535.48 524.41 507.28 496.77 497.00 498.33 492.13 481.00 477.25 488.74 507.44 521.28 524.41 519.37 498.02 409.15 256.86 158.15 128.11 119.19 115.51 113.93 111.36 107.34 104.43 103.33 101.93 90.20 38.60 -49.50 -108.60 -125.68 -127.33 -127.38 -127.83 -125.11 -120.11 -118.73 -122.51 -129.45 -143.92 -181.32 -236.30 -268.04 -272.24 -268.06 -265.56 -267.38 -271.21 -273.52 -272.14 -268.57 -265.70 -264.28 -263.86 -263.38 -262.42 -260.27 -255.16 -249.11 -247.04 -250.45 -255.80 -260.12 -262.16 -263.57 -272.18 -307.86 -365.47 -400.34 -409.46 -412.64 -414.85 -415.49 -415.10 -414.89 -415.22 -415.36 -415.30 -415.15 -414.39 -413.14 -412.17 -412.12 -413.03 -413.14 -411.72 -409.87 -407.65 -403.64 -399.02 -396.03 -384.62 -329.63 -236.39 -179.70 -167.95 -168.10 -169.15 -170.06
560.29 553.97 541.48 528.45 520.67 516.12 513.40 512.77 514.14 517.31 522.47 529.14 536.60 540.72 537.03 528.68 518.13 505.53 491.60 472.88 447.20 421.11 402.64 390.90 391.21 433.96 510.90 553.09 551.01 535.05 518.51 505.73 497.99 495.15 496.01 498.49 495.62 482.02 464.98 456.73 457.33 458.89 453.86 442.07 435.42 441.19 452.02 460.58 464.08 463.49 449.28 373.23 236.94 146.29 117.58 110.48 111.85 115.44 115.99 113.10 110.56 110.73 110.61 96.79 33.77 -73.65 -146.27 -169.78 -175.72 -178.13 -179.13 -177.00 -172.62 -170.53 -172.63 -177.75 -187.92 -212.17 -246.37 -263.59 -262.48 -257.69 -256.72 -260.80 -267.10 -272.41 -274.31 -273.15 -271.65 -270.49 -269.31 -268.24 -267.36 -264.99 -259.34 -253.25 -251.90 -256.08 -261.39 -265.09 -267.22 -269.21 -279.58 -324.58 -398.61 -443.28 -454.01 -456.62 -457.99 -458.00 -457.14 -456.55 -456.88 -457.10 -457.49 -457.87 -457.68 -457.25 -456.61 -456.03 -456.02 -455.49 -454.50 -453.59 -452.00 -449.22 -446.05 -443.56 -430.24 -364.72 -253.43 -185.58 -170.78 -170.17 -170.69 -171.10
604.64 599.00 588.20 576.79 569.31 563.82 559.84 558.75 559.95 562.64 567.04 573.80 582.99 589.80 588.01 579.94 568.78 555.88 542.65 526.36 504.49 482.34 464.93 453.34 454.10 481.96 524.49 539.26 525.24 503.92 484.30 470.93 466.33 470.61 478.83 483.04 477.61 462.64 447.25 441.25 441.11 440.09 433.58 420.59 410.51 410.14 413.10 415.35 417.62 420.42 411.87 344.40 217.61 131.44 103.48 98.66 105.75 115.89 122.07 122.85 121.03 119.82 117.18 99.17 28.19 -89.69 -168.24 -194.08 -202.64 -207.00 -208.20 -206.10 -202.64 -201.06 -202.69 -206.78 -213.74 -228.91 -248.74 -254.99 -250.40 -247.22 -248.88 -254.85 -262.76 -269.67 -273.49 -274.44 -274.66 -274.14 -272.54 -271.55 -271.38 -269.03 -263.38 -258.24 -257.90 -262.26 -266.78 -269.74 -272.03 -274.61 -286.05 -336.36 -420.04 -470.63 -481.91 -483.58 -484.23 -483.31 -481.61 -480.49 -480.58 -481.02 -481.99 -482.82 -483.32 -484.05 -483.89 -482.56 -481.07 -479.95 -479.89 -479.78 -478.39 -476.52 -474.92 -473.20 -458.04 -385.31 -263.21 -189.04 -172.71 -171.25 -170.63 -170.35
606.80 603.32 595.55 586.32 579.62 574.64 570.76 568.92 569.07 571.00 574.75 581.15 590.68 598.84 599.35 593.28 582.63 568.55 554.41 541.90 530.30 519.87 508.11 495.13 489.92 505.82 532.83 536.50 517.98 495.00 475.46 464.31 464.27 474.13 486.78 491.48 484.34 469.20 455.04 449.62 447.80 443.30 434.23 419.84 407.47 403.34 402.17 400.52 399.59 400.28 391.07 324.52 199.74 115.55 89.27 87.14 98.24 113.28 124.45 129.44 129.57 127.42 121.36 99.26 24.83 -94.74 -172.02 -195.81 -203.86 -208.46 -209.43 -207.08 -203.86 -202.49 -204.06 -207.55 -212.96 -224.83 -240.27 -244.16 -240.89 -240.69 -244.07 -250.15 -257.97 -265.13 -269.40 -271.43 -273.31 -274.11 -273.34 -273.34 -273.99 -272.08 -267.50 -263.89 -264.03 -267.55 -270.96 -273.11 -274.67 -276.80 -288.36 -339.64 -425.41 -477.70 -488.94 -489.63 -489.55 -488.03 -485.47 -483.33 -483.15 -484.59 -486.61 -487.80 -488.68 -490.35 -490.85 -488.97 -486.47 -484.95 -485.01 -485.26 -484.35 -482.79 -481.85 -480.97 -465.38 -390.75 -266.18 -190.95 -174.58 -172.76 -171.77 -171.52
598.90 596.60 590.83 583.71 578.78 575.23 571.73 569.31 568.80 570.37 573.73 579.01 587.76 597.26 600.50 596.74 587.93 574.19 559.25 550.11 548.09 547.69 541.37 527.65 515.33 518.96 535.11 533.60 514.10 491.91 475.14 468.55 473.39 486.47 500.45 505.16 497.18 481.32 467.65 462.69 459.17 451.14 439.21 424.11 413.03 410.44 410.26 407.17 401.72 396.01 380.24 309.09 184.12 102.70 78.98 77.50 88.26 104.68 119.26 128.36 131.92 131.36 124.30 100.15 24.41 -94.47 -168.96 -189.14 -194.29 -197.20 -197.92 -196.15 -193.60 -192.74 -194.31 -196.66 -200.68 -211.33 -227.04 -234.28 -235.48 -238.42 -242.57 -247.32 -252.95 -258.35 -261.60 -263.89 -267.44 -270.45 -271.80 -273.37 -275.01 -274.43 -271.74 -269.62 -269.47 -271.29 -273.45 -274.74 -274.99 -275.78 -286.98 -338.59 -424.88 -477.73 -488.69 -488.04 -486.63 -484.97 -482.75 -480.64 -480.66 -482.99 -485.96 -487.73 -488.90 -490.80 -491.51 -489.97 -488.15 -486.58 -485.85 -486.06 -485.68 -484.21 -483.34 -482.91 -467.38 -392.26 -267.32 -192.39 -176.70 -175.52 -174.89 -174.61
594.62 592.68 586.93 580.05 576.06 573.61 570.93 568.92 568.43 569.78 572.59 576.61 584.44 594.85 599.76 597.22 590.36 579.76 567.47 560.79 562.36 565.50 561.10 546.58 529.70 525.11 533.72 529.16 510.40 490.96 478.46 476.64 484.03 497.20 511.10 516.99 509.80 493.65 480.46 475.46 469.31 457.50 443.13 428.99 422.09 424.52 427.49 423.45 413.72 402.19 380.67 305.55 180.02 100.28 76.75 71.50 77.06 90.67 106.48 120.01 128.61 131.59 125.99 102.26 27.19 -89.82 -161.95 -179.69 -182.51 -183.71 -184.02 -182.85 -181.53 -182.01 -184.07 -185.67 -188.68 -199.46 -217.52 -229.31 -234.15 -238.32 -242.22 -245.70 -248.61 -250.77 -252.19 -254.89 -260.50 -266.27 -269.94 -272.86 -275.28 -275.58 -274.00 -272.90 -272.68 -272.92 -273.51 -274.15 -273.86 -273.38 -283.95 -336.14 -422.97 -475.52 -485.47 -483.75 -481.58 -480.00 -478.78 -478.10 -478.66 -481.06 -484.60 -487.07 -488.30 -489.86 -490.69 -490.59 -490.44 -488.88 -486.87 -486.34 -486.33 -485.74 -485.30 -484.78 -468.93 -393.21 -268.06 -193.18 -177.99 -177.93 -177.92 -177.29
593.42 591.55 585.13 577.52 573.27 571.13 569.31 568.28 568.25 569.31 571.57 575.04 582.44 593.07 598.47 596.49 590.99 583.72 575.73 571.51 573.14 575.64 570.42 554.96 537.11 530.30 535.00 528.05 509.91 493.97 486.79 489.70 498.73 510.20 522.27 528.92 523.30 508.07 494.89 487.37 476.73 461.21 445.66 434.61 433.22 439.99 443.81 437.54 425.47 413.01 391.49 316.42 190.20 109.33 82.95 71.41 69.21 76.77 90.60 107.18 120.95 127.77 124.60 103.09 30.39 -84.10 -154.80 -172.35 -175.15 -175.79 -175.34 -173.72 -172.96 -175.09 -178.28 -179.82 -182.41 -194.68 -216.11 -231.40 -237.74 -241.07 -243.56 -245.60 -246.19 -245.99 -246.95 -250.46 -256.89 -263.78 -268.67 -272.48 -275.48 -275.82 -274.16 -273.08 -272.91 -272.34 -271.50 -271.29 -270.62 -269.63 -280.17 -332.92 -419.83 -471.54 -480.81 -479.05 -477.25 -476.35 -476.17 -476.98 -478.02 -479.88 -483.15 -485.72 -487.08 -488.69 -489.95 -491.19 -492.15 -490.64 -487.98 -486.75 -486.88 -487.38 -487.58 -486.70 -470.45 -393.89 -268.17 -193.31 -178.25 -179.07 -180.45 -180.33
