1115.46 1084.09 1004.91 904.61 831.00 790.40 769.98 764.22 767.73 772.46 775.05 775.70 767.36 746.49 723.83 704.71 687.49 674.67 670.80 675.88 686.96 695.39 693.90 684.01 638.90 447.20 127.54 -68.38 -114.31 -121.64 -127.50 -134.09 -139.06 -140.03 -138.13 -137.97 -141.44 -157.97 -219.31 -316.17 -374.00 -387.06 -390.42 -394.18 -399.19 -404.97 -409.67 -413.90 -416.61 -417.32 -424.45 -461.06 -523.01 -560.29 -567.69 -567.98 -569.54 -571.98 -573.70 -575.13 -576.24 -576.67 -579.00 -602.74 -705.72 -874.19 -976.16 -999.25 -1003.49 -1010.55 -1021.52 -1035.04 -1052.36 -1071.20 -1087.92 -1107.47 -1130.25 -1151.12 -1168.46 -1182.51 -1193.40 -1198.61 -1199.88 -1201.52 -1202.33 -1199.13 -1194.23 -1195.88 -1216.87 -1263.26 -1325.10 -1385.31 -1443.04 -1522.29 -1655.54 -1843.05 -2027.59 -2154.04 -2237.16 -2301.67 -2345.88 -2381.84 -2454.64 -2651.62 -2943.41 -3129.37 -3194.48 -3226.04 -3251.50 -3273.11 -3288.65 -3299.08 -3306.90 -3312.80 -3318.81 -3334.82 -3384.20 -3464.44 -3526.62 -3562.12 -3588.98 -3612.35 -3637.65 -3665.28 -3686.67 -3701.64 -3717.95 -3732.94 -3669.26 -3299.58 -2676.78 -2308.97 -2246.77 -2263.45 -2277.14 -2280.95
1166.38 1138.58 1063.21 961.45 884.94 843.35 824.41 822.89 831.16 837.88 839.25 835.68 821.65 796.59 772.13 752.43 735.43 724.13 724.14 735.18 749.53 756.27 751.44 739.35 693.08 497.94 172.61 -27.36 -75.69 -85.03 -91.82 -98.17 -103.14 -105.48 -106.39 -109.99 -116.64 -135.28 -201.30 -305.47 -366.96 -379.66 -382.06 -385.93 -391.20 -395.98 -398.72 -401.59 -403.08 -402.47 -409.31 -446.20 -507.82 -544.98 -553.89 -555.72 -557.43 -559.36 -561.03 -562.62 -563.48 -563.86 -566.21 -589.17 -688.76 -851.66 -949.78 -971.32 -973.99 -977.08 -981.75 -988.96 -999.86 -1012.59 -1026.09 -1044.11 -1067.15 -1089.84 -1108.56 -1122.35 -1131.20 -1135.64 -1139.17 -1142.83 -1144.96 -1143.88 -1139.13 -1135.27 -1141.80 -1166.05 -1206.12 -1256.06 -1316.07 -1403.11 -1548.21 -1750.49 -1952.45 -2101.84 -2207.33 -2284.40 -2334.88 -2374.36 -2449.12 -2649.38 -2944.67 -3132.45 -3200.43 -3237.06 -3264.01 -3282.00 -3292.94 -3300.34 -3306.31 -3312.07 -3319.14 -3335.88 -3385.87 -3465.61 -3525.09 -3556.08 -3577.17 -3594.95 -3613.47 -3632.91 -3649.29 -3663.15 -3678.62 -3692.16 -3628.33 -3261.22 -2640.87 -2272.80 -2209.74 -2226.50 -2241.59 -2246.83
1381.80 1357.29 1283.82 1177.18 1096.72 1056.97 1044.05 1049.24 1060.50 1064.96 1061.22 1051.52 1031.14 1002.64 979.24 962.26 946.63 935.58 936.66 950.74 967.41 973.85 967.59 954.74 905.26 693.31 339.65 121.99 68.47 56.61 47.74 40.20 34.52 30.76 27.72 22.47 14.32 -8.85 -93.84 -230.51 -311.94 -328.67 -331.08 -334.71 -339.15 -342.26 -343.12 -343.45 -342.42 -340.60 -347.64 -385.57 -447.96 -485.86 -496.49 -499.69 -501.67 -503.24 -504.46 -505.80 -506.75 -507.60 -509.88 -528.85 -611.91 -748.89 -831.66 -849.29 -850.85 -852.19 -853.66 -856.93 -863.08 -871.52 -883.43 -899.32 -919.54 -944.67 -970.61 -987.87 -995.24 -998.88 -1003.11 -1007.00 -1008.53 -1007.23 -1003.00 -998.69 -999.15 -1012.53 -1055.84 -1131.47 -1211.79 -1307.67 -1458.65 -1667.63 -1885.09 -2060.48 -2188.49 -2274.51 -2329.30 -2374.53 -2453.25 -2651.56 -2939.86 -3126.26 -3198.17 -3237.60 -3263.39 -3277.52 -3284.82 -3289.64 -3293.91 -3299.88 -3308.19 -3326.46 -3381.09 -3466.61 -3526.64 -3553.36 -3569.40 -3584.33 -3600.41 -3615.12 -3626.59 -3637.49 -3650.32 -3660.35 -3595.08 -3229.53 -2610.25 -2240.77 -2175.88 -2192.22 -2208.48 -2214.86
1747.01 1718.60 1640.90 1534.31 1452.95 1411.02 1400.01 1408.77 1420.10 1420.58 1410.20 1393.88 1369.60 1340.33 1318.70 1304.06 1290.19 1280.83 1282.99 1297.41 1314.42 1322.11 1317.76 1306.31 1251.92 1011.79 610.09 361.95 299.48 285.35 275.46 266.93 260.50 256.19 253.17 249.04 241.42 211.78 95.33 -94.97 -210.53 -236.82 -241.66 -245.05 -247.53 -248.51 -247.92 -246.37 -243.11 -240.79 -248.65 -287.92 -351.82 -391.30 -403.00 -406.73 -409.04 -410.29 -410.88 -411.93 -413.26 -414.45 -415.73 -428.10 -485.15 -580.00 -637.25 -648.72 -649.26 -650.17 -650.94 -652.24 -655.03 -660.11 -669.29 -681.58 -698.40 -728.01 -766.45 -792.51 -802.60 -806.49 -808.49 -808.95 -807.11 -802.78 -798.36 -796.83 -799.66 -818.84 -897.32 -1036.20 -1150.97 -1246.46 -1385.63 -1576.66 -1781.55 -1965.28 -2120.36 -2233.43 -2307.83 -2368.93 -2460.80 -2658.47 -2933.06 -3114.09 -3189.23 -3228.59 -3250.78 -3261.82 -3267.59 -3271.23 -3274.04 -3279.01 -3287.39 -3307.72 -3370.19 -3467.13 -3531.17 -3555.10 -3567.57 -3580.00 -3593.72 -3605.27 -3613.26 -3621.00 -3631.11 -3637.52 -3567.95 -3199.90 -2580.72 -2212.48 -2148.58 -2165.26 -2179.97 -2184.86
2016.74 1982.49 1896.00 1785.08 1698.39 1644.97 1624.80 1630.24 1639.96 1637.94 1623.65 1603.71 1579.43 1551.97 1530.94 1515.34 1501.19 1492.65 1495.22 1508.72 1525.13 1534.53 1532.82 1523.19 1465.68 1207.61 775.79 507.88 439.00 424.29 415.88 408.99 403.25 399.04 396.92 394.53 387.74 353.85 217.53 -5.80 -142.93 -177.21 -185.21 -188.85 -189.77 -189.00 -187.36 -184.91 -180.85 -178.69 -187.35 -227.87 -293.77 -335.16 -347.30 -350.68 -352.52 -353.33 -353.75 -354.49 -355.44 -356.44 -357.38 -366.15 -407.92 -477.41 -518.68 -526.32 -526.41 -527.19 -528.26 -529.31 -530.41 -532.55 -537.65 -545.44 -559.02 -590.53 -636.21 -668.64 -681.80 -686.30 -686.52 -683.14 -677.81 -672.59 -668.98 -668.60 -673.27 -698.88 -804.15 -985.73 -1120.11 -1204.69 -1317.08 -1469.32 -1630.00 -1793.93 -1968.04 -2118.04 -2232.68 -2334.70 -2459.92 -2667.54 -2936.49 -3114.57 -3190.64 -3229.71 -3250.92 -3261.74 -3267.64 -3270.69 -3272.43 -3275.66 -3282.64 -3302.53 -3368.13 -3471.95 -3539.29 -3562.62 -3573.37 -3582.63 -3592.00 -3599.58 -3605.05 -3611.05 -3619.55 -3623.80 -3549.85 -3176.72 -2555.19 -2187.66 -2125.08 -2141.76 -2154.54 -2158.10
2182.35 2141.90 2038.40 1905.76 1802.00 1733.47 1701.49 1701.29 1708.32 1706.02 1691.75 1670.62 1645.17 1615.89 1592.14 1573.42 1556.60 1545.53 1546.41 1559.49 1576.87 1588.45 1588.51 1579.30 1519.87 1256.26 816.07 541.90 471.38 458.73 453.93 449.59 444.36 439.70 437.66 436.25 429.96 394.07 251.48 19.40 -123.85 -161.46 -170.84 -174.66 -174.61 -172.59 -170.73 -168.41 -164.10 -161.29 -169.78 -211.60 -279.79 -322.75 -334.91 -337.59 -338.23 -338.31 -338.75 -339.16 -339.60 -340.71 -342.35 -350.92 -389.43 -452.93 -490.44 -497.92 -498.64 -499.48 -500.84 -502.22 -502.70 -502.78 -504.48 -508.56 -518.88 -548.11 -593.72 -626.94 -640.41 -645.37 -645.64 -641.33 -635.80 -631.86 -629.21 -628.71 -632.93 -659.50 -770.94 -960.18 -1092.20 -1157.57 -1233.97 -1340.97 -1458.87 -1603.39 -1785.82 -1961.26 -2121.39 -2284.27 -2455.05 -2678.81 -2950.36 -3128.52 -3203.44 -3242.01 -3265.23 -3278.36 -3284.85 -3287.29 -3288.52 -3290.66 -3295.73 -3313.66 -3378.01 -3482.51 -3551.02 -3574.62 -3584.50 -3591.09 -3596.55 -3600.73 -3604.23 -3608.95 -3615.67 -3617.83 -3541.22 -3164.48 -2539.59 -2169.96 -2105.51 -2120.27 -2132.62 -2136.63
2304.96 2261.64 2143.34 1983.73 1859.58 1784.68 1753.98 1753.90 1755.74 1750.41 1736.13 1713.19 1679.95 1640.02 1609.77 1588.97 1570.91 1557.65 1555.84 1568.17 1587.62 1601.58 1603.32 1594.51 1533.51 1267.17 823.38 546.28 476.02 465.89 464.19 461.00 454.72 448.72 445.88 445.05 439.76 402.47 256.76 22.06 -123.14 -161.21 -169.56 -172.05 -170.20 -166.87 -165.26 -163.80 -159.70 -156.24 -164.40 -206.94 -276.42 -320.09 -331.89 -333.65 -333.20 -332.89 -333.45 -333.99 -334.78 -336.66 -339.17 -348.34 -386.66 -449.09 -486.24 -494.46 -495.70 -496.56 -497.93 -499.47 -500.25 -500.06 -500.39 -502.60 -510.16 -535.54 -578.01 -609.09 -621.41 -626.47 -627.23 -623.89 -619.84 -616.95 -614.86 -614.81 -619.03 -645.84 -757.54 -943.25 -1066.07 -1114.42 -1159.17 -1225.52 -1312.37 -1441.69 -1625.51 -1824.22 -2028.00 -2245.19 -2450.38 -2687.20 -2964.56 -3145.25 -3219.90 -3256.89 -3281.01 -3296.42 -3304.07 -3306.59 -3307.36 -3308.46 -3311.82 -3329.08 -3393.05 -3496.72 -3564.63 -3587.82 -3597.85 -3604.15 -3608.33 -3610.34 -3611.29 -3613.48 -3617.65 -3617.31 -3538.47 -3159.60 -2532.47 -2160.51 -2092.83 -2104.46 -2116.04 -2120.26
2363.13 2323.54 2205.84 2036.17 1904.08 1834.13 1815.05 1820.31 1816.24 1800.79 1779.75 1751.11 1706.83 1655.21 1620.27 1600.24 1583.57 1569.94 1564.77 1574.18 1594.40 1610.75 1614.90 1607.57 1545.95 1276.82 829.35 550.21 480.16 470.37 468.77 464.85 456.45 448.15 444.04 443.46 438.84 400.36 252.72 17.14 -128.27 -164.90 -170.54 -170.47 -166.48 -161.61 -159.18 -157.96 -155.01 -152.59 -161.39 -204.21 -273.89 -317.71 -329.18 -329.75 -327.95 -327.36 -328.27 -329.65 -331.75 -334.63 -337.83 -347.46 -385.80 -447.55 -484.55 -493.18 -494.40 -495.11 -496.21 -497.77 -499.48 -500.48 -500.93 -502.36 -508.26 -530.90 -570.48 -599.46 -610.68 -614.39 -613.89 -610.99 -608.56 -607.02 -605.56 -605.57 -610.10 -637.94 -749.87 -932.11 -1047.77 -1086.77 -1115.37 -1158.47 -1225.78 -1340.36 -1515.52 -1723.56 -1955.91 -2211.06 -2441.92 -2691.15 -2976.00 -3160.47 -3234.30 -3268.66 -3292.85 -3310.37 -3319.62 -3322.44 -3323.03 -3323.59 -3326.11 -3343.55 -3408.12 -3511.49 -3578.51 -3601.15 -3611.58 -3618.70 -3622.95 -3623.45 -3621.58 -3620.49 -3622.02 -3619.62 -3538.82 -3158.42 -2529.71 -2155.40 -2084.45 -2092.87 -2102.87 -2106.89
2348.81 2313.22 2211.62 2066.78 1951.82 1892.54 1881.34 1889.41 1882.09 1856.85 1823.17 1780.80 1725.36 1669.71 1636.04 1617.30 1599.62 1583.31 1575.21 1582.95 1603.23 1620.94 1627.60 1622.06 1559.73 1287.64 837.59 557.97 487.19 475.21 470.87 464.41 453.29 442.20 436.46 435.29 429.79 391.06 244.49 10.12 -134.06 -168.52 -171.35 -168.86 -163.15 -156.37 -151.81 -150.38 -149.55 -149.43 -159.53 -202.61 -272.13 -316.02 -327.33 -326.69 -323.45 -322.27 -323.47 -325.88 -329.34 -332.79 -336.00 -345.78 -384.62 -446.46 -483.35 -491.95 -493.48 -494.79 -495.59 -496.67 -498.69 -500.51 -501.32 -502.33 -507.62 -529.38 -567.82 -595.80 -605.67 -606.69 -603.98 -601.33 -600.30 -599.77 -598.80 -598.47 -602.47 -630.67 -742.48 -922.76 -1034.65 -1069.09 -1091.21 -1125.06 -1181.69 -1281.75 -1435.06 -1623.43 -1856.47 -2141.99 -2413.79 -2686.65 -2980.50 -3167.90 -3240.62 -3274.48 -3300.28 -3320.04 -3330.68 -3333.92 -3334.86 -3335.92 -3339.14 -3357.09 -3422.01 -3525.92 -3593.39 -3615.80 -3625.28 -3631.69 -3634.99 -3634.38 -3631.33 -3628.13 -3627.33 -3623.32 -3541.33 -3159.70 -2528.76 -2151.36 -2077.65 -2084.01 -2092.58 -2096.19
2295.81 2264.52 2184.91 2080.46 1998.43 1954.48 1944.48 1948.49 1940.67 1914.07 1869.83 1809.71 1743.86 1689.40 1658.37 1637.55 1614.43 1592.74 1584.29 1595.03 1616.39 1634.14 1642.07 1637.08 1572.59 1297.31 846.52 567.77 495.85 480.38 471.89 461.61 447.12 433.34 425.76 423.03 416.44 379.40 236.29 4.16 -138.73 -171.51 -172.17 -167.74 -160.60 -151.62 -144.45 -142.34 -143.37 -146.28 -158.65 -201.99 -270.76 -314.11 -324.53 -322.68 -318.91 -317.47 -318.60 -321.48 -325.45 -329.14 -332.52 -342.83 -382.56 -445.19 -482.36 -491.05 -493.22 -495.30 -495.97 -496.39 -498.01 -499.66 -500.60 -501.27 -506.00 -527.93 -566.42 -593.52 -601.69 -600.57 -597.09 -595.53 -595.47 -594.89 -593.93 -593.28 -596.14 -623.22 -733.78 -912.87 -1023.71 -1056.38 -1074.46 -1100.84 -1145.68 -1227.54 -1354.30 -1517.62 -1741.29 -2046.74 -2364.58 -2668.66 -2971.92 -3161.94 -3236.60 -3274.80 -3304.52 -3326.36 -3338.29 -3343.00 -3345.10 -3347.23 -3351.81 -3370.05 -3434.66 -3539.15 -3607.85 -3630.05 -3637.44 -3641.52 -3643.07 -3641.55 -3638.18 -3634.25 -3632.14 -3626.95 -3544.13 -3161.33 -2528.27 -2148.60 -2073.30 -2078.36 -2085.83 -2088.76
2246.39 2221.60 2160.03 2082.52 2026.75 2000.43 1992.72 1990.99 1982.35 1956.95 1908.99 1841.13 1769.90 1713.58 1678.58 1651.46 1623.30 1599.83 1595.39 1611.59 1633.54 1649.47 1655.80 1648.24 1579.87 1302.10 852.17 574.86 502.61 484.95 473.19 459.28 441.27 425.24 415.91 410.74 403.76 369.29 229.30 -0.51 -141.85 -173.59 -173.08 -167.23 -158.60 -147.58 -138.21 -134.59 -135.99 -141.68 -156.72 -200.37 -268.07 -309.99 -318.89 -316.33 -313.12 -312.29 -313.33 -315.82 -319.54 -323.57 -327.56 -338.65 -378.88 -442.26 -480.38 -489.80 -492.52 -494.95 -495.77 -496.04 -497.48 -498.79 -499.43 -499.92 -504.49 -526.85 -565.18 -590.51 -596.70 -594.82 -592.08 -591.76 -592.33 -591.71 -590.54 -589.43 -591.39 -617.07 -726.21 -904.54 -1015.34 -1046.87 -1060.66 -1078.37 -1108.67 -1168.65 -1273.10 -1423.82 -1637.11 -1936.84 -2280.04 -2623.06 -2948.30 -3146.38 -3225.67 -3268.94 -3303.11 -3327.64 -3341.59 -3348.84 -3352.87 -3355.96 -3361.31 -3380.08 -3445.22 -3550.66 -3619.70 -3640.57 -3645.81 -3647.75 -3647.43 -3644.69 -3641.14 -3637.93 -3635.87 -3629.41 -3545.45 -3161.87 -2527.92 -2147.52 -2071.41 -2075.18 -2081.75 -2084.01
2214.83 2196.07 2144.16 2075.29 2031.40 2018.30 2016.39 2014.47 2006.11 1982.68 1939.06 1875.36 1801.30 1735.18 1688.14 1652.79 1624.29 1607.29 1611.02 1630.86 1649.86 1659.92 1661.13 1649.09 1577.49 1299.70 852.57 577.87 506.97 488.92 475.30 459.73 440.54 423.97 412.97 404.69 396.78 364.01 225.97 -1.73 -141.21 -172.62 -172.36 -166.30 -156.77 -144.63 -134.05 -129.08 -130.10 -136.92 -153.06 -196.95 -264.15 -305.07 -313.52 -311.75 -309.29 -308.44 -309.09 -311.30 -314.77 -318.90 -323.17 -334.39 -374.19 -438.02 -477.44 -487.85 -491.10 -493.69 -494.71 -495.05 -496.49 -497.96 -498.29 -498.72 -503.86 -526.42 -563.74 -587.16 -592.08 -590.62 -589.02 -589.01 -589.53 -589.39 -588.50 -587.31 -589.03 -614.04 -722.35 -899.85 -1009.78 -1039.35 -1049.30 -1061.25 -1082.03 -1125.00 -1209.44 -1344.67 -1541.04 -1813.67 -2147.30 -2530.36 -2903.95 -3124.50 -3210.25 -3256.52 -3293.86 -3321.95 -3339.60 -3349.82 -3355.68 -3359.60 -3365.66 -3385.95 -3452.73 -3558.95 -3626.86 -3645.84 -3650.19 -3651.48 -3650.02 -3646.54 -3643.31 -3641.34 -3639.56 -3631.50 -3546.12 -3161.84 -2527.45 -2147.13 -2071.07 -2074.34 -2080.49 -2082.52
2186.18 2169.54 2120.35 2053.20 2013.58 2007.37 2011.60 2014.50 2011.53 1996.83 1963.91 1905.95 1826.21 1746.15 1686.42 1645.49 1620.59 1614.16 1625.60 1643.68 1654.86 1655.90 1649.76 1633.03 1560.39 1286.22 845.53 576.37 508.81 490.87 475.62 460.55 444.25 429.89 417.71 406.20 396.53 365.06 229.70 4.86 -132.52 -164.29 -166.28 -161.98 -152.91 -140.91 -130.77 -126.20 -127.09 -133.08 -148.30 -192.56 -260.95 -302.96 -312.77 -312.58 -310.18 -307.77 -307.24 -309.41 -312.93 -316.62 -320.23 -330.48 -369.36 -433.02 -473.16 -484.23 -487.89 -490.56 -491.92 -492.89 -494.74 -496.53 -496.56 -496.74 -502.55 -525.34 -561.52 -583.61 -588.37 -588.04 -587.33 -587.14 -587.40 -587.82 -587.54 -586.80 -588.66 -613.45 -721.17 -897.80 -1006.31 -1033.57 -1040.44 -1048.99 -1064.94 -1096.07 -1160.43 -1275.87 -1451.39 -1687.88 -1990.88 -2395.48 -2826.33 -3087.53 -3187.74 -3238.57 -3278.70 -3310.42 -3332.65 -3346.33 -3354.32 -3359.62 -3366.40 -3387.67 -3455.33 -3561.12 -3627.85 -3646.67 -3651.90 -3653.66 -3652.24 -3649.16 -3646.44 -3644.69 -3642.63 -3633.54 -3547.12 -3162.22 -2527.59 -2147.53 -2071.44 -2074.53 -2080.62 -2082.52
2092.26 2073.58 2023.70 1958.70 1917.71 1910.79 1920.57 1931.94 1939.28 1937.89 1917.00 1863.11 1778.51 1689.64 1624.75 1584.48 1564.70 1564.92 1576.61 1585.73 1586.26 1578.85 1565.47 1544.26 1474.71 1219.64 809.97 561.47 500.63 483.38 468.13 456.13 444.70 432.82 420.10 406.75 395.63 366.70 241.69 32.09 -95.85 -126.67 -131.71 -130.48 -124.03 -114.86 -107.62 -105.13 -106.15 -110.10 -123.52 -171.50 -248.47 -296.97 -310.28 -311.79 -308.86 -304.27 -302.02 -303.52 -306.83 -310.15 -312.94 -321.65 -358.16 -419.05 -457.81 -468.57 -472.05 -474.76 -476.43 -478.10 -480.41 -482.06 -481.91 -482.22 -489.16 -515.09 -555.53 -579.89 -585.39 -585.79 -585.49 -585.55 -586.33 -587.32 -587.35 -586.85 -588.62 -612.64 -719.39 -895.17 -1002.40 -1027.99 -1032.86 -1038.49 -1049.89 -1071.83 -1118.83 -1211.28 -1356.87 -1557.40 -1838.13 -2249.87 -2721.92 -3027.98 -3152.12 -3212.33 -3258.04 -3294.56 -3321.96 -3340.31 -3351.23 -3358.39 -3365.85 -3386.67 -3453.78 -3558.48 -3624.33 -3644.00 -3650.45 -3652.76 -3652.08 -3650.29 -3648.17 -3646.15 -3643.94 -3634.94 -3548.28 -3163.02 -2528.52 -2148.66 -2071.83 -2074.36 -2080.68 -2082.65
1738.89 1720.45 1670.45 1602.67 1554.99 1545.66 1563.36 1586.85 1605.46 1614.48 1602.78 1556.04 1477.20 1390.90 1327.92 1292.69 1275.68 1271.41 1270.65 1264.85 1255.43 1242.69 1225.16 1202.49 1149.70 970.53 685.08 513.35 470.69 455.37 441.93 433.36 425.31 414.77 402.70 390.29 379.99 359.67 271.74 121.44 29.39 6.15 -0.01 -1.53 0.79 4.15 6.22 6.30 5.03 2.63 -12.65 -80.37 -192.91 -264.60 -284.79 -287.41 -283.94 -278.49 -275.11 -275.37 -277.87 -280.87 -283.41 -289.97 -318.54 -367.43 -398.81 -407.36 -410.17 -412.99 -414.87 -416.31 -418.05 -419.19 -419.31 -420.49 -430.77 -471.01 -535.17 -573.75 -582.47 -583.01 -582.61 -583.20 -584.62 -585.49 -585.26 -584.95 -586.81 -609.81 -714.89 -888.76 -994.36 -1018.90 -1022.72 -1026.24 -1033.91 -1049.49 -1081.69 -1146.64 -1257.15 -1428.04 -1697.10 -2118.98 -2622.79 -2961.49 -3106.40 -3178.83 -3232.43 -3274.36 -3307.24 -3331.90 -3347.57 -3357.00 -3364.90 -3384.43 -3449.91 -3553.17 -3617.91 -3637.41 -3643.97 -3646.71 -3647.45 -3647.60 -3646.63 -3645.05 -3643.42 -3635.30 -3549.11 -3163.88 -2529.42 -2149.46 -2072.65 -2075.52 -2081.90 -2083.59
1161.27 1144.17 1093.84 1022.27 974.72 972.23 1000.36 1033.70 1058.43 1071.89 1067.88 1035.50 975.06 901.73 842.49 808.23 786.09 766.21 744.59 723.66 707.64 691.90 673.01 653.18 629.30 572.71 488.55 439.92 425.17 412.57 400.19 392.48 384.98 375.25 365.66 357.47 351.97 346.14 315.70 259.69 225.23 215.48 210.45 207.37 205.77 203.17 199.82 197.06 194.98 192.91 171.35 69.43 -101.37 -209.43 -238.43 -241.59 -238.26 -233.39 -229.79 -228.98 -230.37 -233.16 -235.93 -239.88 -256.06 -284.90 -303.69 -308.68 -310.67 -313.51 -315.46 -315.83 -316.29 -317.28 -317.95 -319.76 -334.97 -398.39 -501.46 -564.02 -578.43 -579.68 -579.72 -580.52 -581.54 -581.70 -581.21 -581.10 -583.16 -605.82 -709.07 -879.58 -982.88 -1006.70 -1010.11 -1012.54 -1017.77 -1029.06 -1051.63 -1096.85 -1179.59 -1325.10 -1581.50 -2013.68 -2541.67 -2896.01 -3050.60 -3136.45 -3202.15 -3250.25 -3286.78 -3316.83 -3338.53 -3351.62 -3360.79 -3379.72 -3443.60 -3545.08 -3608.62 -3627.53 -3633.89 -3637.30 -3639.97 -3642.13 -3642.80 -3642.40 -3641.67 -3634.69 -3549.22 -3163.92 -2529.45 -2149.87 -2074.56 -2078.70 -2084.55 -2085.47
795.97 775.76 722.08 652.44 613.64 622.69 658.46 694.67 719.24 733.38 737.18 724.19 689.28 634.57 578.55 537.25 502.50 464.27 424.65 395.32 377.11 359.62 340.76 324.25 316.82 331.00 365.07 388.11 389.74 379.81 367.94 359.39 351.23 342.92 337.78 336.12 337.20 341.45 344.85 345.24 345.81 344.23 339.68 335.50 330.79 323.63 315.91 310.24 307.51 305.76 279.97 156.73 -48.88 -177.29 -210.33 -214.28 -212.13 -208.27 -204.86 -203.60 -204.50 -207.34 -210.58 -213.42 -222.08 -237.98 -248.55 -251.16 -252.15 -254.21 -256.11 -255.93 -255.63 -256.63 -257.25 -258.69 -276.56 -353.87 -480.40 -557.85 -575.86 -577.80 -578.61 -579.38 -579.70 -579.54 -578.94 -578.47 -580.46 -603.56 -705.96 -873.92 -975.52 -998.93 -1002.03 -1003.89 -1007.52 -1015.72 -1034.80 -1074.01 -1142.13 -1266.57 -1506.27 -1931.24 -2453.35 -2805.31 -2967.64 -3070.74 -3156.75 -3217.71 -3259.97 -3294.37 -3320.64 -3337.65 -3349.81 -3370.16 -3434.14 -3535.64 -3599.47 -3618.61 -3625.29 -3629.72 -3634.03 -3637.41 -3639.40 -3640.45 -3640.84 -3634.86 -3549.95 -3164.94 -2531.40 -2152.68 -2077.81 -2082.14 -2087.77 -2088.64
687.10 666.53 612.39 544.04 510.70 526.50 564.52 599.21 622.21 637.34 647.84 650.56 637.54 600.86 551.08 505.13 459.26 408.70 362.12 331.62 311.38 291.40 272.73 257.07 250.34 274.51 328.78 363.98 369.01 361.48 351.10 342.30 334.52 329.26 329.23 333.57 339.73 347.55 358.33 371.06 379.08 378.94 373.58 367.00 358.87 348.45 337.81 330.41 327.82 326.45 299.12 170.37 -42.43 -172.96 -204.77 -208.91 -208.30 -206.25 -203.95 -202.51 -202.91 -205.29 -208.71 -212.25 -219.48 -231.28 -238.74 -240.24 -240.47 -241.79 -243.98 -244.50 -244.28 -244.75 -244.75 -245.50 -263.62 -344.17 -476.16 -557.12 -575.63 -577.01 -577.57 -578.58 -579.07 -578.84 -578.26 -577.68 -579.49 -602.74 -705.19 -872.59 -973.69 -996.82 -999.41 -1000.85 -1003.39 -1009.01 -1026.08 -1063.44 -1125.34 -1233.90 -1444.36 -1834.45 -2336.03 -2691.61 -2867.10 -2984.93 -3091.07 -3170.11 -3223.12 -3264.57 -3295.60 -3316.24 -3331.96 -3355.51 -3422.29 -3526.48 -3592.15 -3612.26 -3619.83 -3625.52 -3631.13 -3635.54 -3638.91 -3641.15 -3642.02 -3636.64 -3552.95 -3169.39 -2536.96 -2158.39 -2082.21 -2085.60 -2091.88 -2093.73
641.36 624.42 573.68 504.75 470.09 483.59 518.33 551.65 577.14 596.18 611.39 621.23 617.35 590.23 549.86 512.01 471.23 423.24 378.75 345.27 316.42 289.80 269.25 253.58 245.79 266.95 317.77 351.39 357.61 353.15 345.30 336.59 328.94 326.88 332.11 341.14 349.98 358.34 368.76 381.13 388.34 387.51 380.57 370.65 359.48 347.23 335.11 327.74 326.34 325.46 296.99 166.69 -46.70 -175.43 -204.45 -207.40 -207.81 -208.14 -208.00 -207.03 -206.70 -207.75 -210.11 -213.89 -221.71 -233.00 -239.38 -240.55 -241.14 -242.39 -244.29 -245.22 -245.50 -245.85 -245.47 -245.78 -263.51 -344.39 -477.09 -558.04 -576.08 -576.54 -576.20 -577.22 -578.05 -577.83 -577.46 -577.33 -579.30 -602.47 -705.17 -873.10 -974.52 -997.54 -999.58 -1000.25 -1001.69 -1004.92 -1018.41 -1050.59 -1104.56 -1194.61 -1367.95 -1721.10 -2216.59 -2592.21 -2782.82 -2907.59 -3020.27 -3108.49 -3172.06 -3223.24 -3262.07 -3289.44 -3310.08 -3337.69 -3409.47 -3517.74 -3585.46 -3607.09 -3616.28 -3623.52 -3630.33 -3636.07 -3641.10 -3644.50 -3645.68 -3640.88 -3558.77 -3176.86 -2544.66 -2165.24 -2088.15 -2091.47 -2098.80 -2101.95
615.42 598.45 548.64 482.24 444.00 444.56 467.69 498.02 526.98 548.99 563.27 570.30 564.22 538.94 509.51 492.98 476.40 445.20 405.92 364.95 323.93 289.15 264.80 248.46 241.94 264.04 314.37 347.74 355.43 354.19 348.65 339.10 330.64 331.07 340.64 352.42 361.68 369.15 377.05 385.80 390.64 388.95 380.28 367.39 354.33 341.83 330.77 325.53 326.29 326.53 297.50 165.98 -48.06 -175.90 -202.69 -203.87 -204.85 -207.43 -209.68 -209.84 -209.07 -208.65 -209.38 -212.34 -220.78 -233.09 -240.15 -242.16 -243.64 -244.75 -245.29 -245.44 -246.12 -247.07 -247.12 -247.75 -265.07 -345.26 -477.72 -558.22 -575.98 -576.52 -575.97 -576.61 -577.27 -577.16 -576.77 -576.69 -578.79 -602.07 -705.03 -873.68 -975.61 -998.71 -1000.60 -1000.68 -1001.51 -1003.26 -1011.94 -1035.71 -1079.10 -1152.63 -1308.35 -1654.62 -2148.96 -2529.54 -2728.84 -2857.07 -2961.66 -3044.03 -3112.22 -3171.15 -3218.98 -3257.09 -3285.55 -3319.02 -3396.94 -3509.37 -3579.64 -3603.58 -3614.83 -3623.54 -3630.98 -3637.51 -3643.65 -3648.29 -3650.71 -3646.92 -3565.80 -3184.90 -2552.76 -2172.44 -2095.20 -2099.52 -2108.32 -2112.63
622.16 602.43 550.45 485.19 440.61 422.43 427.35 448.67 473.79 491.60 498.80 497.66 485.86 462.55 447.60 456.71 468.04 455.87 421.82 376.27 328.96 289.98 262.14 243.78 238.19 264.04 318.26 353.89 362.79 361.88 355.35 344.48 336.84 339.81 351.17 362.96 370.82 375.96 379.70 383.16 384.67 381.87 372.83 360.07 347.71 336.38 327.82 325.46 328.54 330.42 302.17 170.66 -43.73 -171.56 -197.53 -197.92 -199.66 -204.25 -208.37 -209.71 -209.33 -208.42 -208.17 -210.47 -219.31 -232.79 -241.02 -243.76 -245.46 -246.23 -245.44 -244.15 -244.62 -246.30 -247.02 -248.25 -265.84 -345.64 -477.62 -557.81 -575.62 -576.80 -576.73 -577.29 -577.77 -577.49 -576.73 -576.42 -578.16 -601.37 -704.28 -873.18 -975.63 -999.15 -1001.15 -1001.22 -1002.47 -1004.66 -1011.65 -1030.40 -1066.57 -1130.31 -1278.27 -1620.72 -2106.46 -2482.91 -2687.79 -2815.30 -2907.90 -2981.45 -3048.81 -3112.07 -3170.48 -3221.53 -3261.13 -3304.34 -3388.51 -3503.39 -3576.05 -3603.01 -3616.99 -3626.79 -3633.97 -3640.35 -3646.40 -3651.74 -3655.90 -3653.50 -3573.16 -3192.87 -2561.27 -2181.15 -2103.84 -2108.58 -2118.04 -2122.25
649.47 627.82 573.81 506.35 453.42 418.42 405.78 414.95 431.06 441.48 441.44 433.10 416.72 396.33 394.02 420.53 449.81 451.35 423.67 380.85 334.77 294.11 264.23 245.60 241.08 270.00 327.87 365.09 372.98 368.60 359.08 349.55 346.04 351.17 361.40 370.51 375.24 376.16 374.50 372.75 371.32 368.03 360.78 351.66 342.13 332.79 327.23 327.73 332.39 335.22 308.69 179.34 -34.31 -162.93 -189.75 -190.70 -193.22 -199.13 -204.45 -207.00 -207.81 -207.79 -208.02 -210.57 -219.71 -233.76 -242.47 -244.90 -245.83 -245.96 -244.49 -242.28 -242.39 -244.79 -246.15 -247.56 -265.60 -345.89 -477.99 -557.89 -575.34 -576.62 -576.87 -577.73 -578.49 -577.98 -577.26 -577.40 -579.02 -601.69 -703.77 -872.11 -974.61 -998.50 -1000.89 -1001.21 -1003.25 -1007.51 -1017.38 -1037.96 -1073.02 -1128.71 -1257.60 -1576.27 -2046.30 -2418.63 -2625.56 -2750.99 -2840.17 -2913.15 -2982.17 -3051.92 -3122.38 -3185.59 -3237.84 -3294.19 -3385.26 -3501.97 -3576.34 -3605.34 -3621.11 -3631.30 -3638.23 -3644.53 -3650.44 -3656.45 -3662.39 -3661.33 -3581.69 -3201.38 -2569.53 -2189.76 -2112.93 -2118.01 -2127.53 -2131.04
667.19 647.55 595.47 524.77 464.72 420.51 396.39 394.62 403.55 411.69 410.21 397.66 376.45 355.70 359.08 391.94 428.20 438.74 419.21 383.38 341.30 299.13 268.09 251.27 249.33 280.11 338.16 373.21 377.42 369.64 360.07 355.49 357.57 364.36 372.10 376.51 376.12 371.61 364.84 359.21 356.15 353.51 348.79 342.98 336.13 329.95 328.69 332.33 337.52 340.04 314.81 187.87 -24.69 -154.18 -182.32 -183.79 -186.00 -192.16 -198.57 -202.83 -205.74 -207.72 -208.95 -211.51 -220.40 -234.45 -243.27 -245.26 -245.14 -244.63 -243.16 -241.16 -241.43 -244.12 -245.77 -247.08 -265.06 -345.67 -477.88 -557.40 -574.67 -576.06 -576.15 -576.96 -578.19 -578.10 -577.93 -578.63 -580.59 -602.79 -704.05 -872.00 -974.39 -997.98 -1000.30 -1000.54 -1003.10 -1009.55 -1022.91 -1046.15 -1079.49 -1126.41 -1239.15 -1538.69 -1991.62 -2350.05 -2550.10 -2670.78 -2759.92 -2837.38 -2912.36 -2989.74 -3070.51 -3146.79 -3212.67 -3281.61 -3380.79 -3502.24 -3579.63 -3609.25 -3624.33 -3633.65 -3640.42 -3647.44 -3654.30 -3661.26 -3668.23 -3667.95 -3588.97 -3208.52 -2575.67 -2196.03 -2120.76 -2127.33 -2137.37 -2140.81
670.20 652.98 602.00 527.72 464.90 419.20 389.09 378.60 383.22 393.17 395.39 382.82 357.36 332.90 336.01 368.57 405.22 421.59 410.37 380.49 340.98 299.39 269.64 254.48 254.72 286.87 343.30 373.71 374.13 367.36 363.29 365.08 370.65 377.20 381.97 381.30 375.12 365.91 355.95 348.35 343.99 341.35 338.23 334.39 330.35 328.86 332.85 339.33 344.18 345.65 321.01 195.39 -16.65 -146.82 -176.56 -179.27 -181.44 -186.97 -193.53 -199.38 -204.70 -208.59 -210.03 -211.53 -219.51 -233.29 -242.03 -244.01 -243.75 -243.18 -242.29 -241.07 -241.42 -243.68 -245.19 -246.60 -264.45 -344.87 -476.55 -555.88 -574.17 -576.50 -576.47 -576.69 -577.68 -577.81 -577.83 -578.63 -581.23 -603.56 -704.43 -872.36 -974.77 -997.87 -999.79 -999.96 -1002.98 -1009.90 -1022.43 -1043.23 -1070.94 -1110.14 -1219.45 -1519.72 -1967.09 -2310.60 -2496.06 -2604.01 -2684.08 -2760.70 -2839.13 -2921.65 -3012.80 -3104.53 -3182.98 -3259.83 -3367.71 -3499.44 -3583.01 -3612.93 -3626.06 -3634.08 -3640.29 -3647.45 -3654.96 -3662.38 -3669.68 -3670.38 -3592.32 -3212.29 -2579.72 -2201.11 -2127.70 -2135.47 -2145.47 -2148.74
674.71 654.84 599.77 523.21 459.37 413.68 382.01 367.72 370.19 380.82 386.22 375.62 348.93 323.04 325.80 355.91 389.29 408.11 402.91 375.94 338.42 301.87 276.06 261.19 260.10 289.98 342.79 369.67 369.98 368.24 371.35 377.73 383.55 387.56 389.07 384.10 372.74 359.95 349.17 342.05 337.35 334.53 332.06 329.55 328.64 331.62 339.22 347.44 352.31 352.81 327.23 200.82 -11.35 -141.63 -172.56 -177.22 -180.92 -186.26 -192.08 -198.30 -204.41 -208.44 -209.33 -209.83 -216.67 -229.55 -237.99 -240.65 -241.61 -241.82 -241.37 -240.51 -240.46 -241.69 -242.64 -244.40 -262.62 -342.86 -474.18 -554.08 -573.21 -575.77 -575.90 -576.00 -576.39 -576.20 -576.02 -576.39 -578.97 -601.51 -702.29 -869.73 -971.62 -994.41 -996.28 -996.44 -999.17 -1004.37 -1012.69 -1027.96 -1050.60 -1086.65 -1194.84 -1493.80 -1936.51 -2270.90 -2445.58 -2546.36 -2619.37 -2689.44 -2766.34 -2854.07 -2955.94 -3061.08 -3148.33 -3227.26 -3343.31 -3490.08 -3582.21 -3612.72 -3623.85 -3630.60 -3636.29 -3642.94 -3650.08 -3657.43 -3665.30 -3667.53 -3590.63 -3211.74 -2581.18 -2204.02 -2131.05 -2138.61 -2148.31 -2151.45
738.40 714.42 654.83 576.42 509.33 461.42 431.71 420.16 423.38 432.21 436.02 426.37 402.87 381.97 388.48 418.76 450.11 468.72 466.17 442.55 409.51 378.88 356.16 340.23 331.59 339.11 359.80 369.50 369.08 371.51 378.75 386.95 391.84 393.00 390.69 382.20 368.27 354.48 344.80 339.38 335.24 332.02 328.99 326.42 326.95 332.24 341.48 350.97 356.99 357.14 329.57 203.08 -5.28 -132.44 -162.61 -167.76 -172.71 -178.50 -183.97 -189.22 -193.60 -195.80 -195.50 -195.64 -202.77 -216.77 -226.85 -231.53 -234.33 -235.20 -234.24 -232.65 -231.80 -231.85 -231.99 -234.10 -253.02 -331.76 -459.76 -538.04 -556.59 -558.44 -558.48 -558.62 -558.87 -558.93 -558.71 -558.37 -560.37 -582.08 -678.08 -836.48 -932.42 -953.89 -956.05 -956.18 -957.44 -959.76 -964.16 -974.62 -994.49 -1031.24 -1131.39 -1401.66 -1814.81 -2142.11 -2320.14 -2424.10 -2498.12 -2562.70 -2637.92 -2734.20 -2846.14 -2960.68 -3052.28 -3132.30 -3263.85 -3440.32 -3550.36 -3584.08 -3594.48 -3601.52 -3608.19 -3615.01 -3621.74 -3629.65 -3639.40 -3643.55 -3568.33 -3194.73 -2573.76 -2202.33 -2129.86 -2136.71 -2146.51 -2150.08
1023.26 997.62 936.70 858.74 791.98 744.50 717.44 709.10 713.23 718.77 718.79 710.89 698.12 693.87 711.55 745.73 777.23 795.14 794.13 776.34 750.95 725.29 703.94 685.21 653.97 572.33 451.16 377.35 359.83 361.89 370.53 379.35 383.30 382.30 376.51 365.54 352.38 341.07 332.34 326.28 320.99 316.33 312.07 308.47 308.38 313.78 323.52 334.23 342.31 343.34 317.39 204.84 22.28 -88.91 -115.23 -119.44 -124.10 -129.80 -134.84 -137.83 -138.70 -138.61 -137.82 -139.78 -153.08 -176.31 -192.50 -199.44 -202.97 -203.62 -201.69 -198.59 -196.15 -194.90 -194.77 -197.89 -216.02 -284.85 -395.13 -462.47 -478.56 -480.38 -480.56 -480.29 -480.13 -480.29 -480.11 -479.64 -481.29 -497.95 -569.92 -687.73 -758.48 -774.12 -775.92 -776.24 -776.44 -776.73 -779.10 -786.77 -804.47 -840.71 -922.54 -1124.67 -1449.58 -1738.44 -1920.20 -2034.30 -2117.81 -2185.15 -2261.94 -2368.32 -2493.72 -2614.64 -2706.98 -2797.80 -2982.48 -3249.38 -3416.51 -3464.49 -3477.67 -3487.67 -3497.48 -3506.21 -3513.71 -3522.66 -3534.65 -3541.66 -3472.89 -3123.20 -2541.66 -2194.11 -2126.28 -2132.69 -2142.42 -2146.40
1490.43 1464.32 1402.69 1327.15 1268.75 1229.95 1205.58 1195.08 1195.15 1196.64 1194.97 1191.94 1196.47 1216.95 1248.21 1284.08 1315.08 1333.81 1336.57 1326.40 1310.70 1292.23 1273.31 1250.66 1184.54 958.87 604.28 389.96 340.88 339.17 346.71 354.59 356.99 354.20 346.13 333.79 322.33 313.75 305.13 296.83 288.96 282.51 277.77 274.32 273.87 278.26 286.92 298.09 308.18 311.03 291.69 208.17 73.06 -10.13 -30.86 -34.83 -38.97 -44.07 -48.10 -48.18 -45.68 -44.12 -44.44 -50.72 -75.26 -114.20 -139.02 -146.51 -148.29 -147.56 -145.40 -142.25 -139.04 -137.03 -137.30 -141.64 -156.93 -207.74 -287.84 -336.97 -349.35 -351.52 -352.15 -351.82 -351.24 -350.91 -350.50 -350.21 -351.10 -358.22 -389.66 -441.13 -471.72 -478.46 -479.04 -478.98 -478.93 -478.79 -480.34 -485.58 -498.96 -530.17 -590.03 -709.66 -907.65 -1116.77 -1277.40 -1397.13 -1497.77 -1583.16 -1671.68 -1787.58 -1925.22 -2050.60 -2145.08 -2258.09 -2530.52 -2940.28 -3196.60 -3267.55 -3285.24 -3297.37 -3309.97 -3322.01 -3332.94 -3344.81 -3359.71 -3370.86 -3313.65 -3004.63 -2488.02 -2179.35 -2119.87 -2126.50 -2135.77 -2139.48
1769.55 1741.51 1676.07 1600.33 1550.61 1523.31 1503.81 1490.20 1483.25 1479.77 1476.91 1478.02 1494.88 1529.95 1564.59 1594.45 1621.88 1643.03 1652.93 1652.77 1647.91 1638.96 1624.91 1600.91 1513.43 1199.05 701.58 402.03 334.79 330.84 334.80 338.02 337.01 332.03 321.87 308.22 297.22 289.84 281.92 272.97 263.92 257.35 254.27 253.85 255.45 258.79 264.55 274.23 284.80 289.39 275.89 212.48 108.58 43.67 26.44 21.96 17.78 12.93 9.93 12.17 16.11 17.19 14.45 4.04 -27.92 -76.66 -105.91 -111.83 -111.01 -109.10 -107.46 -105.93 -103.66 -101.86 -103.02 -108.25 -121.29 -160.72 -222.40 -260.26 -270.43 -272.95 -273.57 -273.32 -272.86 -272.66 -272.61 -272.67 -272.69 -273.33 -279.63 -290.71 -297.30 -299.09 -299.14 -298.61 -298.65 -298.65 -299.36 -302.28 -309.90 -330.34 -369.72 -434.75 -543.39 -685.18 -816.68 -931.78 -1047.12 -1160.86 -1273.46 -1400.14 -1543.89 -1674.81 -1776.98 -1907.31 -2233.89 -2728.03 -3036.35 -3121.00 -3140.50 -3151.46 -3164.54 -3180.00 -3196.70 -3215.62 -3237.08 -3254.25 -3207.15 -2924.96 -2448.90 -2164.31 -2110.25 -2117.23 -2125.62 -2128.56
1842.70 1811.01 1737.65 1655.05 1606.07 1585.16 1571.48 1558.34 1547.31 1539.57 1534.19 1535.06 1555.12 1592.66 1622.05 1641.00 1661.19 1683.26 1699.93 1710.28 1715.99 1715.86 1708.31 1688.48 1599.17 1264.76 733.57 414.07 343.11 338.22 337.65 334.16 327.98 319.65 307.00 291.98 280.75 274.48 268.54 261.05 253.11 248.09 247.77 251.45 256.65 260.68 264.71 272.14 281.35 286.45 275.20 217.29 121.80 62.50 46.77 42.11 38.09 33.76 31.61 34.56 38.08 37.54 32.36 19.58 -14.76 -65.89 -95.16 -98.95 -96.68 -95.28 -94.44 -93.73 -92.78 -92.36 -94.91 -100.36 -111.87 -148.09 -205.63 -240.97 -250.91 -253.96 -254.56 -254.18 -253.93 -254.45 -255.65 -256.52 -256.26 -255.40 -255.89 -257.25 -257.86 -258.31 -258.60 -258.48 -258.88 -258.91 -258.87 -260.15 -263.44 -272.75 -293.14 -327.36 -387.08 -483.13 -592.31 -702.18 -827.76 -962.57 -1094.93 -1236.24 -1390.60 -1529.40 -1639.27 -1778.34 -2119.69 -2630.77 -2948.81 -3036.15 -3055.69 -3067.55 -3082.66 -3101.62 -3123.13 -3149.17 -3177.90 -3201.87 -3163.63 -2892.15 -2427.09 -2149.32 -2097.43 -2104.25 -2111.69 -2114.37
1871.06 1837.48 1757.81 1666.26 1613.61 1595.56 1586.32 1574.49 1561.80 1551.45 1543.83 1542.64 1562.34 1598.91 1621.13 1627.90 1637.57 1655.90 1674.64 1690.40 1703.60 1711.86 1713.07 1701.98 1619.83 1287.21 752.27 428.15 353.81 344.83 338.58 329.62 319.59 308.56 294.50 279.34 268.23 262.65 258.73 254.90 250.61 247.34 247.62 252.50 260.28 267.73 274.31 281.37 288.05 291.80 280.82 223.20 128.63 71.02 56.83 52.78 49.02 45.41 43.57 45.57 48.07 46.64 40.29 26.36 -8.96 -60.55 -89.25 -91.75 -88.84 -88.29 -88.20 -87.50 -87.52 -89.08 -92.85 -97.64 -107.81 -143.28 -200.59 -236.13 -246.30 -249.67 -250.92 -250.95 -250.79 -251.54 -253.21 -254.59 -254.72 -254.43 -254.74 -254.96 -254.88 -255.13 -255.37 -255.40 -255.74 -255.77 -255.53 -255.75 -256.84 -260.63 -269.34 -284.49 -311.48 -366.40 -449.84 -552.27 -677.97 -818.13 -965.95 -1128.36 -1295.41 -1439.49 -1553.42 -1695.26 -2037.05 -2547.72 -2869.52 -2962.36 -2985.72 -3001.82 -3020.60 -3043.93 -3069.51 -3098.23 -3129.15 -3159.19 -3131.66 -2868.38 -2406.79 -2131.29 -2080.78 -2087.30 -2093.68 -2095.87
1889.79 1859.22 1780.26 1683.29 1629.08 1616.21 1611.76 1599.54 1583.24 1569.73 1560.00 1556.62 1575.30 1610.73 1626.33 1621.56 1621.07 1633.51 1648.41 1660.98 1676.06 1692.07 1703.63 1702.49 1629.11 1302.93 769.02 441.06 360.94 345.23 332.49 319.51 308.06 296.44 282.67 268.56 257.96 253.02 251.83 253.34 254.23 252.19 250.11 252.61 261.03 273.05 285.16 294.00 298.84 300.68 289.07 230.93 136.02 78.78 65.52 62.06 58.40 54.71 52.28 52.71 54.30 53.08 47.13 33.19 -2.24 -53.71 -82.78 -86.14 -83.41 -82.66 -82.76 -82.32 -82.59 -84.92 -89.07 -93.33 -103.24 -138.99 -196.47 -232.50 -243.12 -246.65 -248.47 -249.06 -249.11 -250.14 -251.77 -252.92 -253.30 -253.61 -254.21 -254.55 -255.11 -255.94 -256.47 -256.33 -255.91 -255.70 -255.59 -255.13 -255.26 -257.93 -263.03 -269.88 -279.38 -302.06 -350.89 -433.15 -551.56 -697.98 -870.11 -1055.16 -1222.48 -1361.51 -1476.86 -1616.30 -1947.68 -2450.56 -2775.51 -2877.90 -2908.00 -2926.78 -2948.12 -2976.63 -3008.27 -3041.28 -3074.36 -3109.45 -3091.86 -2837.31 -2380.10 -2106.31 -2056.15 -2062.84 -2069.04 -2070.60
1902.43 1874.63 1798.19 1701.77 1652.12 1649.09 1652.85 1640.64 1616.87 1596.13 1582.09 1576.40 1593.47 1626.29 1636.32 1623.24 1614.78 1620.38 1629.02 1635.81 1648.73 1668.48 1686.87 1693.30 1628.38 1311.66 783.04 453.09 367.27 345.56 327.13 309.61 296.34 284.83 271.72 258.67 249.46 247.22 250.86 257.87 262.55 260.67 255.65 254.76 262.04 277.07 294.65 306.19 310.15 310.06 296.91 238.10 142.58 84.86 71.16 67.26 63.56 59.76 56.92 56.40 57.54 56.85 52.13 39.95 6.04 -44.92 -75.00 -80.66 -79.81 -79.47 -79.58 -79.35 -79.43 -81.47 -85.27 -89.32 -99.51 -135.06 -192.11 -228.95 -240.95 -244.72 -246.10 -246.52 -246.81 -248.11 -249.50 -250.49 -251.45 -252.44 -253.21 -253.75 -254.89 -255.92 -256.68 -256.78 -256.18 -256.06 -256.10 -255.36 -255.20 -257.30 -260.96 -264.84 -268.31 -275.26 -296.69 -350.87 -454.80 -611.71 -812.82 -1017.07 -1176.72 -1297.94 -1406.60 -1543.45 -1864.38 -2353.65 -2667.69 -2768.45 -2805.08 -2830.73 -2858.61 -2892.95 -2930.90 -2971.91 -3011.68 -3050.34 -3036.65 -2789.15 -2338.76 -2068.52 -2020.57 -2029.38 -2036.17 -2037.24
1900.69 1871.26 1796.82 1712.56 1678.80 1689.66 1703.09 1692.68 1661.15 1629.29 1607.10 1597.96 1611.36 1638.91 1645.67 1629.85 1615.36 1612.04 1613.42 1616.21 1626.97 1646.67 1666.78 1677.35 1619.82 1313.03 792.27 464.38 376.64 351.81 329.43 307.17 290.47 277.70 264.54 252.20 245.29 247.17 256.02 267.27 273.47 270.89 263.70 260.21 265.93 281.83 302.27 315.63 318.76 316.61 301.31 240.93 143.95 85.14 70.49 65.44 61.20 57.74 55.66 55.86 57.41 57.45 54.49 44.85 13.07 -37.17 -67.91 -75.51 -77.02 -78.23 -79.03 -79.22 -79.60 -81.50 -85.29 -89.87 -100.14 -134.43 -190.35 -227.39 -240.04 -243.35 -243.78 -243.97 -244.46 -245.51 -246.47 -247.71 -249.57 -251.24 -252.05 -252.90 -254.62 -255.71 -256.09 -256.37 -256.46 -256.63 -256.55 -255.82 -255.43 -256.40 -258.81 -261.26 -262.85 -265.23 -274.00 -305.97 -387.20 -538.40 -751.89 -966.30 -1122.34 -1232.17 -1334.66 -1471.00 -1787.06 -2264.03 -2561.60 -2652.92 -2692.84 -2727.18 -2762.45 -2800.23 -2842.50 -2891.69 -2940.13 -2980.99 -2963.86 -2717.69 -2274.96 -2013.14 -1972.22 -1985.93 -1994.53 -1995.61
1916.61 1882.34 1804.92 1730.63 1714.02 1736.38 1753.54 1743.57 1707.29 1665.39 1634.37 1620.45 1628.24 1649.36 1654.83 1641.27 1624.56 1612.88 1605.73 1603.15 1609.33 1625.29 1644.84 1658.62 1606.71 1306.81 793.01 470.46 385.16 360.66 337.34 312.03 291.56 276.33 262.17 249.91 244.28 248.74 261.61 276.93 284.90 281.82 273.27 268.48 273.72 289.48 308.78 320.80 322.32 317.96 300.58 238.60 140.03 79.46 63.59 57.87 52.81 49.51 49.31 51.73 54.09 54.60 53.13 45.37 14.89 -34.53 -64.90 -72.85 -75.50 -78.78 -81.41 -82.54 -83.46 -85.57 -89.87 -95.60 -106.00 -139.18 -193.87 -229.47 -240.56 -242.62 -242.48 -242.74 -243.23 -243.85 -244.58 -245.69 -247.41 -249.34 -250.71 -252.26 -254.44 -255.50 -255.38 -255.69 -256.36 -256.73 -256.61 -256.15 -255.49 -255.49 -257.17 -258.87 -259.51 -260.43 -264.05 -281.37 -337.50 -461.74 -655.66 -863.05 -1020.77 -1138.70 -1249.50 -1393.00 -1714.45 -2189.56 -2480.83 -2567.04 -2604.06 -2637.56 -2671.63 -2706.11 -2746.36 -2796.65 -2848.99 -2891.13 -2873.18 -2631.59 -2199.96 -1949.31 -1914.39 -1931.61 -1943.90 -1946.92
1958.19 1921.46 1841.20 1767.62 1756.19 1782.19 1798.21 1787.12 1747.81 1697.92 1659.90 1641.52 1642.77 1656.37 1659.90 1651.11 1638.10 1623.91 1610.66 1601.14 1599.14 1607.67 1623.89 1638.79 1589.22 1292.03 782.71 465.89 384.45 362.90 342.97 318.09 294.19 276.26 261.46 249.11 243.46 248.39 263.52 282.52 293.77 292.43 284.75 280.60 285.94 299.79 314.87 323.38 322.61 315.61 295.79 232.27 132.88 70.80 53.98 48.85 43.75 40.19 41.29 45.31 48.12 48.48 46.85 39.00 8.62 -39.75 -68.57 -75.42 -78.47 -83.83 -88.64 -90.83 -91.68 -93.33 -97.47 -103.10 -113.09 -145.78 -199.68 -233.81 -242.86 -243.69 -243.12 -242.88 -242.59 -242.98 -244.12 -245.29 -246.69 -248.77 -250.90 -252.88 -254.68 -255.14 -254.70 -255.08 -255.80 -256.06 -255.98 -256.06 -255.49 -254.98 -256.27 -257.66 -257.75 -257.87 -259.65 -269.11 -304.59 -394.38 -549.51 -730.10 -883.36 -1018.31 -1152.03 -1316.01 -1652.34 -2130.46 -2419.03 -2501.27 -2531.09 -2555.50 -2581.72 -2611.16 -2645.75 -2689.12 -2738.62 -2783.94 -2774.88 -2544.70 -2125.00 -1884.34 -1853.63 -1871.96 -1886.14 -1890.65
1995.13 1964.08 1889.51 1811.25 1792.03 1816.40 1834.10 1823.11 1779.80 1720.90 1674.16 1649.63 1644.02 1650.56 1651.41 1646.04 1639.06 1629.06 1616.14 1602.66 1593.18 1592.42 1601.26 1613.20 1563.37 1267.56 762.76 451.57 373.49 354.54 338.19 315.55 289.76 270.14 256.58 246.36 242.53 248.34 264.06 284.30 298.61 301.21 296.97 295.19 300.35 310.51 320.57 325.32 321.92 311.86 289.07 223.88 124.34 62.64 47.16 43.89 39.13 34.16 34.01 37.73 40.32 39.82 36.50 26.70 -4.42 -51.56 -78.21 -83.47 -86.61 -92.62 -98.00 -100.52 -100.87 -101.55 -104.64 -108.74 -117.87 -150.92 -205.11 -238.80 -246.44 -246.19 -244.96 -244.15 -243.35 -243.55 -245.21 -246.95 -248.37 -250.16 -252.15 -253.82 -254.87 -254.68 -253.97 -254.19 -254.63 -254.94 -255.26 -255.78 -255.30 -254.71 -255.79 -257.17 -257.46 -257.50 -258.95 -265.11 -285.76 -344.05 -460.28 -611.91 -762.98 -920.64 -1082.98 -1266.21 -1606.00 -2076.43 -2355.99 -2429.90 -2450.05 -2464.06 -2482.43 -2507.92 -2537.30 -2575.71 -2624.96 -2676.95 -2677.36 -2452.60 -2038.62 -1806.91 -1785.25 -1808.61 -1823.00 -1826.89
2005.75 1977.01 1899.94 1807.12 1772.11 1790.51 1809.59 1798.28 1749.65 1680.01 1620.47 1584.55 1569.86 1570.86 1569.17 1563.91 1561.19 1557.89 1549.95 1537.34 1523.84 1514.75 1515.16 1521.80 1473.79 1194.75 718.80 425.35 350.82 332.46 317.18 296.72 272.69 254.48 244.68 239.91 241.00 248.97 263.95 282.40 297.79 304.86 305.30 306.46 311.08 317.12 322.03 322.52 316.13 303.52 278.99 214.43 117.89 60.03 47.56 45.25 39.79 32.77 29.58 31.12 32.69 31.49 27.46 16.27 -16.35 -63.69 -89.26 -93.25 -95.54 -100.33 -104.70 -107.27 -108.09 -108.29 -109.83 -112.35 -121.03 -154.76 -209.43 -243.14 -250.36 -249.68 -248.27 -247.56 -247.00 -246.93 -248.31 -249.97 -251.25 -252.58 -253.78 -254.62 -254.86 -253.94 -252.72 -252.61 -253.03 -253.99 -255.08 -255.53 -254.82 -254.24 -255.86 -261.39 -268.72 -272.64 -274.55 -279.06 -291.93 -331.92 -423.95 -562.91 -725.82 -904.75 -1079.78 -1258.75 -1571.26 -2004.58 -2258.65 -2318.08 -2328.18 -2333.67 -2344.69 -2366.06 -2391.54 -2424.65 -2472.20 -2529.65 -2536.77 -2322.23 -1924.99 -1707.61 -1699.54 -1734.07 -1752.01 -1755.75
1823.88 1785.42 1689.33 1577.23 1525.92 1533.55 1546.92 1530.62 1476.23 1398.64 1326.84 1275.21 1245.51 1236.39 1229.73 1221.77 1219.04 1218.67 1214.78 1205.37 1192.10 1179.57 1174.84 1177.74 1143.79 939.97 588.08 368.25 308.60 290.35 274.36 256.27 238.92 227.27 222.92 224.16 230.70 241.14 254.31 268.92 283.45 293.42 297.35 300.74 304.69 306.67 306.27 302.64 294.13 280.81 257.13 198.33 112.23 62.69 52.64 48.70 41.41 33.51 28.81 27.88 27.60 26.74 24.08 12.40 -23.08 -73.54 -100.49 -104.26 -105.14 -107.99 -111.21 -113.86 -115.15 -115.03 -115.19 -116.26 -124.48 -158.28 -212.19 -245.12 -252.59 -252.59 -251.65 -251.11 -250.90 -250.61 -251.00 -252.03 -253.46 -254.69 -255.16 -255.30 -254.92 -253.47 -251.61 -250.98 -251.45 -252.86 -254.57 -255.14 -254.25 -253.60 -258.90 -283.35 -322.37 -345.59 -351.66 -355.57 -367.02 -406.05 -496.93 -640.00 -815.44 -996.74 -1158.63 -1305.38 -1537.24 -1853.06 -2032.00 -2065.78 -2066.67 -2066.46 -2070.55 -2085.29 -2104.73 -2126.99 -2164.65 -2220.48 -2237.66 -2072.92 -1758.44 -1592.71 -1602.99 -1649.10 -1672.93 -1677.58
1436.28 1389.15 1276.39 1149.22 1086.14 1081.10 1079.53 1049.90 988.19 907.39 827.77 762.32 717.61 694.83 680.61 668.95 662.75 659.59 655.05 647.89 637.97 626.99 621.23 623.68 614.57 533.11 384.74 287.92 255.45 238.54 222.81 208.85 200.05 196.60 197.51 203.23 213.73 226.54 238.60 249.26 260.89 270.48 274.73 277.83 280.31 278.99 274.64 268.70 259.70 246.57 224.92 175.56 105.40 66.36 57.90 52.03 43.78 36.55 32.27 29.82 27.38 26.73 25.76 13.98 -24.68 -80.29 -111.42 -117.17 -117.48 -118.28 -119.97 -122.14 -122.77 -121.47 -120.01 -119.71 -127.47 -160.50 -212.19 -243.36 -251.13 -252.51 -252.25 -251.40 -251.20 -251.22 -251.08 -251.38 -253.02 -254.52 -254.81 -254.69 -254.33 -252.97 -250.65 -249.32 -249.85 -251.36 -253.06 -253.86 -253.24 -253.16 -265.10 -320.57 -411.78 -467.19 -480.34 -484.48 -496.49 -539.74 -641.87 -800.46 -979.67 -1141.94 -1276.01 -1380.66 -1498.05 -1633.92 -1701.31 -1705.89 -1698.65 -1691.63 -1688.12 -1692.42 -1701.10 -1712.61 -1737.56 -1782.90 -1812.40 -1730.23 -1553.96 -1473.77 -1503.96 -1555.80 -1586.55 -1595.01
1213.07 1161.57 1041.23 909.18 840.78 821.02 796.97 749.00 680.69 600.07 518.38 449.36 401.35 372.19 353.18 339.03 328.57 320.05 311.70 304.24 296.77 288.45 283.30 285.07 289.16 280.17 255.14 233.98 219.51 205.29 192.45 184.11 182.69 185.73 191.44 200.92 213.37 228.00 240.99 249.27 255.76 261.07 262.78 263.59 263.76 259.90 252.87 245.90 237.84 226.28 206.90 163.70 103.14 69.86 62.24 56.28 49.16 44.19 40.96 37.03 32.27 30.69 30.43 19.23 -20.93 -80.04 -114.72 -123.40 -125.29 -126.17 -126.99 -127.31 -125.71 -122.70 -120.03 -119.03 -125.98 -157.68 -207.92 -238.65 -247.15 -249.68 -250.10 -249.44 -249.37 -249.73 -249.55 -249.38 -250.99 -252.90 -253.34 -252.85 -252.51 -251.69 -249.67 -248.05 -248.64 -250.16 -251.77 -252.66 -252.53 -253.59 -269.93 -344.16 -466.85 -541.65 -558.98 -563.51 -574.79 -615.51 -723.20 -899.33 -1079.68 -1218.08 -1327.61 -1409.14 -1462.18 -1492.35 -1495.22 -1483.88 -1470.78 -1455.56 -1442.24 -1435.70 -1435.27 -1441.71 -1457.60 -1488.76 -1519.19 -1484.16 -1392.69 -1368.99 -1412.46 -1465.01 -1499.99 -1512.21
1159.77 1113.92 1003.18 876.82 802.92 764.19 719.38 664.53 602.21 528.86 452.23 389.39 346.75 317.32 294.88 277.49 262.82 248.93 236.14 226.48 219.29 212.43 206.80 204.91 207.47 211.77 213.28 209.62 201.22 190.67 182.79 181.24 186.89 195.80 206.33 218.82 231.31 246.25 259.91 266.05 266.43 265.15 262.70 260.46 257.76 251.40 242.44 235.20 229.42 221.83 205.74 164.46 105.77 73.57 66.60 62.00 56.73 54.10 52.14 47.08 40.47 37.09 36.14 26.09 -13.05 -72.68 -108.97 -120.03 -124.76 -128.40 -130.27 -128.68 -124.41 -119.77 -116.31 -114.51 -119.99 -150.50 -200.88 -232.50 -242.00 -245.33 -246.68 -247.24 -248.07 -249.03 -249.07 -248.71 -249.55 -251.21 -251.99 -251.49 -250.97 -250.48 -249.11 -247.87 -248.44 -249.98 -251.70 -252.23 -252.17 -253.93 -271.52 -350.28 -480.10 -559.07 -577.44 -582.38 -592.07 -625.42 -729.50 -916.75 -1101.00 -1225.91 -1321.95 -1398.13 -1437.38 -1443.79 -1431.66 -1413.00 -1393.23 -1371.46 -1351.23 -1337.40 -1329.60 -1330.88 -1341.68 -1365.47 -1389.12 -1354.29 -1276.94 -1272.04 -1327.62 -1385.20 -1421.73 -1434.32
1109.73 1073.89 977.35 853.88 770.11 715.23 663.45 624.57 591.47 542.14 477.15 418.60 376.82 345.24 318.37 296.27 277.22 258.37 241.39 228.53 219.45 212.10 204.82 198.22 195.28 196.23 197.08 194.79 189.28 183.06 180.52 185.28 197.49 212.58 227.92 242.32 253.82 267.09 278.95 281.41 275.26 267.63 261.84 257.10 251.31 242.74 233.65 227.97 225.33 222.41 210.27 170.04 110.66 78.56 72.84 69.81 65.43 63.21 61.65 56.30 48.78 43.41 40.83 31.91 -4.68 -63.19 -100.42 -113.44 -120.66 -126.98 -130.02 -127.51 -121.86 -116.28 -111.88 -109.14 -114.00 -144.26 -194.72 -226.77 -237.02 -241.31 -244.18 -246.09 -247.77 -249.52 -250.01 -249.56 -249.39 -250.28 -251.19 -251.22 -250.86 -250.14 -249.20 -249.15 -250.08 -251.43 -252.79 -252.68 -252.32 -253.77 -271.44 -351.02 -481.98 -561.71 -580.72 -586.36 -595.66 -624.91 -722.77 -908.91 -1096.85 -1223.23 -1314.49 -1384.30 -1418.04 -1420.88 -1405.89 -1380.75 -1353.11 -1326.41 -1302.43 -1283.64 -1270.65 -1267.28 -1274.91 -1295.57 -1311.98 -1264.13 -1175.04 -1170.32 -1238.83 -1309.03 -1350.27 -1363.62
1050.74 1014.75 918.41 792.30 698.80 638.52 599.02 590.60 595.20 575.52 523.65 465.32 419.00 381.25 349.37 324.79 304.97 284.39 263.93 246.42 233.96 225.59 216.22 204.62 195.87 191.74 189.22 186.47 183.11 180.58 182.22 190.99 206.59 225.31 244.98 262.99 275.83 285.92 291.67 287.64 276.00 265.21 258.06 251.64 243.91 235.38 228.81 225.93 226.01 226.38 217.02 177.06 115.81 83.23 78.94 77.27 73.21 70.17 67.64 61.99 54.13 47.10 42.28 33.08 -1.78 -58.58 -95.40 -109.33 -117.97 -125.07 -127.56 -123.69 -117.14 -111.50 -106.80 -104.35 -110.35 -141.00 -190.95 -222.68 -233.25 -238.90 -243.58 -246.85 -249.18 -251.07 -251.54 -251.01 -250.40 -250.50 -250.96 -251.52 -251.74 -250.68 -249.87 -250.79 -251.95 -252.58 -253.29 -253.05 -252.68 -254.01 -271.80 -351.40 -482.71 -563.66 -583.84 -590.07 -600.14 -628.43 -714.16 -880.60 -1068.46 -1213.73 -1311.76 -1372.29 -1398.99 -1400.35 -1383.28 -1353.42 -1322.27 -1293.78 -1265.20 -1239.27 -1222.17 -1217.17 -1223.54 -1241.13 -1250.91 -1193.59 -1093.20 -1082.41 -1158.58 -1241.64 -1288.31 -1302.17
980.52 945.66 850.41 721.88 622.73 565.84 545.10 561.27 588.81 587.18 549.16 500.24 455.90 413.58 376.99 351.49 334.61 315.93 292.75 270.64 255.07 244.21 231.10 215.40 203.21 196.11 190.88 187.07 185.00 184.46 187.96 198.12 213.96 233.29 256.35 278.83 294.08 300.56 298.44 287.26 272.12 260.65 253.13 245.83 238.48 233.03 230.79 231.21 233.39 234.72 225.21 183.81 120.15 86.24 82.41 81.56 77.29 72.82 68.47 62.08 54.18 46.19 39.32 28.76 -5.73 -61.29 -96.94 -109.89 -117.49 -122.88 -123.41 -117.97 -110.70 -105.45 -101.66 -100.39 -107.85 -139.02 -189.03 -221.15 -232.07 -238.35 -243.89 -248.22 -250.88 -252.22 -252.38 -251.87 -251.49 -251.44 -251.21 -251.61 -252.39 -251.81 -251.14 -251.87 -252.74 -252.80 -253.10 -252.83 -252.28 -253.80 -272.41 -352.14 -482.90 -564.36 -585.86 -592.80 -604.03 -633.09 -706.21 -845.36 -1023.59 -1186.94 -1297.72 -1354.68 -1377.94 -1378.86 -1360.14 -1328.76 -1297.66 -1268.67 -1235.71 -1203.48 -1182.46 -1175.33 -1179.25 -1192.87 -1199.20 -1141.05 -1038.80 -1023.06 -1097.76 -1185.40 -1235.25 -1249.42
889.86 861.60 778.23 659.58 567.06 516.35 504.63 529.45 561.74 566.59 544.52 516.73 486.10 446.87 407.70 379.20 362.48 343.46 316.06 290.20 271.96 256.78 239.51 223.14 213.35 207.78 201.44 196.56 194.90 195.12 198.62 207.93 222.24 240.43 264.51 288.88 304.12 306.88 298.78 283.12 266.84 255.55 248.07 241.46 236.80 236.15 238.98 242.96 246.33 246.16 234.11 190.63 125.41 89.80 84.45 82.58 76.99 70.82 64.72 57.19 49.18 41.34 34.13 23.06 -11.32 -66.48 -101.26 -111.50 -115.34 -117.68 -116.92 -112.23 -106.18 -101.45 -98.47 -98.50 -107.22 -139.12 -189.95 -223.16 -234.30 -239.81 -244.77 -248.94 -251.25 -251.94 -251.76 -251.16 -250.97 -251.49 -251.45 -251.60 -252.64 -252.90 -252.49 -252.48 -252.73 -252.71 -252.83 -252.39 -251.65 -253.44 -273.08 -352.95 -482.49 -562.83 -584.57 -592.47 -605.07 -636.73 -705.23 -823.61 -982.15 -1145.98 -1267.36 -1329.56 -1355.05 -1357.36 -1337.74 -1305.49 -1273.61 -1243.09 -1207.48 -1173.13 -1150.83 -1141.38 -1142.27 -1153.38 -1158.97 -1101.85 -999.60 -980.90 -1050.05 -1134.81 -1186.42 -1202.31
822.60 792.29 713.18 609.41 528.56 482.81 474.25 497.82 524.06 528.79 519.97 513.19 501.62 474.00 436.97 404.34 382.49 357.92 323.25 292.22 271.53 254.49 238.39 227.18 224.31 222.78 216.63 211.26 209.98 210.74 213.25 219.93 231.70 248.35 271.07 293.88 306.91 306.39 294.50 277.02 261.71 251.61 244.70 239.96 239.17 243.17 250.27 257.30 260.97 258.38 243.67 198.67 132.49 94.57 85.59 81.02 73.94 66.34 58.78 50.69 43.61 38.09 33.53 23.59 -11.13 -67.05 -101.91 -109.91 -110.09 -110.30 -109.68 -107.41 -104.07 -100.35 -98.08 -99.53 -109.67 -142.69 -194.37 -227.73 -238.32 -242.85 -247.22 -250.46 -251.30 -250.48 -249.34 -248.17 -247.85 -249.31 -250.89 -251.99 -252.88 -252.78 -252.11 -251.33 -250.68 -250.85 -251.32 -251.52 -251.79 -254.26 -273.97 -353.37 -482.15 -561.19 -582.05 -590.11 -603.42 -637.83 -708.19 -816.87 -956.37 -1107.09 -1230.28 -1298.78 -1328.69 -1332.94 -1312.25 -1278.66 -1245.43 -1212.38 -1174.51 -1140.79 -1120.05 -1110.78 -1111.76 -1124.03 -1129.88 -1069.95 -962.58 -938.87 -1004.34 -1089.00 -1141.95 -1158.39
804.73 769.43 685.80 584.13 504.73 458.46 448.57 465.62 483.55 487.39 487.08 494.33 499.85 487.66 457.16 421.92 392.83 360.21 317.78 281.41 260.64 247.71 238.55 234.85 237.27 237.57 231.13 225.62 226.37 229.78 232.21 235.47 243.38 258.07 278.45 297.98 307.89 304.57 290.67 273.01 259.15 250.59 245.36 243.55 246.22 252.79 262.12 271.20 274.80 270.01 253.31 207.53 140.16 99.07 85.99 78.73 70.70 62.22 54.18 47.10 42.50 40.84 39.95 31.34 -4.45 -61.91 -97.12 -104.15 -103.10 -103.49 -104.57 -105.01 -103.96 -101.64 -100.32 -102.33 -113.21 -147.41 -199.68 -232.35 -242.07 -246.10 -249.90 -252.08 -251.53 -248.80 -245.54 -242.97 -242.64 -245.60 -249.45 -251.96 -252.56 -251.25 -249.50 -247.91 -247.09 -248.06 -249.32 -250.43 -252.03 -254.98 -273.85 -352.43 -481.05 -560.04 -580.50 -587.83 -600.31 -633.83 -704.98 -809.85 -932.69 -1063.61 -1178.24 -1249.36 -1286.66 -1297.32 -1279.40 -1246.27 -1212.32 -1176.89 -1137.53 -1105.18 -1087.15 -1080.64 -1082.81 -1095.10 -1099.93 -1036.69 -922.79 -890.99 -953.12 -1039.54 -1094.68 -1112.16
811.27 775.29 689.76 586.08 503.93 450.34 428.09 431.07 440.75 448.17 458.99 477.99 495.15 493.30 467.77 430.82 395.55 357.39 313.61 278.34 261.07 254.54 252.68 253.45 255.55 252.87 244.54 239.10 242.72 250.62 255.62 256.87 260.42 272.64 290.97 306.57 311.72 305.35 290.91 273.84 261.15 254.17 251.57 253.02 257.89 265.28 275.58 285.72 288.76 282.22 263.58 215.99 146.20 102.26 86.91 78.55 70.61 61.72 53.66 48.38 46.50 47.61 48.74 40.63 4.20 -53.72 -88.77 -96.29 -96.71 -99.18 -103.24 -106.44 -107.11 -105.91 -104.80 -106.06 -116.42 -150.89 -203.54 -235.78 -244.65 -248.08 -250.77 -251.89 -250.91 -246.91 -241.11 -236.92 -237.27 -242.04 -247.24 -249.86 -249.88 -247.87 -245.25 -243.34 -243.37 -245.58 -247.69 -249.45 -251.56 -254.40 -272.49 -350.32 -478.50 -557.39 -577.33 -583.70 -594.65 -621.91 -681.37 -771.35 -876.38 -989.99 -1091.20 -1163.53 -1214.92 -1240.99 -1234.62 -1207.33 -1173.27 -1135.56 -1096.12 -1065.32 -1049.93 -1046.78 -1050.75 -1062.57 -1065.61 -999.98 -880.05 -839.96 -897.63 -982.06 -1038.33 -1057.80
836.16 802.90 723.22 626.69 548.96 489.53 451.17 437.03 438.48 451.94 476.88 508.08 532.25 535.11 512.12 472.11 429.19 388.14 351.47 325.12 312.75 309.94 312.37 314.93 312.80 298.47 275.44 261.78 264.55 275.46 284.70 287.79 290.47 301.42 317.51 327.94 326.82 317.07 302.82 287.34 276.46 271.19 270.87 274.93 281.04 288.34 298.62 309.09 311.67 303.19 280.99 227.63 151.21 103.60 87.80 80.47 74.44 66.18 57.22 51.93 51.34 53.65 55.20 47.00 10.97 -46.42 -81.67 -91.07 -94.08 -98.61 -105.36 -111.01 -113.12 -112.55 -111.12 -111.35 -119.98 -152.65 -204.29 -236.25 -244.23 -246.04 -247.01 -247.35 -246.48 -242.11 -235.19 -230.49 -231.28 -236.30 -241.33 -243.29 -242.89 -241.39 -239.66 -238.61 -239.36 -242.01 -244.60 -246.93 -249.37 -251.78 -268.15 -341.57 -463.14 -537.80 -556.22 -561.75 -570.35 -587.70 -623.94 -682.95 -761.53 -854.52 -939.90 -1015.17 -1088.22 -1141.13 -1157.42 -1143.08 -1111.29 -1072.98 -1036.17 -1008.57 -994.09 -991.47 -997.33 -1009.47 -1010.78 -946.60 -828.87 -787.00 -842.13 -924.47 -977.53 -994.76
979.38 950.14 878.95 790.79 720.11 664.03 619.69 594.59 590.45 607.59 641.52 681.71 711.61 719.37 700.84 660.34 611.98 569.89 540.14 520.68 510.62 508.60 512.69 516.20 505.19 454.40 373.05 322.62 315.44 326.11 339.28 347.63 354.15 365.95 378.83 382.77 375.77 363.76 351.10 339.21 330.23 325.20 326.31 333.34 341.04 347.61 356.37 365.35 365.97 353.41 324.14 257.04 161.92 103.26 85.84 80.38 76.47 69.17 59.15 52.18 51.26 54.38 56.42 48.46 12.84 -44.23 -79.61 -89.95 -94.41 -100.36 -108.68 -115.56 -118.46 -118.33 -117.17 -117.34 -124.65 -153.54 -199.94 -228.59 -234.61 -234.40 -233.57 -232.94 -231.85 -228.11 -222.43 -218.66 -219.08 -222.63 -226.61 -228.35 -228.42 -228.39 -228.43 -228.56 -229.81 -232.44 -235.07 -237.52 -239.96 -241.68 -253.57 -308.37 -399.01 -454.58 -468.55 -473.02 -478.56 -487.06 -502.88 -529.84 -573.00 -632.50 -696.41 -771.16 -864.32 -951.68 -999.82 -1001.81 -973.87 -936.49 -903.00 -879.19 -865.74 -861.95 -867.63 -878.40 -879.61 -833.51 -750.04 -727.52 -782.81 -861.09 -909.62 -923.83
1225.21 1201.87 1139.76 1055.05 987.42 940.32 901.18 873.93 867.83 886.43 923.54 967.60 1002.16 1015.99 1004.50 970.72 926.37 886.58 858.42 839.30 828.95 826.70 830.42 833.71 810.35 702.45 526.44 415.88 392.68 402.42 419.94 435.13 446.50 457.94 465.11 461.25 449.38 437.42 428.88 422.20 414.86 409.28 411.34 420.80 429.81 435.45 441.37 445.89 441.40 422.99 385.52 299.90 176.30 99.87 78.86 75.19 73.31 67.21 56.70 47.30 44.47 47.56 50.67 43.77 8.28 -48.75 -83.32 -92.27 -95.97 -102.33 -111.14 -118.19 -121.45 -122.19 -122.06 -122.84 -129.61 -153.77 -191.47 -213.32 -215.94 -214.12 -212.64 -211.27 -209.49 -206.65 -203.07 -200.77 -200.98 -203.55 -206.70 -208.44 -209.46 -211.01 -212.37 -213.32 -215.25 -217.97 -220.22 -222.26 -223.91 -224.71 -230.41 -254.77 -294.17 -318.29 -324.81 -327.76 -330.97 -334.54 -340.10 -349.12 -365.98 -394.56 -436.11 -499.69 -591.57 -696.20 -773.70 -794.84 -773.69 -738.73 -707.37 -685.79 -673.84 -670.08 -674.79 -683.88 -689.19 -675.53 -650.92 -663.89 -720.66 -789.98 -834.36 -848.33
1339.13 1324.07 1274.51 1195.80 1131.93 1093.28 1062.00 1038.34 1034.07 1054.30 1092.04 1134.52 1168.48 1185.88 1182.57 1161.49 1130.38 1099.24 1073.85 1054.89 1045.04 1041.90 1041.45 1039.54 1006.03 863.14 629.63 482.00 448.48 458.89 481.94 503.01 515.46 521.05 518.08 505.08 489.72 480.51 478.42 477.04 471.51 466.48 468.62 476.93 483.81 486.74 488.68 487.53 477.52 455.48 415.11 319.99 179.30 92.15 69.16 66.93 67.09 62.65 52.43 41.44 36.25 37.68 40.72 34.26 -1.60 -58.87 -92.28 -98.74 -100.04 -104.91 -112.84 -119.27 -122.04 -123.15 -124.07 -125.41 -131.53 -152.50 -184.61 -201.43 -201.27 -198.23 -196.27 -194.51 -192.64 -190.93 -189.26 -188.21 -188.76 -191.61 -194.89 -197.02 -198.89 -201.37 -203.66 -205.38 -207.75 -210.04 -211.22 -212.56 -213.71 -213.93 -215.94 -222.09 -230.68 -235.77 -237.43 -239.06 -241.36 -243.15 -244.60 -247.08 -253.05 -266.40 -292.16 -337.10 -407.93 -503.29 -594.06 -635.68 -628.69 -600.87 -573.28 -554.04 -543.43 -539.64 -542.66 -550.70 -560.16 -565.49 -573.51 -604.31 -658.48 -718.92 -759.51 -773.52
1313.02 1301.09 1258.70 1190.56 1138.09 1108.99 1084.64 1065.54 1063.94 1084.85 1121.31 1159.85 1190.13 1208.15 1212.64 1205.32 1189.91 1172.63 1157.70 1145.65 1137.67 1130.64 1122.46 1110.72 1068.94 918.10 674.31 520.63 486.56 499.57 525.47 545.26 550.92 544.47 527.73 505.73 489.67 485.66 490.28 493.33 489.78 485.73 486.21 490.19 492.92 492.00 488.69 481.99 469.66 449.74 412.71 317.40 173.02 83.66 60.71 58.84 59.20 55.50 46.63 36.58 30.83 30.47 31.58 23.52 -13.11 -70.28 -103.18 -108.27 -107.26 -109.47 -114.95 -119.42 -120.46 -120.26 -120.93 -122.56 -128.62 -149.20 -180.42 -195.49 -193.67 -189.47 -186.56 -184.60 -183.62 -183.20 -182.92 -183.10 -184.43 -187.53 -190.95 -193.90 -196.92 -200.05 -203.02 -205.31 -207.18 -208.54 -209.36 -210.77 -212.04 -211.85 -212.56 -214.92 -217.13 -218.44 -219.04 -219.74 -221.18 -222.14 -222.18 -222.44 -224.48 -231.21 -247.08 -276.30 -325.82 -401.56 -487.66 -544.25 -555.00 -538.12 -516.31 -500.11 -491.41 -487.75 -489.10 -496.40 -507.50 -515.44 -525.28 -553.88 -601.76 -654.19 -690.15 -703.22
1274.13 1258.43 1213.67 1153.71 1112.85 1091.36 1073.14 1058.84 1058.51 1077.81 1111.67 1147.02 1173.85 1190.72 1199.43 1202.79 1203.14 1203.56 1205.08 1202.93 1192.79 1176.55 1160.30 1141.70 1096.59 947.75 708.30 559.73 531.32 547.11 567.91 575.29 566.52 546.40 517.91 489.85 474.99 475.71 484.39 489.69 487.17 482.90 481.36 482.95 484.29 481.04 472.46 460.65 448.16 433.64 402.78 310.51 167.19 78.13 54.56 50.50 48.26 44.27 38.15 31.88 27.95 26.60 25.04 14.96 -21.29 -77.28 -110.51 -116.15 -114.36 -114.31 -116.67 -118.21 -116.82 -114.31 -113.53 -115.21 -121.95 -143.07 -174.71 -190.06 -188.39 -183.94 -180.63 -178.76 -178.61 -179.35 -180.43 -182.09 -184.54 -187.67 -190.76 -194.04 -197.86 -201.40 -204.30 -206.19 -206.92 -207.46 -208.70 -210.88 -212.82 -212.98 -213.14 -214.53 -216.07 -217.44 -218.13 -218.61 -219.35 -219.65 -219.66 -219.51 -219.59 -221.98 -231.44 -252.25 -289.26 -349.02 -424.53 -485.69 -507.32 -497.91 -480.54 -467.54 -461.52 -460.35 -463.68 -472.07 -483.33 -490.21 -496.76 -520.63 -561.83 -605.23 -633.17 -642.58
1257.01 1237.20 1187.59 1128.76 1091.34 1072.11 1058.46 1049.65 1051.65 1069.17 1098.86 1130.27 1152.95 1166.32 1175.01 1186.32 1203.64 1222.04 1235.51 1237.07 1221.70 1197.42 1175.71 1154.92 1112.14 969.41 737.51 596.66 574.50 590.45 600.86 590.85 565.47 534.57 500.36 470.75 456.93 458.60 467.54 473.34 471.32 466.50 464.15 466.51 468.96 465.12 453.73 439.28 427.25 417.14 391.85 303.72 163.14 75.09 50.41 43.51 38.86 34.42 30.66 28.68 27.42 25.55 22.01 11.17 -23.14 -77.12 -110.89 -117.85 -116.02 -114.51 -114.59 -113.82 -110.45 -106.15 -104.30 -105.98 -112.89 -133.77 -165.97 -183.33 -183.76 -180.61 -178.33 -176.97 -177.12 -178.71 -181.06 -184.10 -187.76 -191.23 -194.10 -197.03 -200.15 -202.89 -204.60 -205.45 -205.79 -206.16 -207.54 -210.20 -212.93 -214.17 -214.36 -214.63 -215.27 -216.14 -216.83 -217.72 -218.55 -218.71 -218.91 -218.93 -218.59 -219.09 -224.71 -239.92 -267.58 -314.06 -377.74 -435.76 -464.14 -461.23 -447.37 -437.04 -433.70 -436.17 -443.93 -455.47 -467.26 -474.26 -480.34 -500.49 -534.04 -568.54 -589.73 -596.24
1253.00 1230.61 1176.32 1113.39 1074.25 1055.68 1045.42 1041.16 1046.12 1061.71 1084.25 1107.58 1124.54 1135.78 1146.29 1164.54 1193.92 1222.91 1238.91 1237.67 1219.93 1194.64 1170.47 1148.28 1108.38 972.61 749.95 617.99 600.79 615.82 619.80 598.42 559.81 519.69 483.43 455.30 441.47 440.32 446.36 451.78 450.66 446.35 444.45 447.48 450.05 445.58 434.31 421.11 410.69 402.87 381.03 296.85 159.23 72.27 47.92 41.63 37.53 33.11 30.10 30.36 30.47 27.67 22.99 12.88 -18.92 -71.09 -105.19 -113.04 -110.57 -107.46 -106.20 -104.65 -101.17 -97.45 -95.89 -97.24 -103.76 -124.46 -157.38 -177.09 -180.23 -179.02 -178.28 -178.00 -178.96 -181.39 -184.17 -187.47 -191.74 -195.97 -199.23 -201.59 -203.15 -204.05 -204.12 -204.28 -205.11 -205.90 -207.41 -210.10 -212.57 -214.13 -214.75 -214.68 -214.63 -214.82 -215.63 -216.90 -218.07 -218.50 -218.54 -218.48 -218.37 -218.50 -221.95 -232.52 -252.86 -288.12 -338.31 -389.17 -421.13 -424.16 -414.13 -406.96 -406.67 -412.62 -424.42 -439.82 -454.47 -464.06 -471.38 -489.17 -517.85 -546.72 -563.36 -568.00
1262.42 1237.19 1176.88 1107.56 1066.14 1049.92 1042.82 1039.33 1041.54 1050.59 1063.91 1077.95 1090.04 1102.74 1118.68 1141.72 1172.29 1199.52 1210.80 1205.69 1189.96 1168.84 1145.83 1124.62 1087.70 957.93 743.60 618.75 604.76 620.97 626.63 604.59 560.16 513.01 475.53 449.06 434.25 429.24 431.70 435.71 434.53 430.40 428.88 431.08 432.05 426.82 417.22 407.53 399.91 393.56 373.41 291.32 154.88 68.90 47.24 45.15 44.30 40.97 37.59 37.34 37.47 34.35 29.84 20.86 -10.69 -63.63 -98.26 -105.82 -102.23 -97.43 -94.70 -93.17 -91.58 -90.35 -89.86 -91.01 -97.46 -118.86 -152.42 -173.35 -178.37 -178.83 -179.56 -180.64 -182.49 -185.14 -187.60 -190.63 -195.24 -200.29 -203.98 -205.51 -205.62 -205.16 -204.42 -204.49 -205.55 -206.81 -208.98 -211.64 -213.23 -214.02 -214.60 -214.68 -214.76 -215.17 -216.20 -217.26 -218.36 -219.11 -219.12 -218.96 -218.82 -218.74 -220.62 -227.44 -242.90 -271.00 -310.44 -351.88 -380.53 -386.05 -379.72 -375.60 -378.12 -387.26 -402.90 -422.98 -443.18 -457.85 -468.68 -489.05 -519.64 -547.98 -561.89 -564.93
1277.17 1250.00 1186.32 1113.88 1073.19 1061.12 1056.61 1049.77 1042.29 1039.38 1042.74 1049.91 1059.53 1074.51 1094.95 1118.29 1141.53 1158.02 1162.32 1157.44 1147.48 1131.84 1111.63 1093.54 1060.68 935.64 726.39 604.32 590.40 608.55 619.37 602.00 559.50 512.48 476.66 453.08 438.48 429.67 427.81 429.36 426.92 421.74 419.21 419.33 418.11 413.03 405.62 399.00 394.36 390.00 371.12 289.32 152.32 67.53 49.44 51.71 54.61 53.23 49.51 47.77 47.75 45.51 42.03 33.20 -0.79 -56.62 -91.71 -98.37 -94.12 -88.26 -84.30 -83.36 -84.60 -86.24 -86.90 -88.53 -95.69 -117.88 -151.71 -172.79 -178.47 -180.01 -182.29 -185.20 -187.54 -189.17 -190.38 -192.56 -197.19 -203.03 -207.27 -208.41 -207.57 -206.60 -206.40 -206.94 -207.92 -209.27 -211.47 -213.66 -214.38 -214.07 -214.29 -214.91 -215.72 -216.55 -217.19 -217.62 -218.67 -219.53 -219.52 -219.27 -219.31 -219.61 -220.13 -223.44 -234.49 -257.31 -289.51 -322.66 -345.26 -350.32 -346.33 -343.77 -346.90 -357.42 -376.24 -402.16 -430.25 -452.08 -470.24 -498.93 -534.84 -566.02 -582.92 -587.79
1287.51 1265.05 1207.92 1136.40 1095.77 1086.30 1081.62 1068.34 1049.82 1035.81 1030.28 1031.59 1039.22 1055.21 1076.30 1095.49 1109.68 1117.15 1119.49 1120.73 1118.96 1107.18 1087.08 1069.18 1036.99 912.57 703.86 580.24 564.29 584.57 601.06 591.39 557.94 517.49 486.34 469.01 458.18 446.50 439.56 438.20 434.19 426.35 419.95 416.09 412.13 407.50 402.50 397.89 394.89 392.62 375.64 294.10 156.35 71.93 55.29 59.00 64.00 65.25 62.88 60.07 59.04 58.10 55.97 45.78 8.64 -49.00 -83.80 -90.01 -86.01 -80.25 -76.35 -75.96 -79.33 -83.71 -86.22 -89.10 -97.29 -120.13 -154.19 -175.11 -180.93 -183.10 -186.59 -191.08 -193.69 -193.75 -192.85 -193.24 -197.11 -203.54 -208.77 -210.28 -209.22 -208.51 -209.36 -210.53 -211.53 -212.33 -213.07 -213.84 -213.93 -213.49 -213.88 -215.01 -216.27 -217.03 -217.21 -217.34 -218.39 -219.12 -219.10 -219.10 -219.55 -220.09 -219.90 -221.07 -228.24 -246.18 -273.60 -300.97 -317.11 -318.66 -314.91 -313.91 -317.70 -328.48 -348.87 -379.22 -414.81 -445.29 -474.70 -514.35 -555.21 -588.92 -610.59 -618.49
1310.69 1295.29 1246.00 1172.48 1126.07 1112.92 1102.99 1081.67 1054.65 1033.68 1021.89 1018.18 1023.72 1038.83 1057.04 1070.76 1079.85 1085.75 1092.07 1102.13 1109.16 1101.00 1078.95 1056.14 1018.14 888.69 677.28 551.91 536.09 559.57 581.75 581.61 560.53 530.16 506.10 496.23 490.88 479.13 468.01 462.53 455.44 442.94 430.33 421.60 415.45 411.27 408.05 404.54 401.91 401.10 386.65 306.88 169.80 85.08 67.17 69.25 74.25 77.68 76.85 72.48 69.16 69.04 68.55 57.10 17.58 -40.17 -73.78 -80.23 -77.93 -73.80 -71.25 -71.71 -76.18 -82.34 -87.25 -91.96 -100.69 -123.84 -158.63 -179.65 -185.38 -188.28 -192.59 -197.37 -199.64 -198.60 -196.12 -194.86 -197.47 -203.49 -209.13 -210.96 -209.98 -209.80 -211.04 -211.97 -212.73 -213.20 -212.88 -212.25 -211.98 -212.23 -213.11 -214.31 -215.52 -216.21 -216.54 -216.72 -217.45 -218.14 -218.60 -219.09 -219.29 -219.26 -219.08 -219.76 -224.22 -237.12 -258.49 -278.56 -287.40 -286.35 -284.67 -286.24 -291.15 -301.71 -322.79 -355.73 -396.37 -435.70 -476.41 -524.36 -569.58 -604.28 -625.39 -632.63
1316.39 1300.04 1248.75 1174.13 1124.17 1102.56 1082.73 1053.25 1021.52 997.29 981.43 974.12 977.03 988.50 1001.12 1009.55 1017.10 1026.97 1040.71 1058.49 1071.85 1068.11 1046.48 1018.85 974.29 844.63 642.42 525.53 514.16 539.96 565.66 573.73 563.51 544.69 530.09 525.47 522.51 511.81 498.27 487.64 475.25 456.72 437.91 425.66 419.54 416.57 413.96 410.47 407.53 407.11 394.88 319.66 187.63 104.47 84.04 82.86 86.32 89.88 89.30 84.16 79.71 79.51 79.38 67.48 27.49 -29.77 -62.71 -70.15 -70.54 -69.43 -69.11 -70.89 -76.02 -82.87 -89.42 -95.38 -103.59 -126.34 -162.29 -184.41 -190.52 -194.13 -198.97 -203.19 -204.64 -203.39 -200.83 -199.04 -200.33 -204.93 -209.49 -210.83 -209.69 -209.38 -210.09 -210.34 -210.82 -211.53 -211.54 -210.66 -210.03 -210.49 -211.62 -213.00 -214.14 -214.73 -215.44 -216.27 -217.05 -217.82 -218.65 -218.96 -218.38 -217.90 -218.09 -218.64 -220.54 -227.38 -240.16 -251.84 -255.44 -254.93 -256.68 -260.23 -265.05 -274.96 -295.94 -329.20 -370.87 -415.29 -463.85 -516.59 -563.99 -598.66 -616.89 -621.90
1189.91 1167.69 1112.25 1045.62 999.94 967.53 933.96 897.00 863.47 838.54 820.70 809.91 805.98 807.36 810.96 814.28 821.15 835.34 855.20 876.79 892.17 892.26 874.86 848.02 807.50 710.96 570.50 494.99 495.62 521.32 545.08 555.57 552.31 544.10 540.09 540.82 538.74 528.22 512.20 494.68 474.65 450.24 427.68 414.71 410.86 409.79 406.36 400.92 396.32 394.96 383.88 315.94 195.62 118.85 97.87 94.54 96.14 98.33 97.93 94.26 90.97 90.16 88.51 76.61 38.13 -18.92 -53.27 -62.81 -65.54 -67.09 -68.55 -71.16 -76.69 -83.70 -90.58 -96.52 -103.59 -125.58 -162.57 -186.47 -193.89 -198.16 -203.21 -207.24 -208.73 -207.94 -205.66 -203.99 -204.47 -207.27 -209.64 -209.51 -207.92 -207.48 -208.07 -208.26 -208.98 -210.29 -211.18 -211.05 -210.43 -210.49 -211.24 -212.49 -213.22 -213.45 -214.70 -216.51 -217.52 -218.05 -218.47 -218.19 -217.34 -216.75 -217.02 -217.28 -217.21 -219.14 -224.70 -230.50 -231.79 -231.71 -233.96 -237.09 -241.10 -250.46 -270.43 -300.97 -338.30 -381.73 -434.62 -491.02 -537.55 -570.13 -586.64 -591.22
956.32 932.96 880.03 822.31 779.76 737.44 690.53 646.07 610.35 585.24 566.54 551.07 535.69 521.16 512.86 510.94 516.22 531.20 553.02 574.66 588.54 589.68 576.20 554.34 530.38 499.48 467.65 460.88 477.62 500.23 516.93 522.96 520.93 519.10 523.72 531.38 533.15 525.56 509.46 486.13 459.14 430.72 407.11 395.04 393.66 394.32 389.57 380.90 373.35 369.47 357.35 296.42 190.56 123.44 104.73 100.94 100.98 101.49 101.06 99.33 98.15 97.98 96.21 85.19 48.16 -8.56 -44.43 -56.46 -61.38 -64.92 -67.58 -70.46 -75.75 -82.51 -89.45 -95.35 -101.90 -123.20 -159.98 -184.42 -192.84 -197.77 -203.17 -207.91 -210.55 -210.64 -208.95 -207.76 -207.50 -207.93 -207.89 -206.58 -205.50 -206.40 -208.07 -208.67 -209.55 -211.15 -212.59 -213.28 -212.90 -212.46 -212.60 -213.49 -213.88 -213.89 -214.95 -216.38 -217.37 -217.90 -218.08 -217.61 -216.66 -215.77 -215.89 -216.30 -215.96 -215.97 -217.66 -219.81 -220.04 -219.82 -220.84 -222.40 -225.08 -232.73 -249.45 -274.93 -306.36 -346.41 -399.17 -454.97 -497.61 -526.50 -541.86 -546.87
844.55 822.80 771.19 711.05 663.86 614.89 560.12 509.72 470.45 443.95 424.63 405.47 380.89 353.62 335.41 328.25 330.54 343.23 363.01 381.36 391.39 391.39 381.16 365.22 355.60 368.99 406.86 442.65 465.84 482.19 491.11 491.70 488.98 490.21 498.94 510.72 517.19 515.91 505.24 483.99 457.20 428.02 403.82 392.21 392.15 393.94 388.84 378.37 368.89 362.06 346.12 286.22 186.73 124.22 106.52 102.37 101.56 100.40 98.75 97.37 97.97 100.57 101.94 93.50 57.57 1.01 -36.19 -50.57 -57.61 -62.89 -66.54 -69.77 -74.48 -80.70 -88.15 -94.58 -101.44 -122.42 -158.09 -182.12 -190.95 -195.79 -200.68 -205.60 -209.43 -210.82 -210.19 -209.17 -207.80 -206.15 -204.71 -203.69 -204.50 -207.37 -209.73 -210.04 -210.54 -212.12 -213.73 -214.78 -214.65 -213.86 -213.41 -214.11 -215.23 -215.80 -215.99 -216.26 -217.07 -217.85 -218.12 -217.74 -216.87 -216.01 -216.03 -216.60 -216.44 -215.54 -215.23 -215.57 -215.71 -215.81 -216.19 -216.78 -217.92 -222.33 -233.65 -253.40 -280.76 -316.69 -362.80 -411.75 -448.93 -475.35 -490.49 -495.57
857.01 835.98 782.69 715.08 660.20 606.86 548.93 496.76 456.44 428.94 408.58 386.81 357.03 322.18 297.46 286.66 286.99 297.26 312.63 324.96 329.54 327.64 320.81 310.88 308.94 336.26 392.90 438.47 459.20 467.73 469.12 465.92 464.40 468.62 477.14 486.71 494.52 500.28 499.38 487.24 467.34 441.29 417.52 405.18 403.26 403.94 399.20 389.46 380.10 371.50 351.84 288.22 186.61 122.85 104.72 100.61 99.29 96.61 93.20 90.60 91.21 95.97 101.07 96.34 62.70 6.50 -32.20 -48.36 -56.54 -62.66 -67.31 -71.33 -75.71 -81.27 -88.67 -95.28 -102.99 -124.73 -159.96 -183.23 -191.96 -196.53 -199.81 -203.00 -206.27 -208.36 -208.43 -206.99 -205.25 -203.88 -203.04 -203.32 -205.46 -208.32 -209.67 -209.18 -209.61 -211.81 -213.53 -214.18 -214.14 -213.52 -212.95 -213.37 -214.95 -216.08 -216.11 -216.10 -216.65 -217.25 -217.40 -217.32 -217.45 -217.33 -216.82 -216.91 -217.05 -215.73 -213.95 -213.06 -213.31 -213.92 -214.08 -214.24 -214.69 -216.59 -222.81 -236.13 -257.35 -284.63 -319.39 -361.62 -396.74 -422.70 -437.82 -442.91
866.13 847.54 797.51 729.90 671.70 614.88 554.14 502.65 465.35 438.72 416.90 393.38 361.49 323.72 296.90 284.87 283.37 289.95 299.94 306.75 307.34 304.34 299.75 294.73 298.77 331.93 392.55 438.43 455.28 456.53 450.39 443.41 443.31 449.75 455.77 460.55 467.74 479.39 488.76 487.04 475.51 454.74 432.85 418.86 412.67 409.64 404.17 396.04 387.89 378.70 357.15 289.48 183.64 117.81 99.69 95.87 94.01 90.43 85.98 82.47 82.05 86.51 93.46 91.70 61.00 6.03 -33.60 -50.83 -59.13 -64.81 -69.91 -74.37 -77.99 -82.23 -88.23 -94.73 -104.40 -128.60 -164.65 -187.22 -195.44 -199.66 -201.36 -202.07 -203.38 -205.07 -205.10 -203.37 -202.53 -203.26 -204.28 -205.61 -207.23 -208.15 -207.83 -206.99 -207.88 -210.87 -212.87 -213.07 -212.75 -212.14 -211.65 -211.93 -213.30 -214.74 -215.61 -216.11 -216.32 -216.40 -216.58 -216.95 -217.85 -218.13 -217.32 -216.97 -217.15 -215.89 -213.32 -211.13 -210.77 -211.41 -211.37 -211.22 -211.95 -213.50 -216.61 -223.61 -235.38 -248.69 -269.31 -304.90 -340.10 -367.33 -383.31 -388.86
849.90 830.57 782.36 719.86 662.30 601.34 537.08 486.96 454.76 432.23 412.36 390.77 361.34 326.24 302.01 289.88 284.45 284.62 288.41 291.26 290.89 289.12 286.72 285.57 294.71 331.74 393.32 437.53 451.09 447.14 435.53 425.62 425.37 431.79 436.46 440.33 448.86 464.11 479.42 483.84 476.95 459.74 439.26 423.92 414.44 407.91 401.06 393.99 386.99 377.86 355.61 285.96 178.13 112.15 94.74 90.92 88.84 85.45 81.24 77.70 75.81 78.19 85.06 84.97 56.58 3.22 -36.10 -53.46 -61.85 -67.09 -71.71 -75.56 -78.15 -80.88 -85.42 -92.55 -104.48 -130.99 -168.26 -190.94 -198.96 -202.65 -203.75 -203.35 -203.00 -203.11 -202.16 -200.65 -200.89 -203.20 -205.92 -207.60 -207.99 -207.37 -206.21 -205.66 -207.11 -210.01 -211.98 -212.09 -211.36 -210.37 -209.58 -210.04 -211.58 -213.60 -215.32 -216.12 -216.18 -216.16 -216.67 -217.53 -218.30 -217.87 -216.81 -216.48 -216.32 -214.69 -211.67 -208.54 -207.26 -207.52 -207.41 -207.19 -208.56 -211.04 -213.47 -216.77 -220.58 -221.12 -226.60 -249.82 -279.97 -307.39 -325.53 -332.14
817.13 797.02 748.86 687.33 628.74 566.88 505.04 459.58 431.43 411.72 394.92 378.63 356.86 329.86 310.92 298.14 287.49 281.16 279.63 279.96 279.68 278.41 277.09 278.99 291.07 328.45 387.95 429.35 440.94 435.86 423.22 412.19 410.36 415.47 421.54 430.08 443.58 460.56 474.69 477.66 469.91 453.46 434.23 419.09 408.60 400.63 393.32 387.17 381.30 372.67 350.36 281.15 174.97 111.07 95.21 92.00 90.35 87.76 83.71 78.64 73.39 72.23 77.54 78.72 52.82 1.83 -35.33 -51.68 -60.34 -65.86 -69.58 -72.22 -74.47 -77.17 -81.89 -90.41 -103.81 -131.05 -169.03 -192.15 -199.69 -202.97 -204.73 -204.60 -203.35 -201.88 -200.26 -199.63 -200.62 -203.29 -206.03 -206.73 -206.13 -205.68 -205.31 -205.66 -207.08 -208.66 -209.78 -209.63 -208.72 -207.82 -207.28 -208.08 -209.96 -212.84 -215.23 -215.97 -216.18 -216.35 -216.90 -217.91 -218.27 -217.13 -215.84 -215.57 -214.99 -212.91 -209.68 -205.80 -203.17 -202.46 -202.32 -202.41 -204.25 -207.49 -210.66 -213.58 -214.08 -208.05 -202.30 -210.79 -230.28 -253.44 -270.86 -277.45
760.90 745.87 705.85 648.35 590.82 535.22 484.75 448.38 421.29 396.83 377.69 367.01 356.48 340.33 326.03 311.32 296.14 286.05 282.26 281.13 279.05 275.02 271.72 273.60 285.42 319.94 373.98 411.44 422.95 420.40 411.10 402.03 399.11 402.53 410.42 424.72 443.92 461.47 470.28 467.30 456.04 439.30 422.20 408.76 398.70 390.99 384.24 379.24 374.86 367.76 347.04 280.58 178.26 117.18 102.55 99.59 97.53 95.03 90.64 83.29 74.38 69.15 70.96 71.75 48.29 0.44 -33.23 -47.22 -55.02 -60.29 -63.71 -66.29 -69.07 -72.56 -78.54 -88.30 -102.29 -128.98 -166.49 -189.92 -197.39 -200.62 -202.76 -202.45 -200.65 -198.83 -197.85 -199.15 -201.74 -204.10 -204.67 -203.03 -201.76 -202.45 -203.84 -204.83 -204.92 -204.84 -205.36 -205.10 -204.30 -204.27 -205.22 -207.06 -209.43 -212.71 -215.22 -215.95 -216.73 -217.21 -217.16 -217.40 -217.72 -217.12 -215.89 -215.04 -214.24 -212.47 -209.27 -204.90 -200.86 -197.99 -196.74 -196.93 -199.40 -203.58 -207.69 -211.08 -211.21 -203.56 -192.51 -191.19 -201.09 -217.59 -231.10 -236.22
695.75 688.83 664.45 621.35 574.49 530.72 493.44 465.36 436.23 402.04 375.94 368.43 367.46 359.15 346.24 328.41 309.97 299.38 296.90 295.25 289.59 280.75 272.71 270.43 278.70 309.18 357.03 389.97 402.41 404.03 399.75 394.11 391.17 392.82 400.17 416.44 438.70 456.62 462.31 455.64 442.38 426.06 410.74 399.08 390.43 384.12 378.31 373.74 370.70 366.49 349.25 286.24 187.06 127.43 112.34 107.71 103.63 100.40 96.19 88.46 78.25 69.90 66.75 64.26 41.61 -3.07 -33.04 -43.97 -49.90 -54.62 -58.75 -62.56 -66.28 -70.43 -76.91 -86.30 -99.27 -124.42 -160.36 -183.45 -191.57 -195.18 -196.97 -196.19 -194.37 -193.18 -193.88 -197.86 -202.15 -203.61 -201.85 -198.92 -197.65 -198.83 -200.72 -201.06 -199.53 -198.71 -199.42 -199.68 -199.75 -200.85 -203.15 -206.16 -209.38 -212.74 -214.70 -215.36 -216.47 -217.27 -217.11 -216.52 -216.71 -216.98 -215.81 -214.14 -213.41 -212.54 -210.01 -205.81 -200.61 -195.29 -191.88 -191.22 -194.15 -199.77 -205.20 -208.85 -209.05 -201.76 -188.88 -182.84 -186.95 -197.08 -205.66 -208.87
656.99 653.10 636.96 607.30 576.89 549.33 523.91 500.24 468.84 427.66 395.18 386.91 388.72 381.10 365.72 344.88 324.18 314.27 315.19 314.92 305.99 291.84 278.10 270.15 273.39 299.82 343.62 373.11 385.36 390.38 390.70 387.97 385.23 385.82 391.51 406.13 428.50 447.58 454.08 447.57 434.59 419.41 405.33 394.93 387.79 382.89 378.52 374.90 373.24 371.49 356.70 295.06 196.02 135.50 118.81 111.81 105.58 101.35 97.35 91.21 82.95 74.17 66.58 58.35 33.49 -8.60 -34.64 -42.54 -47.13 -52.11 -57.44 -62.49 -66.73 -71.13 -77.57 -85.45 -95.46 -117.82 -151.90 -174.39 -182.81 -186.47 -188.25 -188.32 -187.64 -187.85 -190.72 -196.51 -200.92 -200.90 -197.87 -194.92 -193.81 -194.77 -196.37 -196.23 -194.43 -193.73 -194.65 -195.56 -196.88 -199.14 -202.13 -205.65 -209.42 -212.49 -213.59 -213.78 -214.43 -215.05 -215.29 -215.02 -215.41 -216.11 -214.99 -212.95 -212.39 -212.39 -210.73 -206.50 -200.08 -193.51 -188.94 -187.33 -190.14 -196.51 -203.02 -207.36 -208.06 -201.15 -187.61 -179.52 -179.77 -183.25 -185.81 -186.83
655.84 647.61 625.96 598.58 580.12 568.21 553.37 532.84 503.34 463.55 427.99 413.93 409.93 396.18 375.73 352.92 332.63 325.14 330.53 333.14 322.56 304.52 286.60 274.15 273.04 296.08 337.57 364.07 373.52 378.90 381.82 381.04 379.13 380.55 386.53 400.01 421.42 441.00 449.61 445.57 434.43 420.92 408.65 399.49 393.38 390.06 387.74 385.22 383.24 381.13 366.35 303.79 201.96 138.56 120.22 111.59 103.56 97.42 92.62 88.69 84.77 78.82 69.21 55.02 25.48 -15.94 -38.36 -42.63 -45.40 -50.43 -56.76 -63.23 -68.49 -73.05 -78.82 -84.59 -91.26 -111.13 -144.35 -166.68 -174.86 -178.32 -180.30 -181.78 -183.52 -186.18 -190.51 -195.84 -198.96 -197.71 -193.92 -190.55 -189.01 -189.86 -191.95 -192.60 -191.62 -190.98 -191.80 -193.42 -195.96 -199.19 -202.61 -206.19 -210.11 -212.85 -213.28 -212.88 -212.45 -212.02 -212.41 -213.36 -214.66 -215.72 -215.16 -213.37 -212.52 -212.08 -210.05 -205.37 -198.77 -192.93 -188.77 -186.48 -188.71 -195.07 -201.85 -207.00 -208.66 -201.57 -187.08 -178.08 -175.93 -174.91 -174.30 -174.65
648.42 636.99 609.56 579.46 565.92 565.14 560.64 546.12 522.20 488.04 452.69 433.21 421.33 398.97 371.77 346.87 329.75 328.21 339.22 344.14 332.38 311.68 290.62 275.01 271.74 295.14 339.30 365.47 370.38 371.87 373.89 374.00 374.50 379.21 388.12 403.26 424.38 442.77 452.23 451.55 444.16 433.49 423.13 415.13 410.73 409.96 408.71 404.18 398.49 393.66 377.11 311.46 204.34 136.27 115.66 106.50 97.97 89.98 83.54 80.60 80.38 78.08 68.93 51.64 18.66 -23.19 -43.04 -43.73 -43.83 -47.47 -53.61 -61.18 -67.95 -72.46 -76.39 -79.87 -84.97 -105.29 -140.75 -164.78 -173.06 -176.38 -178.62 -181.25 -185.08 -189.36 -193.69 -197.29 -198.77 -196.94 -192.82 -188.90 -186.87 -187.40 -189.60 -190.79 -190.36 -189.81 -190.81 -193.44 -196.95 -200.71 -204.83 -209.61 -215.17 -218.98 -219.76 -219.28 -218.26 -217.02 -216.57 -217.62 -219.55 -221.20 -221.56 -220.11 -218.36 -216.48 -213.32 -208.24 -202.28 -197.51 -194.02 -192.04 -194.30 -200.25 -206.98 -212.86 -215.06 -206.30 -188.48 -177.41 -173.93 -171.57 -170.46 -170.82
590.83 579.18 551.06 520.33 508.64 514.46 520.13 515.76 499.90 470.62 438.40 418.79 403.29 376.14 344.06 317.17 303.66 309.86 326.26 331.09 316.66 292.29 267.68 249.66 247.09 281.53 345.39 381.53 383.28 378.61 377.21 377.68 381.62 390.62 403.54 421.97 442.98 458.34 466.43 468.63 466.37 459.94 451.61 444.85 443.08 444.91 443.55 435.41 424.77 416.63 397.97 326.28 208.19 131.57 107.47 98.37 90.54 81.54 73.33 69.74 70.47 70.28 62.95 46.28 13.34 -28.26 -46.60 -45.10 -42.94 -44.38 -48.90 -55.71 -62.84 -67.04 -69.26 -71.59 -77.80 -102.44 -144.36 -172.58 -181.99 -185.58 -188.73 -192.91 -197.62 -201.43 -204.61 -206.49 -206.42 -204.35 -200.58 -196.54 -193.97 -193.36 -194.44 -195.39 -195.35 -195.39 -197.13 -200.78 -205.25 -209.75 -215.21 -224.54 -237.69 -246.76 -249.64 -249.91 -248.92 -247.25 -245.53 -245.32 -246.80 -248.56 -249.38 -248.29 -246.30 -243.64 -239.48 -234.15 -229.01 -224.72 -221.46 -220.62 -223.56 -229.11 -235.69 -241.58 -242.31 -226.55 -196.53 -177.50 -172.02 -169.76 -168.76 -168.98
497.84 487.20 461.19 431.81 420.50 428.24 440.15 445.33 438.60 416.07 390.25 374.02 358.37 332.23 300.54 273.84 264.17 277.66 298.13 301.62 283.53 254.12 225.29 204.96 203.64 255.58 351.28 405.08 406.43 396.47 391.27 391.46 397.99 410.67 427.30 447.90 467.80 480.51 487.11 490.13 491.22 489.02 483.61 479.18 479.58 482.74 481.34 471.41 457.97 448.11 428.23 349.40 217.29 130.35 102.46 92.06 83.47 74.00 65.09 60.10 59.33 59.28 53.61 39.14 8.49 -32.05 -50.33 -48.31 -44.24 -42.97 -44.83 -49.41 -55.45 -59.41 -61.39 -64.32 -73.55 -104.57 -154.86 -188.17 -199.33 -203.60 -207.23 -211.91 -216.50 -219.30 -220.63 -220.96 -220.75 -219.45 -216.07 -211.49 -207.69 -205.49 -205.24 -206.19 -206.96 -207.75 -210.43 -215.22 -220.47 -225.30 -232.15 -248.66 -274.51 -292.23 -298.11 -299.34 -298.21 -295.68 -293.29 -292.34 -293.20 -294.69 -295.46 -294.66 -293.01 -290.35 -285.98 -280.94 -276.28 -272.05 -268.75 -268.47 -271.37 -276.43 -282.69 -287.98 -286.01 -258.76 -209.11 -177.81 -170.02 -168.71 -168.73 -169.35
434.21 425.63 403.58 376.82 365.72 372.50 385.22 394.77 395.27 382.11 364.41 351.65 337.56 316.21 289.91 266.85 260.93 277.96 300.47 303.93 283.87 250.40 215.80 190.27 186.16 245.40 357.10 419.47 420.34 407.69 400.21 398.87 404.97 418.88 437.70 459.00 478.23 490.38 495.15 494.85 494.63 494.70 492.90 492.59 495.17 498.29 496.65 486.79 473.88 465.28 445.90 364.15 225.82 134.70 104.88 92.25 81.79 72.02 62.92 55.56 51.26 49.14 44.13 32.15 3.64 -37.06 -57.08 -55.06 -48.41 -43.63 -42.29 -44.55 -48.87 -52.65 -55.81 -60.38 -72.10 -107.05 -162.09 -198.36 -210.67 -215.40 -218.70 -222.09 -225.30 -227.12 -226.98 -226.52 -227.23 -227.07 -223.90 -219.12 -214.80 -211.84 -211.08 -212.23 -213.54 -214.93 -218.22 -223.39 -228.41 -232.54 -239.75 -261.07 -295.11 -317.87 -325.21 -326.89 -325.97 -323.45 -321.20 -319.83 -319.86 -320.92 -321.63 -321.11 -319.66 -317.47 -314.31 -309.99 -305.22 -301.11 -298.13 -297.87 -299.96 -303.77 -309.00 -313.35 -309.27 -274.77 -214.03 -176.89 -168.66 -167.86 -168.05 -168.56
407.34 400.14 382.01 360.22 350.89 355.79 365.69 374.12 377.38 371.99 361.71 353.14 344.75 333.10 316.67 299.73 295.59 310.10 330.04 333.50 314.53 280.10 239.67 204.75 192.61 249.27 361.55 423.72 424.69 412.70 404.55 400.40 402.80 414.56 432.94 454.12 473.02 484.47 486.22 481.19 477.93 478.91 480.54 484.13 488.42 490.94 489.34 481.31 471.10 464.83 446.61 365.87 229.25 140.30 111.43 98.40 87.34 77.78 68.78 59.22 50.50 44.02 38.43 28.59 0.25 -43.21 -66.06 -64.03 -54.53 -45.89 -41.04 -41.10 -44.02 -48.06 -53.13 -59.54 -72.36 -108.26 -164.19 -200.98 -213.23 -217.53 -220.19 -222.04 -223.26 -223.99 -223.79 -223.52 -224.24 -224.19 -221.64 -217.91 -214.12 -211.63 -211.55 -212.84 -214.13 -215.93 -219.01 -222.86 -226.88 -230.45 -237.52 -260.72 -297.36 -320.66 -327.26 -328.90 -328.92 -327.60 -325.95 -324.15 -323.14 -323.39 -324.02 -324.26 -323.58 -322.43 -321.05 -317.76 -312.89 -309.15 -306.90 -306.53 -307.44 -309.21 -312.76 -316.10 -310.75 -273.96 -211.12 -173.95 -166.43 -164.90 -163.19 -162.62
392.01 385.97 371.26 354.20 347.33 351.49 358.39 362.92 364.33 361.86 356.82 353.68 353.04 351.41 345.10 336.21 334.71 344.84 356.99 356.73 338.52 303.46 258.95 216.61 197.58 250.98 362.06 424.63 429.06 420.80 412.62 404.46 400.99 407.96 423.91 443.73 460.35 468.61 467.16 460.51 456.78 458.01 460.86 465.48 470.25 473.73 474.68 470.11 462.63 457.13 438.89 359.43 226.44 141.77 115.93 104.50 94.32 86.03 78.07 68.16 57.08 47.15 40.11 29.66 -2.14 -50.09 -74.71 -72.50 -61.33 -49.72 -41.88 -39.86 -41.81 -46.56 -53.15 -60.76 -74.57 -110.91 -166.13 -201.84 -213.30 -216.99 -218.93 -219.60 -219.49 -219.45 -219.52 -219.16 -218.68 -217.86 -216.37 -214.28 -211.25 -209.53 -210.06 -211.20 -212.67 -215.04 -217.78 -220.23 -223.64 -227.20 -234.35 -258.47 -295.96 -318.75 -324.02 -325.03 -325.47 -325.09 -324.48 -323.05 -321.56 -321.08 -321.64 -322.55 -322.91 -323.16 -323.41 -321.37 -316.83 -313.36 -311.91 -311.55 -311.08 -310.42 -311.67 -313.64 -307.39 -269.76 -206.42 -169.37 -161.93 -159.42 -156.39 -155.46
378.33 373.86 362.47 348.80 343.79 348.26 354.08 356.23 355.38 352.70 350.09 351.14 356.06 360.70 361.31 359.13 360.01 365.64 369.03 362.00 340.95 305.10 261.09 218.67 198.63 250.79 362.35 428.23 438.03 433.52 424.10 411.24 402.11 404.20 416.84 432.91 444.62 448.22 444.96 439.85 437.65 438.93 440.92 444.32 450.10 456.93 461.84 461.17 455.95 449.04 428.12 347.65 217.00 136.97 115.46 106.65 98.33 91.80 84.83 75.82 65.74 55.66 46.72 32.57 -4.70 -56.51 -80.88 -77.79 -66.07 -52.91 -43.52 -40.50 -42.55 -48.21 -55.67 -63.84 -78.37 -114.96 -169.00 -203.28 -214.63 -218.87 -220.48 -220.04 -218.85 -217.63 -216.84 -215.91 -214.25 -212.21 -210.88 -209.96 -208.48 -208.14 -208.87 -209.65 -211.45 -214.49 -217.53 -220.02 -223.53 -226.99 -234.04 -258.47 -296.19 -318.75 -323.28 -323.46 -323.88 -324.13 -324.17 -323.21 -321.58 -320.89 -321.54 -322.54 -323.68 -325.42 -327.06 -326.25 -322.12 -318.28 -317.03 -316.70 -315.05 -312.43 -311.10 -310.89 -303.23 -264.73 -200.87 -163.50 -155.41 -152.24 -149.19 -148.44
368.56 364.61 354.89 343.80 340.02 344.19 349.58 351.36 350.03 347.10 345.61 349.28 357.28 364.43 367.77 368.66 370.00 371.53 368.46 355.16 330.29 296.60 258.85 221.21 202.88 254.67 367.29 436.28 448.85 444.15 431.45 415.37 403.40 401.76 409.86 420.20 426.69 427.03 423.81 421.76 421.92 423.66 424.79 427.07 434.78 445.84 454.34 456.98 453.79 445.24 420.45 336.82 205.55 128.12 110.66 104.73 97.96 92.24 86.46 79.51 71.24 60.91 49.40 31.75 -8.71 -61.52 -84.39 -79.88 -67.79 -54.35 -45.10 -42.95 -46.28 -52.54 -60.40 -68.98 -83.58 -120.16 -173.61 -207.09 -218.94 -224.41 -226.35 -225.39 -223.15 -220.01 -217.07 -214.66 -211.91 -208.83 -207.27 -207.22 -207.52 -208.47 -209.38 -210.09 -212.24 -216.03 -220.15 -223.33 -226.83 -230.52 -237.87 -262.07 -298.96 -320.99 -325.51 -325.56 -326.11 -326.58 -326.32 -325.21 -323.50 -322.85 -323.61 -325.00 -327.04 -329.56 -331.41 -330.45 -326.26 -322.61 -321.97 -321.95 -319.68 -315.68 -311.89 -309.19 -299.75 -260.24 -195.99 -158.55 -150.25 -147.15 -144.25 -143.21
366.11 362.03 352.26 341.64 337.96 341.21 345.19 346.04 344.74 342.72 343.06 348.78 357.69 364.35 367.32 368.41 369.43 369.05 362.43 345.70 320.86 293.62 264.78 232.60 214.94 264.45 375.26 443.06 453.57 445.25 429.49 412.89 400.85 396.71 399.38 403.62 405.99 405.74 405.04 406.75 409.17 410.57 410.50 412.66 422.55 437.00 448.66 454.73 454.31 445.90 418.79 332.38 198.39 119.64 103.17 99.07 93.03 87.27 83.15 78.35 70.56 58.92 45.23 26.08 -13.89 -64.81 -85.91 -80.24 -68.22 -56.49 -49.99 -50.25 -54.37 -59.91 -67.21 -76.01 -90.94 -127.85 -181.39 -214.45 -226.15 -232.20 -234.69 -233.59 -230.56 -226.16 -221.07 -216.52 -212.55 -208.89 -207.39 -208.37 -210.46 -212.24 -212.60 -212.39 -214.24 -218.72 -224.05 -227.87 -231.61 -236.15 -244.28 -267.86 -303.37 -324.70 -329.45 -329.84 -330.32 -330.47 -329.76 -328.64 -327.21 -326.48 -327.06 -328.96 -331.54 -333.88 -334.82 -332.90 -328.97 -326.64 -327.17 -327.81 -325.49 -320.62 -315.04 -310.21 -298.93 -258.18 -193.60 -156.57 -148.97 -146.54 -144.46 -144.12
367.62 363.81 353.82 342.26 337.78 339.87 342.13 342.11 341.00 340.11 342.35 349.71 358.12 361.96 361.92 361.50 362.32 361.67 353.82 336.97 316.35 297.41 276.18 247.89 230.73 275.99 379.33 440.61 447.06 436.30 420.47 406.00 396.89 393.19 391.61 389.83 388.22 388.13 390.51 395.65 399.54 399.16 396.81 398.82 409.93 426.47 441.35 451.27 454.12 447.01 419.22 331.59 195.37 113.21 94.23 90.23 85.31 79.96 76.69 72.95 65.17 53.25 39.90 21.88 -15.81 -64.83 -85.88 -80.88 -70.71 -63.40 -61.90 -63.59 -65.55 -68.83 -75.62 -85.02 -100.28 -137.34 -190.99 -223.45 -233.92 -239.70 -242.70 -241.58 -238.47 -234.17 -228.35 -222.43 -217.09 -212.63 -211.04 -212.61 -215.84 -218.20 -217.83 -216.34 -216.98 -220.82 -226.05 -230.30 -234.79 -239.83 -248.45 -271.71 -306.54 -327.65 -332.94 -334.22 -334.99 -335.02 -333.86 -332.47 -331.44 -331.10 -331.54 -333.20 -335.28 -336.82 -337.18 -335.38 -332.43 -331.12 -331.68 -331.99 -329.92 -325.47 -319.53 -313.33 -300.77 -259.41 -194.44 -157.49 -150.61 -149.28 -148.85 -149.79
368.62 365.09 355.46 343.79 338.32 338.94 340.50 341.19 340.77 340.01 342.71 350.70 358.39 359.34 355.44 352.72 353.02 351.55 342.43 326.20 309.32 296.40 281.07 256.36 239.69 280.48 375.41 430.67 436.40 428.04 415.81 405.30 400.08 397.83 393.42 386.81 381.55 379.68 382.05 388.99 394.14 392.18 386.99 386.59 396.08 414.11 433.16 446.19 450.48 444.13 417.25 330.83 194.71 110.16 87.47 81.69 77.28 72.42 69.28 66.62 59.77 48.91 38.16 23.56 -11.78 -61.58 -86.21 -84.56 -77.65 -74.83 -76.39 -76.52 -74.91 -76.59 -83.73 -93.95 -109.39 -146.43 -199.97 -231.65 -240.48 -245.03 -247.78 -246.79 -244.18 -240.50 -235.05 -229.05 -223.30 -218.73 -217.29 -218.72 -221.60 -223.72 -222.75 -220.41 -219.72 -222.05 -226.10 -230.15 -234.41 -238.78 -247.33 -271.19 -306.65 -328.28 -334.62 -337.08 -338.68 -339.01 -337.48 -335.63 -334.90 -335.19 -335.48 -336.38 -337.22 -337.52 -337.95 -337.59 -336.29 -335.70 -335.56 -334.26 -331.49 -327.75 -322.71 -316.43 -303.90 -262.96 -197.72 -160.22 -153.78 -154.04 -155.36 -157.11
371.66 368.02 358.00 345.36 338.61 338.22 339.80 341.03 341.03 340.63 343.49 350.97 357.40 356.44 350.06 345.27 343.74 339.94 329.31 312.87 295.64 283.17 271.78 251.86 235.45 274.13 368.46 425.85 435.63 431.68 423.51 415.76 411.08 407.07 400.31 392.53 386.46 381.65 379.88 385.21 391.52 389.66 381.27 375.61 380.67 399.13 422.28 437.46 441.48 435.20 410.46 327.64 194.43 109.84 84.60 76.64 71.46 66.64 63.45 61.40 56.26 48.05 40.40 28.65 -5.63 -58.80 -89.99 -93.30 -88.73 -87.26 -88.55 -86.26 -82.68 -84.04 -90.93 -100.74 -116.41 -153.89 -207.70 -239.12 -246.45 -248.49 -249.65 -248.99 -247.50 -244.50 -239.32 -233.62 -228.64 -225.39 -224.94 -226.12 -227.75 -228.58 -226.38 -222.86 -221.16 -222.74 -226.12 -229.86 -233.26 -236.36 -244.19 -268.70 -305.50 -328.08 -335.20 -338.30 -340.37 -340.83 -339.77 -338.72 -338.60 -338.87 -338.62 -338.61 -338.42 -337.85 -338.22 -339.01 -339.25 -339.41 -338.97 -336.80 -333.13 -328.81 -324.09 -319.03 -308.12 -268.20 -203.05 -164.80 -158.27 -159.65 -161.84 -163.66
384.13 380.14 368.58 353.87 345.69 344.48 345.75 346.49 346.45 347.29 351.07 357.76 362.99 361.37 354.17 347.73 342.73 334.77 322.15 304.74 284.97 269.08 258.09 242.12 227.50 267.93 367.53 431.69 444.92 441.35 433.40 425.29 418.24 410.78 403.03 397.96 394.22 386.58 377.86 377.28 382.58 382.52 373.75 364.00 364.07 380.18 403.56 419.30 422.52 416.24 394.75 318.20 191.19 109.16 83.40 74.44 68.70 64.43 61.15 58.17 54.51 50.00 45.46 35.33 -0.31 -59.55 -98.33 -106.84 -104.38 -102.97 -103.41 -100.34 -95.83 -96.19 -101.86 -110.35 -125.54 -161.86 -214.00 -244.42 -250.02 -248.54 -247.31 -247.60 -248.47 -247.30 -243.01 -237.84 -233.90 -232.06 -232.55 -233.69 -234.16 -233.33 -229.48 -224.47 -222.24 -224.45 -228.74 -232.84 -235.34 -237.16 -244.12 -269.27 -308.22 -331.97 -339.08 -342.25 -344.51 -345.09 -344.75 -344.69 -344.97 -345.03 -344.63 -344.33 -344.18 -343.97 -344.02 -344.66 -345.61 -346.08 -345.20 -343.00 -339.71 -334.97 -329.93 -326.26 -317.07 -277.25 -210.73 -170.82 -163.53 -164.69 -166.35 -167.65
422.96 417.81 405.12 390.40 381.95 379.15 378.73 378.70 379.27 381.67 386.51 392.72 397.38 396.25 389.40 381.56 373.04 361.53 347.35 328.56 305.22 283.47 268.63 254.99 246.50 288.05 380.20 438.51 447.22 438.66 427.06 416.62 407.79 399.89 394.35 393.49 391.67 380.72 364.11 354.44 355.18 356.62 350.44 339.31 335.56 347.05 365.75 379.59 382.73 378.11 361.92 296.16 181.97 106.38 81.49 72.99 69.33 67.75 65.17 61.15 58.25 57.15 55.93 46.38 4.50 -67.56 -116.94 -131.85 -133.33 -133.36 -133.82 -131.09 -126.10 -124.71 -128.49 -135.29 -148.09 -177.98 -220.59 -244.81 -247.34 -243.02 -240.52 -242.34 -246.17 -248.48 -247.10 -243.53 -240.67 -239.44 -239.83 -240.67 -240.51 -238.54 -233.45 -227.40 -225.33 -228.74 -234.09 -238.41 -240.45 -241.73 -248.68 -276.98 -322.41 -349.88 -357.36 -360.40 -362.60 -363.25 -362.86 -362.65 -362.98 -363.12 -363.09 -363.35 -364.36 -366.05 -366.87 -367.22 -368.15 -368.27 -366.85 -365.00 -362.78 -358.77 -354.16 -351.37 -342.38 -298.24 -222.90 -177.07 -167.75 -168.09 -169.15 -170.06
482.95 476.64 464.15 451.12 443.34 438.79 436.07 435.44 436.81 439.98 445.09 451.15 455.89 455.53 449.13 440.18 429.58 416.98 403.04 384.33 358.64 332.56 314.08 302.22 301.15 337.66 404.33 440.28 436.81 420.74 404.19 391.41 383.68 380.84 381.69 384.18 381.19 366.25 343.18 325.01 319.59 319.81 314.68 302.88 296.23 302.00 312.83 321.39 324.90 324.75 315.86 263.68 166.73 99.94 76.56 69.89 71.28 74.86 75.42 72.52 69.98 70.17 70.25 58.86 6.80 -82.57 -144.24 -165.30 -171.05 -173.45 -174.45 -172.32 -167.94 -165.85 -167.94 -172.98 -182.06 -201.46 -227.65 -240.00 -237.81 -232.94 -231.96 -236.04 -242.34 -247.65 -249.55 -248.39 -246.90 -245.96 -245.75 -246.27 -246.35 -244.20 -238.57 -232.48 -231.13 -235.31 -240.62 -244.32 -246.44 -248.23 -256.17 -290.27 -346.31 -380.08 -388.38 -390.79 -392.16 -392.16 -391.30 -390.72 -391.05 -391.27 -391.71 -392.81 -395.85 -400.74 -403.32 -403.47 -403.52 -402.99 -401.99 -401.09 -399.50 -396.72 -393.55 -391.29 -380.81 -327.99 -237.65 -182.50 -170.54 -170.16 -170.69 -171.10
516.69 511.04 500.25 488.84 481.36 475.86 471.89 470.80 471.99 474.69 479.01 484.89 490.12 490.41 484.66 475.72 464.49 451.58 438.35 422.06 400.19 378.04 360.63 349.08 350.26 380.02 425.70 442.38 428.78 407.50 387.87 374.50 369.91 374.19 382.41 386.61 381.00 363.80 338.43 315.97 305.85 302.61 295.91 282.92 272.84 272.46 275.43 277.67 279.96 283.21 280.08 236.93 150.23 88.39 65.85 61.48 68.58 78.72 84.90 85.68 83.86 82.65 80.23 64.83 5.54 -93.06 -159.92 -183.15 -191.50 -195.85 -197.05 -194.95 -191.49 -189.92 -191.54 -195.57 -201.80 -213.72 -228.18 -231.19 -225.87 -222.63 -224.29 -230.26 -238.16 -245.08 -248.90 -249.85 -250.09 -249.80 -249.27 -250.03 -250.93 -248.81 -243.18 -238.04 -237.70 -242.05 -246.58 -249.54 -251.82 -254.16 -262.70 -299.96 -362.15 -399.70 -408.07 -409.51 -410.14 -409.23 -407.52 -406.40 -406.49 -406.94 -407.99 -409.73 -414.33 -421.82 -425.77 -425.35 -423.93 -422.82 -422.76 -422.65 -421.26 -419.39 -417.79 -416.33 -404.25 -345.35 -246.04 -185.69 -172.45 -171.24 -170.63 -170.35
516.48 513.00 505.23 496.00 489.30 484.32 480.43 478.60 478.74 480.68 484.35 489.81 495.10 496.29 492.56 485.54 474.82 460.74 446.60 434.09 422.49 412.06 400.30 387.39 383.00 402.63 435.77 443.17 425.48 402.57 383.03 371.88 371.84 381.70 394.35 399.04 391.70 374.14 349.11 325.78 313.10 306.17 296.90 282.50 270.14 266.00 264.83 263.19 262.26 263.40 259.64 217.51 132.99 73.23 52.39 50.71 61.82 76.87 88.04 93.03 93.16 91.02 85.17 65.72 3.14 -96.88 -162.30 -183.44 -191.27 -195.86 -196.84 -194.48 -191.27 -189.90 -191.46 -194.90 -199.66 -208.64 -219.31 -220.31 -216.39 -216.14 -219.52 -225.60 -233.41 -240.58 -244.84 -246.88 -248.78 -249.82 -250.13 -251.92 -253.65 -251.99 -247.43 -243.82 -243.96 -247.48 -250.89 -253.04 -254.59 -256.47 -265.02 -302.78 -366.27 -405.04 -413.27 -413.72 -413.63 -412.11 -409.55 -407.40 -407.23 -408.67 -410.77 -412.91 -418.09 -426.85 -431.64 -430.72 -428.31 -426.78 -426.84 -427.09 -426.18 -424.63 -423.69 -423.07 -410.62 -350.06 -248.70 -187.54 -174.31 -172.75 -171.77 -171.52
